VERSION .7
FIELDS x y z rgb
SIZE 4 4 4 4
TYPE F F F F
COUNT 1 1 1 1
WIDTH 961
HEIGHT 1
VIEWPOINT 0 0 0 1 0 0 0
POINTS 961
DATA ascii
0.941885 -0.039390 0.206220 2.341805152028776e-38
0.936804 -0.043793 0.205137 2.341805152028776e-38
0.933654 -0.048248 0.204480 2.341805152028776e-38
0.933409 -0.052839 0.204462 2.341805152028776e-38
0.941918 -0.057968 0.206366 2.341805152028776e-38
0.946500 -0.062923 0.207413 2.341805152028776e-38
0.950082 -0.067855 0.208244 2.341805152028776e-38
0.948768 -0.072452 0.208006 2.341805152028776e-38
0.952301 -0.077433 0.208834 2.341805152028776e-38
0.950941 -0.082031 0.208593 2.341805152028776e-38
0.954424 -0.087061 0.209417 2.341805152028776e-38
0.953991 -0.091754 0.209386 2.341805152028776e-38
0.955480 -0.096640 0.209780 2.341805152028776e-38
0.955001 -0.101338 0.209746 2.341805152028776e-38
0.955470 -0.106141 0.209923 2.341805152028776e-38
0.955915 -0.110951 0.210098 2.341805152028776e-38
0.958276 -0.116003 0.210699 2.341805152028776e-38
0.957703 -0.120714 0.210657 2.341805152028776e-38
0.960014 -0.125803 0.211254 2.341805152028776e-38
0.961330 -0.130786 0.211635 2.341805152028776e-38
0.963587 -0.135921 0.212228 2.341805152028776e-38
0.961951 -0.140517 0.211967 2.341805152028776e-38
0.962226 -0.145392 0.212130 2.341805152028776e-38
0.961510 -0.150123 0.212078 2.341805152028776e-38
0.961736 -0.155007 0.212241 2.341805152028776e-38
0.961932 -0.159908 0.212414 2.341805152028776e-38
0.964030 -0.165144 0.213012 2.341805152028776e-38
0.963213 -0.169897 0.212969 2.341805152028776e-38
0.966219 -0.175344 0.213776 2.341805152028776e-38
0.966313 -0.180288 0.213942 2.341805152028776e-38
0.967342 -0.185422 0.214319 2.341805152028776e-38
0.966426 -0.190194 0.214269 2.341805152028776e-38
0.967399 -0.195356 0.214650 2.341805152028776e-38
0.965464 -0.199962 0.214417 2.341805152028776e-38
0.968287 -0.205571 0.215244 2.341805152028776e-38
0.970123 -0.211006 0.215857 2.341805152028776e-38
0.972883 -0.216679 0.216679 2.341805152028776e-38
0.972752 -0.221735 0.216861 2.341805152028776e-38
0.975450 -0.227462 0.217678 2.341805152028776e-38
0.979064 -0.233454 0.218709 2.341805152028776e-38
0.983577 -0.239753 0.219980 2.341805152028776e-38
0.981414 -0.244453 0.219761 2.341805152028776e-38
0.979228 -0.249140 0.219539 2.341805152028776e-38
0.981750 -0.255042 0.220376 2.341805152028776e-38
0.982347 -0.260476 0.220785 2.341805152028776e-38
0.983858 -0.266181 0.221403 2.341805152028776e-38
0.987212 -0.272449 0.222459 2.341805152028776e-38
0.985814 -0.277459 0.222467 2.341805152028776e-38
0.988147 -0.283543 0.223321 2.341805152028776e-38
0.988569 -0.289111 0.223747 2.341805152028776e-38
0.988959 -0.294695 0.224170 2.341805152028776e-38
0.988382 -0.300008 0.224376 2.341805152028776e-38
0.986841 -0.305043 0.224371 2.341805152028776e-38
0.983391 -0.309526 0.223966 2.341805152028776e-38
2.754375 -0.977769 0.635193 2.341805152028776e-38
2.845741 -1.026945 0.657540 2.341805152028776e-38
0.997827 0.095902 0.213935 2.341805152028776e-38
0.944714 0.086115 0.202486 2.341805152028776e-38
0.922709 0.079540 0.197713 2.341805152028776e-38
0.925033 0.075163 0.198156 2.341805152028776e-38
0.925386 0.070616 0.198181 2.341805152028776e-38
0.924741 0.065999 0.197996 2.341805152028776e-38
0.924074 0.061389 0.197809 2.341805152028776e-38
0.925336 0.056907 0.198038 2.341805152028776e-38
0.929506 0.052581 0.198892 2.341805152028776e-38
0.926820 0.047861 0.198282 2.341805152028776e-38
0.927040 0.043306 0.198298 2.341805152028776e-38
0.929193 0.038832 0.198730 2.341805152028776e-38
0.928393 0.034230 0.198533 2.341805152028776e-38
0.928547 0.029668 0.198544 2.341805152028776e-38
0.940411 0.025422 0.201062 2.341805152028776e-38
0.946388 0.020930 0.202323 2.341805152028776e-38
0.942567 0.016212 0.201494 2.341805152028776e-38
0.938723 0.011532 0.200662 2.341805152028776e-38
0.936812 0.006905 0.200247 2.341805152028776e-38
0.937813 0.002304 0.200458 2.341805152028776e-38
0.937813 -0.002304 0.200458 2.341805152028776e-38
0.936812 -0.006905 0.200247 2.341805152028776e-38
0.936768 -0.011508 0.200244 2.341805152028776e-38
0.938656 -0.016145 0.200658 2.341805152028776e-38
0.940522 -0.020800 0.201069 2.341805152028776e-38
0.944321 -0.025527 0.201898 2.341805152028776e-38
0.945163 -0.030198 0.202097 2.341805152028776e-38
0.943051 -0.034770 0.201668 2.341805152028776e-38
0.943849 -0.039445 0.201864 2.341805152028776e-38
0.940716 -0.043945 0.201223 2.341805152028776e-38
0.934633 -0.048265 0.199954 2.341805152028776e-38
0.940246 -0.053188 0.201190 2.341805152028776e-38
0.947786 -0.058288 0.202842 2.341805152028776e-38
0.947493 -0.062945 0.202822 2.341805152028776e-38
0.946201 -0.067530 0.202591 2.341805152028776e-38
0.947813 -0.072328 0.202984 2.341805152028776e-38
0.949401 -0.077143 0.203377 2.341805152028776e-38
0.950965 -0.081975 0.203767 2.341805152028776e-38
0.949583 -0.086559 0.203530 2.341805152028776e-38
0.953047 -0.091598 0.204334 2.341805152028776e-38
0.954538 -0.096477 0.204719 2.341805152028776e-38
0.955032 -0.101270 0.204894 2.341805152028776e-38
0.953559 -0.105854 0.204650 2.341805152028776e-38
0.955949 -0.110876 0.205239 2.341805152028776e-38
0.955401 -0.115573 0.205201 2.341805152028776e-38
0.957741 -0.120633 0.205786 2.341805152028776e-38
0.959086 -0.125592 0.206161 2.341805152028776e-38
0.961374 -0.130699 0.206742 2.341805152028776e-38
0.964603 -0.135968 0.207531 2.341805152028776e-38
0.962966 -0.140566 0.207275 2.341805152028776e-38
0.962274 -0.145297 0.207226 2.341805152028776e-38
0.960593 -0.149873 0.206968 2.341805152028776e-38
0.960821 -0.154748 0.207124 2.341805152028776e-38
0.961026 -0.159628 0.207278 2.341805152028776e-38
0.963129 -0.164855 0.207861 2.341805152028776e-38
0.962314 -0.169600 0.207820 2.341805152028776e-38
0.964363 -0.174865 0.208401 2.341805152028776e-38
0.966383 -0.180156 0.208980 2.341805152028776e-38
0.965493 -0.184918 0.208934 2.341805152028776e-38
0.963620 -0.189489 0.208678 2.341805152028776e-38
0.962685 -0.194240 0.208628 2.341805152028776e-38
0.964597 -0.199586 0.209205 2.341805152028776e-38
0.967426 -0.205188 0.210015 2.341805152028776e-38
0.970223 -0.210823 0.210823 2.341805152028776e-38
0.972033 -0.216282 0.211421 2.341805152028776e-38
0.971905 -0.221330 0.211601 2.341805152028776e-38
0.972704 -0.226606 0.211987 2.341805152028776e-38
0.978232 -0.233031 0.213407 2.341805152028776e-38
0.979915 -0.238600 0.214002 2.341805152028776e-38
0.977757 -0.243279 0.213790 2.341805152028776e-38
0.976525 -0.248186 0.213784 2.341805152028776e-38
0.980949 -0.254563 0.215019 2.341805152028776e-38
0.982497 -0.260242 0.215629 2.341805152028776e-38
0.982123 -0.265434 0.215820 2.341805152028776e-38
0.983609 -0.271152 0.216424 2.341805152028776e-38
0.985991 -0.277186 0.217254 2.341805152028776e-38
0.988330 -0.283269 0.218092 2.341805152028776e-38
0.991572 -0.289659 0.219133 2.341805152028776e-38
0.989148 -0.294418 0.218926 2.341805152028776e-38
0.990447 -0.300298 0.219546 2.341805152028776e-38
0.991711 -0.306202 0.220162 2.341805152028776e-38
0.981733 -0.308627 0.218297 2.341805152028776e-38
2.696805 -0.956137 0.607182 2.341805152028776e-38
2.848217 -1.026567 0.642528 2.341805152028776e-38
0.994953 0.095560 0.208272 2.341805152028776e-38
0.939833 0.085611 0.196674 2.341805152028776e-38
0.921705 0.079398 0.192824 2.341805152028776e-38
0.922078 0.074871 0.192850 2.341805152028776e-38
0.925358 0.070566 0.193487 2.341805152028776e-38
0.923736 0.065882 0.193101 2.341805152028776e-38
0.926974 0.061539 0.193735 2.341805152028776e-38
0.927261 0.056987 0.193754 2.341805152028776e-38
0.927526 0.052433 0.193773 2.341805152028776e-38
0.927769 0.047877 0.193789 2.341805152028776e-38
0.927989 0.043321 0.193805 2.341805152028776e-38
0.928188 0.038764 0.193818 2.341805152028776e-38
0.928365 0.034205 0.193830 2.341805152028776e-38
0.931454 0.029740 0.194454 2.341805152028776e-38
0.935502 0.025272 0.195280 2.341805152028776e-38
0.938549 0.020742 0.195900 2.341805152028776e-38
0.938638 0.016133 0.195907 2.341805152028776e-38
0.937726 0.011512 0.195707 2.341805152028776e-38
0.935813 0.006893 0.195301 2.341805152028776e-38
0.936814 0.002300 0.195507 2.341805152028776e-38
0.937793 -0.002302 0.195712 2.341805152028776e-38
0.936792 -0.006900 0.195506 2.341805152028776e-38
0.937726 -0.011512 0.195707 2.341805152028776e-38
0.939617 -0.016150 0.196111 2.341805152028776e-38
0.942463 -0.020829 0.196718 2.341805152028776e-38
0.944309 -0.025509 0.197118 2.341805152028776e-38
0.943195 -0.030115 0.196905 2.341805152028776e-38
0.942060 -0.034710 0.196690 2.341805152028776e-38
0.947749 -0.039581 0.197903 2.341805152028776e-38
0.948524 -0.044280 0.198093 2.341805152028776e-38
0.947321 -0.048886 0.197873 2.341805152028776e-38
0.950005 -0.053703 0.198469 2.341805152028776e-38
0.947780 -0.058248 0.198042 2.341805152028776e-38
0.945533 -0.062771 0.197614 2.341805152028776e-38
0.946194 -0.067483 0.197796 2.341805152028776e-38
0.946833 -0.072203 0.197977 2.341805152028776e-38
0.948423 -0.077010 0.198360 2.341805152028776e-38
0.949990 -0.081835 0.198742 2.341805152028776e-38
0.950557 -0.086588 0.198918 2.341805152028776e-38
0.953050 -0.091535 0.199500 2.341805152028776e-38
0.956492 -0.096608 0.200285 2.341805152028776e-38
0.953092 -0.100994 0.199640 2.341805152028776e-38
0.955511 -0.105997 0.200217 2.341805152028776e-38
0.954987 -0.110688 0.200181 2.341805152028776e-38
0.956383 -0.115612 0.200551 2.341805152028776e-38
0.954841 -0.120185 0.200308 2.341805152028776e-38
0.949394 -0.124237 0.199248 2.341805152028776e-38
0.952662 -0.129425 0.200021 2.341805152028776e-38
0.958810 -0.135058 0.201403 2.341805152028776e-38
0.959114 -0.139907 0.201560 2.341805152028776e-38
0.958425 -0.144615 0.201513 2.341805152028776e-38
0.958681 -0.149471 0.201667 2.341805152028776e-38
0.960846 -0.154644 0.202227 2.341805152028776e-38
0.963950 -0.160003 0.202988 2.341805152028776e-38
0.963164 -0.164735 0.202934 2.341805152028776e-38
0.961387 -0.169301 0.202685 2.341805152028776e-38
0.965367 -0.174908 0.203660 2.341805152028776e-38
0.968353 -0.180380 0.204430 2.341805152028776e-38
0.966500 -0.184965 0.204182 2.341805152028776e-38
0.963665 -0.189348 0.203729 2.341805152028776e-38
0.963690 -0.194290 0.203884 2.341805152028776e-38
0.964649 -0.199435 0.204240 2.341805152028776e-38
0.966537 -0.204802 0.204802 2.341805152028776e-38
0.967426 -0.210015 0.205188 2.341805152028776e-38
0.971155 -0.215882 0.206179 2.341805152028776e-38
0.967211 -0.220054 0.205545 2.341805152028776e-38
0.969925 -0.225749 0.206329 2.341805152028776e-38
0.974512 -0.231930 0.207516 2.341805152028776e-38
0.975256 -0.237239 0.207890 2.341805152028776e-38
0.973115 -0.241866 0.207662 2.341805152028776e-38
0.977585 -0.248193 0.208875 2.341805152028776e-38
0.980119 -0.254081 0.209679 2.341805152028776e-38
0.980726 -0.259503 0.210074 2.341805152028776e-38
0.979412 -0.264430 0.210061 2.341805152028776e-38
0.980905 -0.270131 0.210653 2.341805152028776e-38
0.984252 -0.276386 0.211647 2.341805152028776e-38
0.988485 -0.282992 0.212870 2.341805152028776e-38
0.988913 -0.288558 0.213282 2.341805152028776e-38
0.991187 -0.294697 0.214096 2.341805152028776e-38
0.991550 -0.300302 0.214501 2.341805152028776e-38
0.988139 -0.304766 0.214092 2.341805152028776e-38
0.982839 -0.308619 0.213273 2.341805152028776e-38
2.753478 -0.975032 0.604947 2.341805152028776e-38
2.863513 -1.030825 0.630361 2.341805152028776e-38
0.999852 0.095966 0.204235 2.341805152028776e-38
0.941750 0.085728 0.192308 2.341805152028776e-38
0.922627 0.079424 0.188349 2.341805152028776e-38
0.923001 0.074896 0.188374 2.341805152028776e-38
0.925307 0.070514 0.188797 2.341805152028776e-38
0.927592 0.066112 0.189218 2.341805152028776e-38
0.926923 0.061495 0.189039 2.341805152028776e-38
0.928188 0.057005 0.189258 2.341805152028776e-38
0.928453 0.052450 0.189276 2.341805152028776e-38
0.931632 0.048045 0.189890 2.341805152028776e-38
0.929895 0.043381 0.189506 2.341805152028776e-38
0.930094 0.038817 0.189520 2.341805152028776e-38
0.930271 0.034253 0.189531 2.341805152028776e-38
0.931405 0.029719 0.189741 2.341805152028776e-38
0.934477 0.025227 0.190349 2.341805152028776e-38
0.937527 0.020706 0.190955 2.341805152028776e-38
0.936636 0.016088 0.190761 2.341805152028776e-38
0.936703 0.011492 0.190766 2.341805152028776e-38
0.934788 0.006881 0.190370 2.341805152028776e-38
0.937750 0.002301 0.190970 2.341805152028776e-38
0.940689 -0.002308 0.191569 2.341805152028776e-38
0.937727 -0.006902 0.190968 2.341805152028776e-38
0.939642 -0.011528 0.191364 2.341805152028776e-38
0.939575 -0.016139 0.191360 2.341805152028776e-38
0.940466 -0.020771 0.191554 2.341805152028776e-38
0.939375 -0.025359 0.191347 2.341805152028776e-38
0.940220 -0.030000 0.191537 2.341805152028776e-38
0.942022 -0.034685 0.191926 2.341805152028776e-38
0.945759 -0.039471 0.192712 2.341805152028776e-38
0.948493 -0.044249 0.193296 2.341805152028776e-38
0.947289 -0.048852 0.193082 2.341805152028776e-38
0.946063 -0.053445 0.192866 2.341805152028776e-38
0.946771 -0.058147 0.193047 2.341805152028776e-38
0.948434 -0.062922 0.193426 2.341805152028776e-38
0.947141 -0.067506 0.193206 2.341805152028776e-38
0.947780 -0.072227 0.193382 2.341805152028776e-38
0.949372 -0.077036 0.193757 2.341805152028776e-38
0.947035 -0.081526 0.193332 2.341805152028776e-38
0.949557 -0.086439 0.193903 2.341805152028776e-38
0.954005 -0.091565 0.194870 2.341805152028776e-38
0.952575 -0.096148 0.194640 2.341805152028776e-38
0.955022 -0.101131 0.195206 2.341805152028776e-38
0.955495 -0.105924 0.195371 2.341805152028776e-38
0.954971 -0.110612 0.195336 2.341805152028776e-38
0.956370 -0.115532 0.195698 2.341805152028776e-38
0.954827 -0.120102 0.195460 2.341805152028776e-38
0.953263 -0.124659 0.195221 2.341805152028776e-38
0.957503 -0.129995 0.196175 2.341805152028776e-38
0.957833 -0.134829 0.196331 2.341805152028776e-38
0.957169 -0.139529 0.196286 2.341805152028776e-38
0.958420 -0.144517 0.196637 2.341805152028776e-38
0.960615 -0.149671 0.197186 2.341805152028776e-38
0.963749 -0.155007 0.197931 2.341805152028776e-38
0.964921 -0.160055 0.198278 2.341805152028776e-38
0.962202 -0.164459 0.197827 2.341805152028776e-38
0.965256 -0.169859 0.198567 2.341805152028776e-38
0.968277 -0.175299 0.199312 2.341805152028776e-38
0.968375 -0.180243 0.199469 2.341805152028776e-38
0.965559 -0.184642 0.199029 2.341805152028776e-38
0.962723 -0.189017 0.198588 2.341805152028776e-38
0.962751 -0.193951 0.198740 2.341805152028776e-38
0.966593 -0.199683 0.199683 2.341805152028776e-38
0.970402 -0.205458 0.200624 2.341805152028776e-38
0.973218 -0.211075 0.201370 2.341805152028776e-38
0.970249 -0.215480 0.200953 2.341805152028776e-38
0.969171 -0.220297 0.200930 2.341805152028776e-38
0.969024 -0.225332 0.201103 2.341805152028776e-38
0.969805 -0.230600 0.201471 2.341805152028776e-38
0.971510 -0.236114 0.202036 2.341805152028776e-38
0.975087 -0.242124 0.202993 2.341805152028776e-38
0.979570 -0.248438 0.204162 2.341805152028776e-38
0.982107 -0.254335 0.204949 2.341805152028776e-38
0.981767 -0.259514 0.205140 2.341805152028776e-38
0.979507 -0.264188 0.204931 2.341805152028776e-38
0.981950 -0.270148 0.205709 2.341805152028776e-38
0.985301 -0.276406 0.206682 2.341805152028776e-38
0.986727 -0.282173 0.207260 2.341805152028776e-38
0.988103 -0.288003 0.207863 2.341805152028776e-38
0.987565 -0.293299 0.208067 2.341805152028776e-38
0.989814 -0.299451 0.208861 2.341805152028776e-38
0.991088 -0.305348 0.209453 2.341805152028776e-38
0.985782 -0.309214 0.208657 2.341805152028776e-38
2.748285 -0.972018 0.588887 2.341805152028776e-38
2.840941 -1.021478 0.609947 2.341805152028776e-38
0.989112 0.094873 0.197044 2.341805152028776e-38
0.939739 0.085489 0.187151 2.341805152028776e-38
0.921574 0.079282 0.183481 2.341805152028776e-38
0.923902 0.074920 0.183894 2.341805152028776e-38
0.925232 0.070463 0.184112 2.341805152028776e-38
0.925562 0.065924 0.184134 2.341805152028776e-38
0.925870 0.061385 0.184154 2.341805152028776e-38
0.927135 0.056904 0.184367 2.341805152028776e-38
0.930338 0.052522 0.184969 2.341805152028776e-38
0.928622 0.047858 0.184595 2.341805152028776e-38
0.927863 0.043258 0.184415 2.341805152028776e-38
0.928061 0.038707 0.184428 2.341805152028776e-38
0.929217 0.034192 0.184634 2.341805152028776e-38
0.930352 0.029666 0.184839 2.341805152028776e-38
0.933426 0.025182 0.185432 2.341805152028776e-38
0.935498 0.020648 0.185829 2.341805152028776e-38
0.935587 0.016060 0.185835 2.341805152028776e-38
0.934673 0.011460 0.185644 2.341805152028776e-38
0.937660 0.006897 0.186232 2.341805152028776e-38
0.937682 0.002299 0.186233 2.341805152028776e-38
0.938663 -0.002302 0.186428 2.341805152028776e-38
0.938641 -0.006905 0.186427 2.341805152028776e-38
0.938596 -0.011508 0.186424 2.341805152028776e-38
0.937549 -0.016093 0.186225 2.341805152028776e-38
0.939421 -0.020734 0.186608 2.341805152028776e-38
0.938329 -0.025314 0.186406 2.341805152028776e-38
0.940156 -0.029978 0.186787 2.341805152028776e-38
0.941960 -0.034660 0.187166 2.341805152028776e-38
0.944721 -0.039402 0.187739 2.341805152028776e-38
0.943539 -0.043989 0.187531 2.341805152028776e-38
0.943315 -0.048615 0.187516 2.341805152028776e-38
0.946006 -0.053407 0.188084 2.341805152028776e-38
0.946716 -0.058105 0.188261 2.341805152028776e-38
0.947402 -0.062812 0.188437 2.341805152028776e-38
0.948065 -0.067527 0.188611 2.341805152028776e-38
0.947727 -0.072176 0.188588 2.341805152028776e-38
0.949322 -0.076981 0.188954 2.341805152028776e-38
0.948938 -0.081636 0.188929 2.341805152028776e-38
0.952439 -0.086644 0.189680 2.341805152028776e-38
0.952984 -0.091408 0.189847 2.341805152028776e-38
0.954482 -0.096277 0.190206 2.341805152028776e-38
0.955956 -0.101163 0.190563 2.341805152028776e-38
0.953505 -0.105634 0.190142 2.341805152028776e-38
0.952008 -0.110196 0.189913 2.341805152028776e-38
0.957306 -0.115569 0.191043 2.341805152028776e-38
0.961602 -0.120875 0.191978 2.341805152028776e-38
0.965869 -0.126225 0.192910 2.341805152028776e-38
0.967190 -0.131224 0.193257 2.341805152028776e-38
0.964601 -0.135693 0.192827 2.341805152028776e-38
0.961020 -0.139998 0.192200 2.341805152028776e-38
0.960331 -0.144709 0.192155 2.341805152028776e-38
0.959619 -0.149418 0.192108 2.341805152028776e-38
0.961790 -0.154589 0.192642 2.341805152028776e-38
0.961030 -0.159305 0.192592 2.341805152028776e-38
0.962182 -0.164347 0.192929 2.341805152028776e-38
0.964273 -0.169574 0.193457 2.341805152028776e-38
0.964406 -0.174476 0.193596 2.341805152028776e-38
0.964513 -0.179388 0.193739 2.341805152028776e-38
0.964590 -0.184316 0.193891 2.341805152028776e-38
0.961755 -0.188684 0.193461 2.341805152028776e-38
0.962747 -0.193804 0.193804 2.341805152028776e-38
0.969477 -0.200128 0.195306 2.341805152028776e-38
0.964650 -0.204087 0.194483 2.341805152028776e-38
0.961726 -0.208420 0.194046 2.341805152028776e-38
0.965484 -0.214225 0.194969 2.341805152028776e-38
0.965369 -0.219234 0.195142 2.341805152028776e-38
0.968096 -0.224914 0.195892 2.341805152028776e-38
0.971744 -0.230854 0.196834 2.341805152028776e-38
0.975358 -0.236839 0.197773 2.341805152028776e-38
0.977031 -0.242394 0.198322 2.341805152028776e-38
0.980576 -0.248454 0.199255 2.341805152028776e-38
0.980273 -0.253602 0.199435 2.341805152028776e-38
0.980886 -0.259021 0.199816 2.341805152028776e-38
0.978627 -0.263688 0.199615 2.341805152028776e-38
0.982969 -0.270162 0.200763 2.341805152028776e-38
0.983491 -0.275629 0.201135 2.341805152028776e-38
0.985870 -0.281649 0.201890 2.341805152028776e-38
0.986321 -0.287172 0.202269 2.341805152028776e-38
0.987670 -0.293015 0.202857 2.341805152028776e-38
0.989924 -0.299166 0.203634 2.341805152028776e-38
0.991203 -0.305061 0.204215 2.341805152028776e-38
0.987766 -0.309513 0.203826 2.341805152028776e-38
2.732789 -0.965473 0.570827 2.341805152028776e-38
2.834856 -1.018094 0.593278 2.341805152028776e-38
0.984190 0.094340 0.191100 2.341805152028776e-38
0.935745 0.085071 0.181638 2.341805152028776e-38
0.920495 0.079138 0.178627 2.341805152028776e-38
0.922824 0.074785 0.179030 2.341805152028776e-38
0.924154 0.070336 0.179243 2.341805152028776e-38
0.924484 0.065806 0.179264 2.341805152028776e-38
0.924791 0.061274 0.179283 2.341805152028776e-38
0.927037 0.056861 0.179681 2.341805152028776e-38
0.928281 0.052373 0.179888 2.341805152028776e-38
0.926563 0.047722 0.179524 2.341805152028776e-38
0.927764 0.043226 0.179728 2.341805152028776e-38
0.926981 0.038637 0.179551 2.341805152028776e-38
0.928138 0.034130 0.179752 2.341805152028776e-38
0.932217 0.029706 0.180522 2.341805152028776e-38
0.934313 0.025190 0.180910 2.341805152028776e-38
0.934424 0.020611 0.180917 2.341805152028776e-38
0.934513 0.016031 0.180923 2.341805152028776e-38
0.934579 0.011451 0.180927 2.341805152028776e-38
0.936587 0.006885 0.181310 2.341805152028776e-38
0.937591 0.002297 0.181502 2.341805152028776e-38
0.938573 -0.002300 0.181692 2.341805152028776e-38
0.936587 -0.006885 0.181310 2.341805152028776e-38
0.937524 -0.011487 0.181497 2.341805152028776e-38
0.936476 -0.016065 0.181303 2.341805152028776e-38
0.937369 -0.020676 0.181488 2.341805152028776e-38
0.938239 -0.025296 0.181670 2.341805152028776e-38
0.942030 -0.030019 0.182422 2.341805152028776e-38
0.940893 -0.034599 0.182222 2.341805152028776e-38
0.942676 -0.039292 0.182591 2.341805152028776e-38
0.942474 -0.043911 0.182578 2.341805152028776e-38
0.943231 -0.048580 0.182753 2.341805152028776e-38
0.942985 -0.053202 0.182738 2.341805152028776e-38
0.945656 -0.058003 0.183290 2.341805152028776e-38
0.946344 -0.062702 0.183462 2.341805152028776e-38
0.946029 -0.067339 0.183441 2.341805152028776e-38
0.946671 -0.072049 0.183610 2.341805152028776e-38
0.949246 -0.076926 0.184156 2.341805152028776e-38
0.951797 -0.081830 0.184701 2.341805152028776e-38
0.953346 -0.086671 0.185055 2.341805152028776e-38
0.954869 -0.091530 0.185407 2.341805152028776e-38
0.956369 -0.096406 0.185757 2.341805152028776e-38
0.953938 -0.100885 0.185347 2.341805152028776e-38
0.954414 -0.105667 0.185505 2.341805152028776e-38
0.952916 -0.110231 0.185282 2.341805152028776e-38
0.958220 -0.115606 0.186385 2.341805152028776e-38
0.965442 -0.121280 0.187865 2.341805152028776e-38
0.961923 -0.125629 0.187258 2.341805152028776e-38
0.960330 -0.130210 0.187029 2.341805152028776e-38
0.961633 -0.135189 0.187367 2.341805152028776e-38
0.961939 -0.140042 0.187513 2.341805152028776e-38
0.959308 -0.144462 0.187091 2.341805152028776e-38
0.959567 -0.149314 0.187234 2.341805152028776e-38
0.960772 -0.154326 0.187566 2.341805152028776e-38
0.961951 -0.159355 0.187896 2.341805152028776e-38
0.962136 -0.164233 0.188035 2.341805152028776e-38
0.962297 -0.169117 0.188172 2.341805152028776e-38
0.963400 -0.174181 0.188497 2.341805152028776e-38
0.965441 -0.179440 0.189010 2.341805152028776e-38
0.965524 -0.184358 0.189146 2.341805152028776e-38
0.962686 -0.188727 0.188727 2.341805152028776e-38
0.966568 -0.194429 0.189629 2.341805152028776e-38
0.962723 -0.198588 0.189017 2.341805152028776e-38
0.951175 -0.201089 0.186894 2.341805152028776e-38
0.952103 -0.206184 0.187224 2.341805152028776e-38
0.960673 -0.212993 0.189062 2.341805152028776e-38
0.965365 -0.219037 0.190153 2.341805152028776e-38
0.969052 -0.224937 0.191075 2.341805152028776e-38
0.972706 -0.230880 0.191995 2.341805152028776e-38
0.973461 -0.236172 0.192346 2.341805152028776e-38
0.976093 -0.241952 0.193072 2.341805152028776e-38
0.978693 -0.247764 0.193796 2.341805152028776e-38
0.978406 -0.252873 0.193951 2.341805152028776e-38
0.979027 -0.258275 0.194321 2.341805152028776e-38
0.988151 -0.265994 0.196388 2.341805152028776e-38
0.991540 -0.272254 0.197322 2.341805152028776e-38
0.986379 -0.276173 0.196556 2.341805152028776e-38
0.984037 -0.280858 0.196352 2.341805152028776e-38
0.987331 -0.287174 0.197276 2.341805152028776e-38
0.988689 -0.293007 0.197843 2.341805152028776e-38
0.990006 -0.298878 0.198415 2.341805152028776e-38
0.993167 -0.305350 0.199360 2.341805152028776e-38
0.986915 -0.308929 0.198418 2.341805152028776e-38
1.043347 -0.332432 0.210097 2.341805152028776e-38
2.723656 -0.961224 0.554282 2.341805152028776e-38
2.804634 -1.006092 0.571808 2.341805152028776e-38
0.996842 0.095494 0.188539 2.341805152028776e-38
0.938571 0.085275 0.177464 2.341805152028776e-38
0.921349 0.079163 0.174158 2.341805152028776e-38
0.921721 0.074649 0.174181 2.341805152028776e-38
0.924031 0.070283 0.174573 2.341805152028776e-38
0.925341 0.065826 0.174779 2.341805152028776e-38
0.924668 0.061228 0.174613 2.341805152028776e-38
0.924953 0.056698 0.174631 2.341805152028776e-38
0.926198 0.052223 0.174832 2.341805152028776e-38
0.926440 0.047686 0.174847 2.341805152028776e-38
0.927641 0.043193 0.175046 2.341805152028776e-38
0.926857 0.038608 0.174873 2.341805152028776e-38
0.929979 0.034177 0.175440 2.341805152028776e-38
0.932098 0.029684 0.175820 2.341805152028776e-38
0.936160 0.025224 0.176569 2.341805152028776e-38
0.935289 0.020617 0.176391 2.341805152028776e-38
0.936360 0.016053 0.176582 2.341805152028776e-38
0.935444 0.011455 0.176401 2.341805152028776e-38
0.937454 0.006887 0.176774 2.341805152028776e-38
0.938459 0.002298 0.176961 2.341805152028776e-38
0.938459 -0.002298 0.176961 2.341805152028776e-38
0.936471 -0.006880 0.176589 2.341805152028776e-38
0.935444 -0.011455 0.176401 2.341805152028776e-38
0.935377 -0.016036 0.176397 2.341805152028776e-38
0.936271 -0.020639 0.176576 2.341805152028776e-38
0.939107 -0.025304 0.177125 2.341805152028776e-38
0.941920 -0.029997 0.177673 2.341805152028776e-38
0.940782 -0.034574 0.177478 2.341805152028776e-38
0.941585 -0.039222 0.177652 2.341805152028776e-38
0.941384 -0.043833 0.177639 2.341805152028776e-38
0.942142 -0.048494 0.177811 2.341805152028776e-38
0.941896 -0.053108 0.177795 2.341805152028776e-38
0.944570 -0.057901 0.178334 2.341805152028776e-38
0.945260 -0.062591 0.178501 2.341805152028776e-38
0.946906 -0.067360 0.178852 2.341805152028776e-38
0.946568 -0.071997 0.178831 2.341805152028776e-38
0.948168 -0.076791 0.179179 2.341805152028776e-38
0.948764 -0.081518 0.179340 2.341805152028776e-38
0.953252 -0.086609 0.180240 2.341805152028776e-38
0.951843 -0.091183 0.180028 2.341805152028776e-38
0.952368 -0.095943 0.180185 2.341805152028776e-38
0.951892 -0.100606 0.180155 2.341805152028776e-38
0.953347 -0.105484 0.180494 2.341805152028776e-38
0.954778 -0.110378 0.180831 2.341805152028776e-38
0.957159 -0.115406 0.181352 2.341805152028776e-38
0.954639 -0.119848 0.180947 2.341805152028776e-38
0.953073 -0.124395 0.180725 2.341805152028776e-38
0.958303 -0.129854 0.181795 2.341805152028776e-38
0.960583 -0.134956 0.182310 2.341805152028776e-38
0.958945 -0.139518 0.182083 2.341805152028776e-38
0.960202 -0.144507 0.182410 2.341805152028776e-38
0.961434 -0.149510 0.182735 2.341805152028776e-38
0.962639 -0.154529 0.183058 2.341805152028776e-38
0.961880 -0.159243 0.183011 2.341805152028776e-38
0.961098 -0.163953 0.182962 2.341805152028776e-38
0.961260 -0.168829 0.183096 2.341805152028776e-38
0.962366 -0.173885 0.183413 2.341805152028776e-38
0.963446 -0.178956 0.183728 2.341805152028776e-38
0.965464 -0.184226 0.184226 2.341805152028776e-38
0.963595 -0.188768 0.183989 2.341805152028776e-38
0.965554 -0.194085 0.184501 2.341805152028776e-38
0.957857 -0.197442 0.183169 2.341805152028776e-38
0.953036 -0.201338 0.182388 2.341805152028776e-38
0.959729 -0.207687 0.183815 2.341805152028776e-38
0.963503 -0.213469 0.184686 2.341805152028776e-38
0.964368 -0.218641 0.185004 2.341805152028776e-38
0.969986 -0.224958 0.186255 2.341805152028776e-38
0.967905 -0.229543 0.186050 2.341805152028776e-38
0.973445 -0.235967 0.187314 2.341805152028776e-38
0.973220 -0.241035 0.187471 2.341805152028776e-38
0.975828 -0.246831 0.188178 2.341805152028776e-38
0.975547 -0.251923 0.188331 2.341805152028776e-38
0.989495 -0.260783 0.191241 2.341805152028776e-38
1.005261 -0.270341 0.194544 2.341805152028776e-38
1.002944 -0.275124 0.194354 2.341805152028776e-38
0.989245 -0.276715 0.191956 2.341805152028776e-38
0.986900 -0.281413 0.191759 2.341805152028776e-38
0.989252 -0.287467 0.192478 2.341805152028776e-38
0.988739 -0.292718 0.192644 2.341805152028776e-38
0.990061 -0.298588 0.193204 2.341805152028776e-38
0.990409 -0.304192 0.193577 2.341805152028776e-38
0.985097 -0.308050 0.192844 2.341805152028776e-38
1.037845 -0.330349 0.203495 2.341805152028776e-38
2.719988 -0.958929 0.538960 2.341805152028776e-38
2.822350 -1.011402 0.560273 2.341805152028776e-38
0.985015 0.094304 0.181353 2.341805152028776e-38
0.938440 0.085211 0.172726 2.341805152028776e-38
0.922181 0.079186 0.169685 2.341805152028776e-38
0.922553 0.074671 0.169707 2.341805152028776e-38
0.923885 0.070229 0.169909 2.341805152028776e-38
0.924214 0.065706 0.169929 2.341805152028776e-38
0.924521 0.061181 0.169948 2.341805152028776e-38
0.924806 0.056655 0.169965 2.341805152028776e-38
0.927033 0.052238 0.170342 2.341805152028776e-38
0.926293 0.047649 0.170176 2.341805152028776e-38
0.926513 0.043115 0.170189 2.341805152028776e-38
0.927693 0.038620 0.170382 2.341805152028776e-38
0.929835 0.034151 0.170753 2.341805152028776e-38
0.932938 0.029693 0.171304 2.341805152028776e-38
0.936021 0.025205 0.171854 2.341805152028776e-38
0.936132 0.020623 0.171861 2.341805152028776e-38
0.935237 0.016024 0.171685 2.341805152028776e-38
0.935304 0.011446 0.171690 2.341805152028776e-38
0.935348 0.006868 0.171692 2.341805152028776e-38
0.937337 0.002294 0.172055 2.341805152028776e-38
0.937337 -0.002294 0.172055 2.341805152028776e-38
0.936331 -0.006875 0.171873 2.341805152028776e-38
0.934320 -0.011434 0.171509 2.341805152028776e-38
0.934254 -0.016007 0.171505 2.341805152028776e-38
0.937115 -0.020645 0.172041 2.341805152028776e-38
0.940937 -0.025338 0.172757 2.341805152028776e-38
0.941786 -0.029974 0.172929 2.341805152028776e-38
0.941630 -0.034584 0.172919 2.341805152028776e-38
0.942434 -0.039234 0.173089 2.341805152028776e-38
0.942233 -0.043846 0.173077 2.341805152028776e-38
0.942010 -0.048458 0.173063 2.341805152028776e-38
0.940782 -0.053013 0.172868 2.341805152028776e-38
0.943459 -0.057798 0.173393 2.341805152028776e-38
0.948075 -0.062740 0.174277 2.341805152028776e-38
0.946779 -0.067310 0.174078 2.341805152028776e-38
0.945462 -0.071869 0.173877 2.341805152028776e-38
0.945102 -0.076496 0.173855 2.341805152028776e-38
0.946681 -0.081290 0.174193 2.341805152028776e-38
0.947256 -0.086012 0.174349 2.341805152028776e-38
0.949766 -0.090929 0.174863 2.341805152028776e-38
0.952250 -0.095873 0.175377 2.341805152028776e-38
0.952753 -0.100636 0.175528 2.341805152028776e-38
0.951277 -0.105191 0.175318 2.341805152028776e-38
0.954665 -0.110298 0.176007 2.341805152028776e-38
0.954120 -0.114969 0.175974 2.341805152028776e-38
0.952576 -0.119516 0.175759 2.341805152028776e-38
0.953937 -0.124432 0.176083 2.341805152028776e-38
0.957222 -0.129628 0.176766 2.341805152028776e-38
0.960480 -0.134860 0.177447 2.341805152028776e-38
0.959816 -0.139560 0.177407 2.341805152028776e-38
0.960101 -0.144403 0.177545 2.341805152028776e-38
0.959391 -0.149102 0.177502 2.341805152028776e-38
0.959629 -0.153952 0.177637 2.341805152028776e-38
0.960813 -0.158969 0.177951 2.341805152028776e-38
0.959063 -0.163506 0.177724 2.341805152028776e-38
0.959229 -0.168369 0.177854 2.341805152028776e-38
0.961307 -0.173587 0.178343 2.341805152028776e-38
0.963356 -0.178830 0.178830 2.341805152028776e-38
0.964412 -0.183912 0.179136 2.341805152028776e-38
0.963510 -0.188632 0.179081 2.341805152028776e-38
0.962584 -0.193351 0.179029 2.341805152028776e-38
0.963557 -0.198477 0.179347 2.341805152028776e-38
0.963540 -0.203414 0.179483 2.341805152028776e-38
0.963498 -0.208357 0.179618 2.341805152028776e-38
0.964392 -0.213517 0.179930 2.341805152028776e-38
0.968137 -0.219343 0.180778 2.341805152028776e-38
0.968973 -0.224546 0.181086 2.341805152028776e-38
0.969770 -0.229791 0.181414 2.341805152028776e-38
0.971490 -0.235296 0.181930 2.341805152028776e-38
0.977000 -0.241770 0.183159 2.341805152028776e-38
0.977700 -0.247101 0.183491 2.341805152028776e-38
0.976466 -0.251954 0.183462 2.341805152028776e-38
0.989479 -0.260561 0.186115 2.341805152028776e-38
0.997672 -0.268047 0.187884 2.341805152028776e-38
0.984929 -0.269930 0.185732 2.341805152028776e-38
0.984510 -0.275137 0.185903 2.341805152028776e-38
0.986903 -0.281156 0.186608 2.341805152028776e-38
0.991149 -0.287758 0.187668 2.341805152028776e-38
0.990637 -0.293015 0.187830 2.341805152028776e-38
0.991031 -0.298579 0.188180 2.341805152028776e-38
0.991381 -0.304187 0.188546 2.341805152028776e-38
0.987004 -0.308342 0.188013 2.341805152028776e-38
1.038867 -0.330352 0.198211 2.341805152028776e-38
2.725514 -0.959897 0.525491 2.341805152028776e-38
2.812233 -1.006758 0.543215 2.341805152028776e-38
0.986861 0.094425 0.176744 2.341805152028776e-38
0.940245 0.085325 0.168344 2.341805152028776e-38
0.922992 0.079209 0.165208 2.341805152028776e-38
0.922383 0.074613 0.165054 2.341805152028776e-38
0.924696 0.070249 0.165426 2.341805152028776e-38
0.923061 0.065585 0.165094 2.341805152028776e-38
0.923368 0.061069 0.165112 2.341805152028776e-38
0.925618 0.056671 0.165480 2.341805152028776e-38
0.925881 0.052143 0.165496 2.341805152028776e-38
0.926123 0.047613 0.165510 2.341805152028776e-38
0.925359 0.043036 0.165347 2.341805152028776e-38
0.927523 0.038590 0.165711 2.341805152028776e-38
0.930651 0.034161 0.166248 2.341805152028776e-38
0.934741 0.029733 0.166960 2.341805152028776e-38
0.937826 0.025239 0.167495 2.341805152028776e-38
0.935969 0.020608 0.167150 2.341805152028776e-38
0.936057 0.016029 0.167156 2.341805152028776e-38
0.936124 0.011449 0.167160 2.341805152028776e-38
0.936168 0.006870 0.167162 2.341805152028776e-38
0.938159 0.002295 0.167515 2.341805152028776e-38
0.938159 -0.002295 0.167515 2.341805152028776e-38
0.938137 -0.006884 0.167514 2.341805152028776e-38
0.937108 -0.011461 0.167335 2.341805152028776e-38
0.938026 -0.016062 0.167507 2.341805152028776e-38
0.940889 -0.020716 0.168029 2.341805152028776e-38
0.939794 -0.025292 0.167847 2.341805152028776e-38
0.941628 -0.029952 0.168190 2.341805152028776e-38
0.941472 -0.034558 0.168181 2.341805152028776e-38
0.942277 -0.039204 0.168346 2.341805152028776e-38
0.940110 -0.043722 0.167983 2.341805152028776e-38
0.939887 -0.048320 0.167970 2.341805152028776e-38
0.943573 -0.053139 0.168658 2.341805152028776e-38
0.945270 -0.057875 0.168994 2.341805152028776e-38
0.946943 -0.062628 0.169328 2.341805152028776e-38
0.945647 -0.067190 0.169134 2.341805152028776e-38
0.945311 -0.071815 0.169114 2.341805152028776e-38
0.944952 -0.076439 0.169093 2.341805152028776e-38
0.946532 -0.081229 0.169421 2.341805152028776e-38
0.948089 -0.086037 0.169748 2.341805152028776e-38
0.951581 -0.091049 0.170425 2.341805152028776e-38
0.952108 -0.095802 0.170574 2.341805152028776e-38
0.951633 -0.100459 0.170546 2.341805152028776e-38
0.950157 -0.105005 0.170341 2.341805152028776e-38
0.952572 -0.109991 0.170837 2.341805152028776e-38
0.952028 -0.114650 0.170805 2.341805152028776e-38
0.951462 -0.119306 0.170771 2.341805152028776e-38
0.954778 -0.124468 0.171437 2.341805152028776e-38
0.957091 -0.129534 0.171927 2.341805152028776e-38
0.958402 -0.134489 0.172240 2.341805152028776e-38
0.957740 -0.139176 0.172201 2.341805152028776e-38
0.956081 -0.143713 0.171985 2.341805152028776e-38
0.956347 -0.148540 0.172118 2.341805152028776e-38
0.959505 -0.153841 0.172775 2.341805152028776e-38
0.958749 -0.158534 0.172731 2.341805152028776e-38
0.958941 -0.163388 0.172859 2.341805152028776e-38
0.959109 -0.168248 0.172987 2.341805152028776e-38
0.960221 -0.173288 0.173288 2.341805152028776e-38
0.962275 -0.178523 0.173762 2.341805152028776e-38
0.963333 -0.183597 0.174060 2.341805152028776e-38
0.962433 -0.188308 0.174006 2.341805152028776e-38
0.963441 -0.193403 0.174301 2.341805152028776e-38
0.963455 -0.198319 0.174426 2.341805152028776e-38
0.964404 -0.203457 0.174734 2.341805152028776e-38
0.964363 -0.208401 0.174865 2.341805152028776e-38
0.968142 -0.214201 0.175693 2.341805152028776e-38
0.969967 -0.219609 0.176170 2.341805152028776e-38
0.967925 -0.224152 0.175947 2.341805152028776e-38
0.969695 -0.229588 0.176420 2.341805152028776e-38
0.973335 -0.235549 0.177269 2.341805152028776e-38
0.977894 -0.241794 0.178293 2.341805152028776e-38
0.974777 -0.246163 0.177920 2.341805152028776e-38
0.976408 -0.251737 0.178416 2.341805152028776e-38
0.980865 -0.258087 0.179432 2.341805152028776e-38
0.981478 -0.263467 0.179749 2.341805152028776e-38
0.979200 -0.268115 0.179563 2.341805152028776e-38
0.980688 -0.273821 0.180080 2.341805152028776e-38
0.985932 -0.280628 0.181291 2.341805152028776e-38
0.989241 -0.286949 0.182150 2.341805152028776e-38
0.988734 -0.292195 0.182310 2.341805152028776e-38
0.991970 -0.298580 0.183163 2.341805152028776e-38
0.991386 -0.303892 0.183340 2.341805152028776e-38
0.986067 -0.307752 0.182649 2.341805152028776e-38
1.038923 -0.330053 0.192751 2.341805152028776e-38
2.734689 -0.962166 0.512687 2.341805152028776e-38
2.824268 -1.010066 0.530466 2.341805152028776e-38
0.994571 0.095108 0.173145 2.341805152028776e-38
0.939086 0.085171 0.163437 2.341805152028776e-38
0.922799 0.079147 0.160556 2.341805152028776e-38
0.923171 0.074635 0.160577 2.341805152028776e-38
0.923521 0.070120 0.160597 2.341805152028776e-38
0.921884 0.065464 0.160275 2.341805152028776e-38
0.923173 0.061021 0.160463 2.341805152028776e-38
0.924441 0.056567 0.160650 2.341805152028776e-38
0.926672 0.052157 0.161007 2.341805152028776e-38
0.925929 0.047575 0.160850 2.341805152028776e-38
0.927133 0.043094 0.161034 2.341805152028776e-38
0.928315 0.038601 0.161216 2.341805152028776e-38
0.931445 0.034170 0.161739 2.341805152028776e-38
0.932584 0.029647 0.161919 2.341805152028776e-38
0.934686 0.025140 0.162268 2.341805152028776e-38
0.935782 0.020592 0.162446 2.341805152028776e-38
0.935870 0.016016 0.162451 2.341805152028776e-38
0.934952 0.011428 0.162284 2.341805152028776e-38
0.936966 0.006872 0.162628 2.341805152028776e-38
0.936988 0.002291 0.162629 2.341805152028776e-38
0.939944 -0.002298 0.163143 2.341805152028776e-38
0.937952 -0.006879 0.162799 2.341805152028776e-38
0.937907 -0.011465 0.162797 2.341805152028776e-38
0.938826 -0.016067 0.162964 2.341805152028776e-38
0.938737 -0.020657 0.162959 2.341805152028776e-38
0.939611 -0.025273 0.163123 2.341805152028776e-38
0.942431 -0.029960 0.163629 2.341805152028776e-38
0.942275 -0.034568 0.163620 2.341805152028776e-38
0.939143 -0.039051 0.163097 2.341805152028776e-38
0.938943 -0.043642 0.163085 2.341805152028776e-38
0.940689 -0.048334 0.163414 2.341805152028776e-38
0.944379 -0.053154 0.164084 2.341805152028776e-38
0.945094 -0.057831 0.164239 2.341805152028776e-38
0.944803 -0.062451 0.164223 2.341805152028776e-38
0.943506 -0.067000 0.164034 2.341805152028776e-38
0.946118 -0.071836 0.164527 2.341805152028776e-38
0.944777 -0.076381 0.164336 2.341805152028776e-38
0.946360 -0.081168 0.164655 2.341805152028776e-38
0.948899 -0.086061 0.165144 2.341805152028776e-38
0.950433 -0.090887 0.165461 2.341805152028776e-38
0.949982 -0.095533 0.165435 2.341805152028776e-38
0.949508 -0.100177 0.165408 2.341805152028776e-38
0.950971 -0.105034 0.165721 2.341805152028776e-38
0.951430 -0.109796 0.165862 2.341805152028776e-38
0.951865 -0.114564 0.166001 2.341805152028776e-38
0.953255 -0.119462 0.166310 2.341805152028776e-38
0.955597 -0.124503 0.166788 2.341805152028776e-38
0.955959 -0.129306 0.166923 2.341805152028776e-38
0.958249 -0.134390 0.167398 2.341805152028776e-38
0.957587 -0.139073 0.167360 2.341805152028776e-38
0.956903 -0.143754 0.167320 2.341805152028776e-38
0.958143 -0.148733 0.167620 2.341805152028776e-38
0.957412 -0.153417 0.167578 2.341805152028776e-38
0.959574 -0.158578 0.168046 2.341805152028776e-38
0.961709 -0.163765 0.168511 2.341805152028776e-38
0.960905 -0.168465 0.168465 2.341805152028776e-38
0.962988 -0.173687 0.168928 2.341805152028776e-38
0.963104 -0.178573 0.169049 2.341805152028776e-38
0.962229 -0.183280 0.168999 2.341805152028776e-38
0.962297 -0.188172 0.169117 2.341805152028776e-38
0.964273 -0.193457 0.169574 2.341805152028776e-38
0.966221 -0.198766 0.170029 2.341805152028776e-38
0.966208 -0.203701 0.170151 2.341805152028776e-38
0.970020 -0.209484 0.170958 2.341805152028776e-38
0.969949 -0.214459 0.171085 2.341805152028776e-38
0.970814 -0.219656 0.171380 2.341805152028776e-38
0.968772 -0.224200 0.171164 2.341805152028776e-38
0.969585 -0.229411 0.171455 2.341805152028776e-38
0.972284 -0.235105 0.172087 2.341805152028776e-38
0.973980 -0.240634 0.172576 2.341805152028776e-38
0.974689 -0.245946 0.172893 2.341805152028776e-38
0.978232 -0.252010 0.173716 2.341805152028776e-38
0.978880 -0.257365 0.174028 2.341805152028776e-38
0.979499 -0.262733 0.174337 2.341805152028776e-38
0.977236 -0.267338 0.174137 2.341805152028776e-38
0.981579 -0.273827 0.175150 2.341805152028776e-38
0.983985 -0.279829 0.175821 2.341805152028776e-38
0.988249 -0.286412 0.176828 2.341805152028776e-38
0.988690 -0.291931 0.177155 2.341805152028776e-38
0.990989 -0.298031 0.177817 2.341805152028776e-38
0.992305 -0.303882 0.178311 2.341805152028776e-38
0.986984 -0.307746 0.177642 2.341805152028776e-38
1.039890 -0.330051 0.187469 2.341805152028776e-38
2.765189 -0.971947 0.503709 2.341805152028776e-38
2.827893 -1.010384 0.516096 2.341805152028776e-38
0.989507 0.094571 0.167318 2.341805152028776e-38
0.941831 0.085373 0.159208 2.341805152028776e-38
0.924548 0.079253 0.156242 2.341805152028776e-38
0.922955 0.074576 0.155931 2.341805152028776e-38
0.924288 0.070139 0.156116 2.341805152028776e-38
0.922649 0.065482 0.155802 2.341805152028776e-38
0.923939 0.061038 0.155986 2.341805152028776e-38
0.927177 0.056703 0.156500 2.341805152028776e-38
0.928425 0.052227 0.156681 2.341805152028776e-38
0.928667 0.047690 0.156694 2.341805152028776e-38
0.927901 0.043105 0.156540 2.341805152028776e-38
0.928099 0.038571 0.156551 2.341805152028776e-38
0.929260 0.034071 0.156727 2.341805152028776e-38
0.932371 0.029624 0.157235 2.341805152028776e-38
0.934475 0.025121 0.157574 2.341805152028776e-38
0.934585 0.020554 0.157581 2.341805152028776e-38
0.934674 0.015987 0.157586 2.341805152028776e-38
0.935726 0.011432 0.157755 2.341805152028776e-38
0.937743 0.006873 0.158090 2.341805152028776e-38
0.938751 0.002294 0.158258 2.341805152028776e-38
0.938751 -0.002294 0.158258 2.341805152028776e-38
0.938729 -0.006881 0.158257 2.341805152028776e-38
0.939670 -0.011480 0.158420 2.341805152028776e-38
0.939604 -0.016071 0.158417 2.341805152028776e-38
0.939515 -0.020662 0.158412 2.341805152028776e-38
0.940389 -0.025280 0.158572 2.341805152028776e-38
0.942227 -0.029937 0.158897 2.341805152028776e-38
0.941085 -0.034505 0.158722 2.341805152028776e-38
0.941893 -0.039144 0.158878 2.341805152028776e-38
0.940707 -0.043700 0.158701 2.341805152028776e-38
0.941469 -0.048347 0.158854 2.341805152028776e-38
0.941224 -0.052947 0.158841 2.341805152028776e-38
0.942925 -0.057666 0.159158 2.341805152028776e-38
0.944602 -0.062403 0.159474 2.341805152028776e-38
0.945273 -0.067088 0.159623 2.341805152028776e-38
0.942970 -0.071557 0.159272 2.341805152028776e-38
0.944579 -0.076323 0.159584 2.341805152028776e-38
0.945180 -0.081022 0.159729 2.341805152028776e-38
0.945759 -0.085729 0.159872 2.341805152028776e-38
0.948278 -0.090631 0.160347 2.341805152028776e-38
0.948809 -0.095362 0.160487 2.341805152028776e-38
0.948336 -0.099997 0.160461 2.341805152028776e-38
0.951762 -0.105063 0.161097 2.341805152028776e-38
0.952222 -0.109826 0.161234 2.341805152028776e-38
0.956574 -0.115067 0.162033 2.341805152028776e-38
0.956984 -0.119862 0.162167 2.341805152028776e-38
0.956393 -0.124538 0.162134 2.341805152028776e-38
0.958710 -0.129606 0.162597 2.341805152028776e-38
0.958072 -0.134290 0.162561 2.341805152028776e-38
0.958386 -0.139112 0.162690 2.341805152028776e-38
0.958677 -0.143940 0.162817 2.341805152028776e-38
0.956019 -0.148321 0.162446 2.341805152028776e-38
0.957238 -0.153303 0.162737 2.341805152028776e-38
0.958430 -0.158300 0.163026 2.341805152028776e-38
0.959597 -0.163313 0.163313 2.341805152028776e-38
0.960738 -0.168341 0.163599 2.341805152028776e-38
0.963794 -0.173734 0.164215 2.341805152028776e-38
0.962942 -0.178442 0.164167 2.341805152028776e-38
0.962066 -0.183146 0.164118 2.341805152028776e-38
0.962136 -0.188035 0.164233 2.341805152028776e-38
0.962182 -0.192929 0.164347 2.341805152028776e-38
0.965101 -0.198423 0.164954 2.341805152028776e-38
0.967989 -0.203951 0.165560 2.341805152028776e-38
0.970842 -0.209525 0.166175 2.341805152028776e-38
0.971735 -0.214714 0.166464 2.341805152028776e-38
0.972600 -0.219918 0.166751 2.341805152028776e-38
0.971516 -0.224691 0.166706 2.341805152028776e-38
0.971369 -0.229686 0.166825 2.341805152028776e-38
0.974072 -0.235381 0.167436 2.341805152028776e-38
0.974821 -0.240654 0.167729 2.341805152028776e-38
0.976488 -0.246210 0.168203 2.341805152028776e-38
0.980035 -0.252281 0.169004 2.341805152028776e-38
0.977821 -0.256891 0.168814 2.341805152028776e-38
0.974633 -0.261231 0.168457 2.341805152028776e-38
0.977135 -0.267107 0.169086 2.341805152028776e-38
0.981495 -0.273566 0.170054 2.341805152028776e-38
0.986752 -0.280375 0.171202 2.341805152028776e-38
0.986281 -0.285599 0.171359 2.341805152028776e-38
0.989566 -0.291944 0.172172 2.341805152028776e-38
0.990924 -0.297763 0.172652 2.341805152028776e-38
0.992247 -0.303604 0.173130 2.341805152028776e-38
0.987874 -0.307739 0.172634 2.341805152028776e-38
1.042710 -0.330643 0.182515 2.341805152028776e-38
2.750067 -0.965708 0.486378 2.341805152028776e-38
2.791500 -0.996438 0.494635 2.341805152028776e-38
0.994236 0.094972 0.163156 2.341805152028776e-38
0.942590 0.085395 0.154635 2.341805152028776e-38
0.924310 0.079190 0.151592 2.341805152028776e-38
0.922715 0.074516 0.151290 2.341805152028776e-38
0.922081 0.069934 0.151148 2.341805152028776e-38
0.920439 0.065290 0.150843 2.341805152028776e-38
0.922714 0.060924 0.151182 2.341805152028776e-38
0.926938 0.056658 0.151843 2.341805152028776e-38
0.929172 0.052241 0.152180 2.341805152028776e-38
0.929414 0.047702 0.152193 2.341805152028776e-38
0.926677 0.043025 0.151721 2.341805152028776e-38
0.928846 0.038581 0.152054 2.341805152028776e-38
0.930994 0.034116 0.152387 2.341805152028776e-38
0.932135 0.029600 0.152556 2.341805152028776e-38
0.934240 0.025101 0.152886 2.341805152028776e-38
0.936324 0.020581 0.153215 2.341805152028776e-38
0.935426 0.015991 0.153059 2.341805152028776e-38
0.938453 0.011459 0.153547 2.341805152028776e-38
0.939484 0.006883 0.153710 2.341805152028776e-38
0.937532 0.002289 0.153389 2.341805152028776e-38
0.938519 -0.002292 0.153550 2.341805152028776e-38
0.939484 -0.006883 0.153710 2.341805152028776e-38
0.939439 -0.011471 0.153708 2.341805152028776e-38
0.938386 -0.016042 0.153543 2.341805152028776e-38
0.939284 -0.020646 0.153700 2.341805152028776e-38
0.940159 -0.025260 0.153855 2.341805152028776e-38
0.941012 -0.029882 0.154009 2.341805152028776e-38
0.940857 -0.034478 0.154001 2.341805152028776e-38
0.942651 -0.039154 0.154314 2.341805152028776e-38
0.940478 -0.043666 0.153980 2.341805152028776e-38
0.940256 -0.048259 0.153968 2.341805152028776e-38
0.940996 -0.052906 0.154116 2.341805152028776e-38
0.944669 -0.057742 0.154747 2.341805152028776e-38
0.943394 -0.062290 0.154570 2.341805152028776e-38
0.944066 -0.066966 0.154715 2.341805152028776e-38
0.943730 -0.071576 0.154696 2.341805152028776e-38
0.944356 -0.076264 0.154838 2.341805152028776e-38
0.942993 -0.080791 0.154657 2.341805152028776e-38
0.945539 -0.085662 0.155118 2.341805152028776e-38
0.945113 -0.090279 0.155095 2.341805152028776e-38
0.947611 -0.095190 0.155555 2.341805152028776e-38
0.952046 -0.100334 0.156335 2.341805152028776e-38
0.952530 -0.105091 0.156469 2.341805152028776e-38
0.952991 -0.109855 0.156602 2.341805152028776e-38
0.954408 -0.114744 0.156895 2.341805152028776e-38
0.956779 -0.119772 0.157347 2.341805152028776e-38
0.956188 -0.124443 0.157315 2.341805152028776e-38
0.956552 -0.129244 0.157443 2.341805152028776e-38
0.958847 -0.134325 0.157891 2.341805152028776e-38
0.959162 -0.139149 0.158016 2.341805152028776e-38
0.957501 -0.143685 0.157818 2.341805152028776e-38
0.957770 -0.148511 0.157941 2.341805152028776e-38
0.958989 -0.153500 0.158223 2.341805152028776e-38
0.958234 -0.158182 0.158182 2.341805152028776e-38
0.959403 -0.163191 0.158461 2.341805152028776e-38
0.960546 -0.168216 0.158739 2.341805152028776e-38
0.964578 -0.173781 0.159497 2.341805152028776e-38
0.964695 -0.178670 0.159612 2.341805152028776e-38
0.963819 -0.183380 0.159564 2.341805152028776e-38
