VERSION .7
FIELDS x y z rgb
SIZE 4 4 4 4
TYPE F F F F
COUNT 1 1 1 1
WIDTH 973
HEIGHT 1
VIEWPOINT 0 0 0 1 0 0 0
POINTS 973
DATA ascii
1.137958 0.058724 0.237693 2.341805152028776e-38
1.140185 0.053227 0.238120 2.341805152028776e-38
1.141407 0.047668 0.238341 2.341805152028776e-38
1.143581 0.042135 0.238765 2.341805152028776e-38
1.144750 0.036550 0.238982 2.341805152028776e-38
1.148827 0.031034 0.239810 2.341805152028776e-38
1.150921 0.025436 0.240228 2.341805152028776e-38
1.150052 0.019767 0.240032 2.341805152028776e-38
1.151113 0.014132 0.240241 2.341805152028776e-38
1.153125 0.008494 0.240654 2.341805152028776e-38
1.155110 0.002836 0.241064 2.341805152028776e-38
1.161963 -0.002853 0.242494 2.341805152028776e-38
1.163893 -0.008573 0.242901 2.341805152028776e-38
1.166774 -0.014324 0.243510 2.341805152028776e-38
1.166691 -0.020053 0.243504 2.341805152028776e-38
1.167559 -0.025804 0.243701 2.341805152028776e-38
1.168398 -0.031563 0.243896 2.341805152028776e-38
1.168232 -0.037300 0.243884 2.341805152028776e-38
1.168037 -0.043036 0.243871 2.341805152028776e-38
1.175640 -0.049098 0.245489 2.341805152028776e-38
1.186144 -0.055372 0.247719 2.341805152028776e-38
1.258207 -0.064930 0.262810 2.341805152028776e-38
1.114924 0.355968 0.236363 2.341805152028776e-38
1.065280 0.334150 0.225484 2.341805152028776e-38
1.048230 0.322953 0.221530 2.341805152028776e-38
1.045168 0.316198 0.220541 2.341805152028776e-38
1.044883 0.310322 0.220143 2.341805152028776e-38
1.045507 0.304735 0.219939 2.341805152028776e-38
1.047985 0.299691 0.220127 2.341805152028776e-38
1.046647 0.293615 0.219550 2.341805152028776e-38
1.050941 0.289128 0.220162 2.341805152028776e-38
1.054271 0.284353 0.220573 2.341805152028776e-38
1.052841 0.278301 0.219990 2.341805152028776e-38
1.056121 0.273502 0.220395 2.341805152028776e-38
1.057480 0.268197 0.220400 2.341805152028776e-38
1.058802 0.262912 0.220421 2.341805152028776e-38
1.059137 0.257410 0.220258 2.341805152028776e-38
1.064211 0.253048 0.221084 2.341805152028776e-38
1.065449 0.247754 0.221114 2.341805152028776e-38
1.069529 0.243109 0.221737 2.341805152028776e-38
1.069761 0.237580 0.221564 2.341805152028776e-38
1.074755 0.233096 0.222379 2.341805152028776e-38
1.080675 0.228806 0.223422 2.341805152028776e-38
1.081778 0.223478 0.223478 2.341805152028776e-38
1.079972 0.217566 0.222938 2.341805152028776e-38
1.081020 0.212243 0.222990 2.341805152028776e-38
1.080117 0.206548 0.222643 2.341805152028776e-38
1.084965 0.201944 0.223485 2.341805152028776e-38
1.090759 0.197473 0.224524 2.341805152028776e-38
1.091704 0.192110 0.224580 2.341805152028776e-38
1.092621 0.186750 0.224641 2.341805152028776e-38
1.095446 0.181706 0.225099 2.341805152028776e-38
1.097281 0.176483 0.225356 2.341805152028776e-38
1.097153 0.170945 0.225213 2.341805152028776e-38
1.099906 0.165851 0.225666 2.341805152028776e-38
1.101666 0.160592 0.225918 2.341805152028776e-38
1.101460 0.155047 0.225770 2.341805152028776e-38
1.106081 0.150167 0.226616 2.341805152028776e-38
1.106795 0.144737 0.226664 2.341805152028776e-38
1.106510 0.139181 0.226511 2.341805152028776e-38
1.108144 0.133867 0.226754 2.341805152028776e-38
1.109752 0.128540 0.226996 2.341805152028776e-38
1.110361 0.123092 0.227037 2.341805152028776e-38
1.111919 0.117745 0.227275 2.341805152028776e-38
1.115400 0.112582 0.227911 2.341805152028776e-38
1.117883 0.107295 0.228345 2.341805152028776e-38
1.118389 0.101807 0.228379 2.341805152028776e-38
1.120821 0.096486 0.228810 2.341805152028776e-38
1.126159 0.091381 0.229837 2.341805152028776e-38
1.127565 0.085928 0.230065 2.341805152028776e-38
1.129922 0.080533 0.230491 2.341805152028776e-38
1.129321 0.074922 0.230317 2.341805152028776e-38
1.131626 0.069500 0.230739 2.341805152028776e-38
1.131949 0.063946 0.230761 2.341805152028776e-38
1.137138 0.058643 0.231778 2.341805152028776e-38
1.138388 0.053107 0.231996 2.341805152028776e-38
1.140589 0.047602 0.232411 2.341805152028776e-38
1.140806 0.042005 0.232425 2.341805152028776e-38
1.142955 0.036468 0.232837 2.341805152028776e-38
1.149975 0.031044 0.234245 2.341805152028776e-38
1.151091 0.025423 0.234454 2.341805152028776e-38
1.150221 0.019757 0.234261 2.341805152028776e-38
1.150303 0.014112 0.234267 2.341805152028776e-38
1.150357 0.008468 0.234271 2.341805152028776e-38
1.155284 0.002835 0.235270 2.341805152028776e-38
1.160183 -0.002847 0.236268 2.341805152028776e-38
1.165055 -0.008576 0.237264 2.341805152028776e-38
1.167939 -0.014329 0.237859 2.341805152028776e-38
1.165896 -0.020026 0.237454 2.341805152028776e-38
1.165786 -0.025747 0.237447 2.341805152028776e-38
1.164668 -0.031441 0.237238 2.341805152028776e-38
1.167440 -0.037250 0.237825 2.341805152028776e-38
1.171162 -0.043122 0.238610 2.341805152028776e-38
1.173877 -0.048991 0.239194 2.341805152028776e-38
1.169711 -0.054569 0.238379 2.341805152028776e-38
1.212491 -0.062529 0.247137 2.341805152028776e-38
1.116112 0.355977 0.230673 2.341805152028776e-38
1.062668 0.332983 0.219282 2.341805152028776e-38
1.046530 0.322089 0.215614 2.341805152028776e-38
1.040641 0.314493 0.214067 2.341805152028776e-38
1.043167 0.309480 0.214255 2.341805152028776e-38
1.042844 0.303628 0.213860 2.341805152028776e-38
1.043418 0.298090 0.213675 2.341805152028776e-38
1.046790 0.293369 0.214080 2.341805152028776e-38
1.050140 0.288623 0.214482 2.341805152028776e-38
1.052522 0.283599 0.214687 2.341805152028776e-38
1.053931 0.278310 0.214696 2.341805152028776e-38
1.054364 0.272770 0.214509 2.341805152028776e-38
1.053810 0.267010 0.214137 2.341805152028776e-38
1.055117 0.261766 0.214172 2.341805152028776e-38
1.058306 0.256980 0.214592 2.341805152028776e-38
1.060518 0.251944 0.214816 2.341805152028776e-38
1.063663 0.247116 0.215230 2.341805152028776e-38
1.065829 0.242048 0.215449 2.341805152028776e-38
1.069886 0.237391 0.216052 2.341805152028776e-38
1.072952 0.232524 0.216488 2.341805152028776e-38
1.075033 0.227441 0.216737 2.341805152028776e-38
1.076129 0.222144 0.216791 2.341805152028776e-38
1.078161 0.217037 0.217037 2.341805152028776e-38
1.080169 0.211916 0.217281 2.341805152028776e-38
1.081189 0.206596 0.217329 2.341805152028776e-38
1.084113 0.201632 0.217762 2.341805152028776e-38
1.087974 0.196831 0.218402 2.341805152028776e-38
1.089880 0.191662 0.218657 2.341805152028776e-38
1.092729 0.186645 0.219105 2.341805152028776e-38
1.093620 0.181283 0.219163 2.341805152028776e-38
1.095453 0.176073 0.219414 2.341805152028776e-38
1.097261 0.170849 0.219663 2.341805152028776e-38
1.098076 0.165466 0.219717 2.341805152028776e-38
1.098863 0.160078 0.219768 2.341805152028776e-38
1.101568 0.154960 0.220207 2.341805152028776e-38
1.105221 0.149952 0.220838 2.341805152028776e-38
1.103989 0.144275 0.220496 2.341805152028776e-38
1.105647 0.138981 0.220735 2.341805152028776e-38
1.106307 0.133557 0.220779 2.341805152028776e-38
1.109864 0.128469 0.221403 2.341805152028776e-38
1.111447 0.123132 0.221638 2.341805152028776e-38
1.113006 0.117783 0.221870 2.341805152028776e-38
1.116491 0.112618 0.222490 2.341805152028776e-38
1.117999 0.107235 0.222720 2.341805152028776e-38
1.118505 0.101751 0.222753 2.341805152028776e-38
1.120939 0.096433 0.223173 2.341805152028776e-38
1.122370 0.091014 0.223398 2.341805152028776e-38
1.124753 0.085658 0.223815 2.341805152028776e-38
1.127111 0.080280 0.224230 2.341805152028776e-38
1.128465 0.074817 0.224450 2.341805152028776e-38
1.129793 0.069342 0.224667 2.341805152028776e-38
1.132074 0.063911 0.225078 2.341805152028776e-38
1.133349 0.058409 0.225292 2.341805152028776e-38
1.135578 0.052942 0.225699 2.341805152028776e-38
1.135821 0.047372 0.225715 2.341805152028776e-38
1.138978 0.041910 0.226313 2.341805152028776e-38
1.142108 0.036418 0.226910 2.341805152028776e-38
1.147173 0.030949 0.227895 2.341805152028776e-38
1.148290 0.025344 0.228098 2.341805152028776e-38
1.149380 0.019730 0.228300 2.341805152028776e-38
1.148481 0.014081 0.228111 2.341805152028776e-38
1.150497 0.008463 0.228504 2.341805152028776e-38
1.150524 0.002821 0.228506 2.341805152028776e-38
1.157390 -0.002838 0.229870 2.341805152028776e-38
1.162267 -0.008550 0.230842 2.341805152028776e-38
1.164173 -0.014273 0.231228 2.341805152028776e-38
1.162129 -0.019949 0.230833 2.341805152028776e-38
1.165941 -0.025734 0.231605 2.341805152028776e-38
1.161880 -0.031345 0.230816 2.341805152028776e-38
1.160735 -0.037012 0.230611 2.341805152028776e-38
1.163482 -0.042812 0.231182 2.341805152028776e-38
1.167181 -0.048680 0.231947 2.341805152028776e-38
1.161053 -0.054129 0.230762 2.341805152028776e-38
1.187225 -0.061186 0.236002 2.341805152028776e-38
1.111656 0.354196 0.223852 2.341805152028776e-38
1.060957 0.332106 0.213304 2.341805152028776e-38
1.043858 0.320934 0.209536 2.341805152028776e-38
1.041716 0.314489 0.208778 2.341805152028776e-38
1.042360 0.308913 0.208583 2.341805152028776e-38
1.040139 0.302534 0.207828 2.341805152028776e-38
1.041644 0.297300 0.207847 2.341805152028776e-38
1.045959 0.292855 0.208428 2.341805152028776e-38
1.047414 0.287596 0.208441 2.341805152028776e-38
1.048844 0.282332 0.208451 2.341805152028776e-38
1.051196 0.277314 0.208646 2.341805152028776e-38
1.050670 0.271550 0.208276 2.341805152028776e-38
1.052000 0.266323 0.208312 2.341805152028776e-38
1.056164 0.261799 0.208910 2.341805152028776e-38
1.058400 0.256779 0.209130 2.341805152028776e-38
1.059657 0.251519 0.209158 2.341805152028776e-38
1.061844 0.246476 0.209372 2.341805152028776e-38
1.065923 0.241853 0.209961 2.341805152028776e-38
1.065178 0.236163 0.209628 2.341805152028776e-38
1.067276 0.231125 0.209872 2.341805152028776e-38
1.071273 0.226479 0.210492 2.341805152028776e-38
1.073326 0.221403 0.210733 2.341805152028776e-38
1.078243 0.216893 0.211538 2.341805152028776e-38
1.080252 0.211775 0.211775 2.341805152028776e-38
1.083200 0.206827 0.212199 2.341805152028776e-38
1.083225 0.201331 0.212069 2.341805152028776e-38
1.084187 0.196019 0.212130 2.341805152028776e-38
1.085123 0.190703 0.212190 2.341805152028776e-38
1.088937 0.185877 0.212816 2.341805152028776e-38
1.093699 0.181180 0.213630 2.341805152028776e-38
1.094563 0.175817 0.213685 2.341805152028776e-38
1.095401 0.170450 0.213739 2.341805152028776e-38
1.098155 0.165371 0.214169 2.341805152028776e-38
1.099914 0.160128 0.214409 2.341805152028776e-38
1.101649 0.154872 0.214647 2.341805152028776e-38
1.102385 0.149471 0.214695 2.341805152028776e-38
1.104070 0.144193 0.214930 2.341805152028776e-38
1.104754 0.138780 0.214973 2.341805152028776e-38
1.107363 0.133599 0.215395 2.341805152028776e-38
1.109947 0.128396 0.215815 2.341805152028776e-38
1.111531 0.123063 0.216043 2.341805152028776e-38
1.111138 0.117510 0.215891 2.341805152028776e-38
1.115601 0.112457 0.216685 2.341805152028776e-38
1.118087 0.107175 0.217099 2.341805152028776e-38
1.119570 0.101783 0.217321 2.341805152028776e-38
1.121028 0.096379 0.217541 2.341805152028776e-38
1.122459 0.090963 0.217760 2.341805152028776e-38
1.124844 0.085610 0.218167 2.341805152028776e-38
1.125246 0.080096 0.218193 2.341805152028776e-38
1.127579 0.074710 0.218597 2.341805152028776e-38
1.129887 0.069303 0.218999 2.341805152028776e-38
1.132170 0.063876 0.219399 2.341805152028776e-38
1.134427 0.058427 0.219798 2.341805152028776e-38
1.135677 0.052913 0.220005 2.341805152028776e-38
1.136900 0.047387 0.220211 2.341805152028776e-38
1.137116 0.041815 0.220225 2.341805152028776e-38
1.141230 0.036367 0.220997 2.341805152028776e-38
1.143356 0.030826 0.221387 2.341805152028776e-38
1.147418 0.025309 0.222156 2.341805152028776e-38
1.148508 0.019702 0.222353 2.341805152028776e-38
1.146626 0.014049 0.221978 2.341805152028776e-38
1.144717 0.008415 0.221601 2.341805152028776e-38
1.150635 0.002820 0.222744 2.341805152028776e-38
1.156526 -0.002834 0.223884 2.341805152028776e-38
1.159444 -0.008524 0.224452 2.341805152028776e-38
1.164297 -0.014266 0.225399 2.341805152028776e-38
1.165196 -0.019988 0.225584 2.341805152028776e-38
1.164104 -0.025677 0.225387 2.341805152028776e-38
1.160040 -0.031276 0.224618 2.341805152028776e-38
1.157912 -0.036898 0.224227 2.341805152028776e-38
1.161644 -0.042717 0.224975 2.341805152028776e-38
1.166328 -0.048614 0.225911 2.341805152028776e-38
1.163137 -0.054192 0.225325 2.341805152028776e-38
1.185412 -0.061053 0.229677 2.341805152028776e-38
1.215490 -0.068577 0.235545 2.341805152028776e-38
1.104350 0.351518 0.216535 2.341805152028776e-38
1.057338 0.330640 0.206986 2.341805152028776e-38
1.043971 0.320643 0.204046 2.341805152028776e-38
1.040882 0.313915 0.203121 2.341805152028776e-38
1.041522 0.308345 0.202928 2.341805152028776e-38
1.040225 0.302279 0.202396 2.341805152028776e-38
1.041728 0.297047 0.202412 2.341805152028776e-38
1.044151 0.292074 0.202610 2.341805152028776e-38
1.046551 0.287086 0.202804 2.341805152028776e-38
1.048927 0.282083 0.202995 2.341805152028776e-38
1.050328 0.276816 0.202999 2.341805152028776e-38
1.051687 0.271586 0.203030 2.341805152028776e-38
1.054923 0.266838 0.203431 2.341805152028776e-38
1.058138 0.262066 0.203829 2.341805152028776e-38
1.057510 0.256344 0.203490 2.341805152028776e-38
1.061635 0.251771 0.204067 2.341805152028776e-38
1.062867 0.246499 0.204090 2.341805152028776e-38
1.065023 0.241462 0.204314 2.341805152028776e-38
1.065228 0.236006 0.204185 2.341805152028776e-38
1.067326 0.230971 0.204422 2.341805152028776e-38
1.072286 0.226530 0.205210 2.341805152028776e-38
1.075303 0.221651 0.205628 2.341805152028776e-38
1.075408 0.216166 0.205492 2.341805152028776e-38
1.078378 0.211254 0.205906 2.341805152028776e-38
1.082286 0.206517 0.206517 2.341805152028776e-38
1.083272 0.201213 0.206579 2.341805152028776e-38
1.084234 0.195905 0.206639 2.341805152028776e-38
1.086137 0.190761 0.206882 2.341805152028776e-38
1.088986 0.185769 0.207307 2.341805152028776e-38
1.089872 0.180433 0.207363 2.341805152028776e-38
1.091703 0.175248 0.207601 2.341805152028776e-38
1.095452 0.170351 0.208207 2.341805152028776e-38
1.096263 0.164983 0.208257 2.341805152028776e-38
1.098022 0.159753 0.208491 2.341805152028776e-38
1.100728 0.154646 0.208908 2.341805152028776e-38
1.101464 0.149253 0.208954 2.341805152028776e-38
1.104123 0.144110 0.209368 2.341805152028776e-38
1.104807 0.138700 0.209410 2.341805152028776e-38
1.106441 0.133405 0.209636 2.341805152028776e-38
1.109026 0.128210 0.210045 2.341805152028776e-38
1.110611 0.122884 0.210268 2.341805152028776e-38
1.113147 0.117649 0.210674 2.341805152028776e-38
1.114681 0.112294 0.210894 2.341805152028776e-38
1.118146 0.107114 0.211482 2.341805152028776e-38
1.118651 0.101636 0.211514 2.341805152028776e-38
1.119130 0.096156 0.211543 2.341805152028776e-38
1.120562 0.090753 0.211757 2.341805152028776e-38
1.122948 0.085412 0.212154 2.341805152028776e-38
1.125308 0.080051 0.212549 2.341805152028776e-38
1.127644 0.074668 0.212942 2.341805152028776e-38
1.128973 0.069204 0.213149 2.341805152028776e-38
1.131257 0.063785 0.213540 2.341805152028776e-38
1.134496 0.058395 0.214114 2.341805152028776e-38
1.134765 0.052837 0.214131 2.341805152028776e-38
1.134026 0.047238 0.213960 2.341805152028776e-38
1.136205 0.041755 0.214344 2.341805152028776e-38
1.138358 0.036253 0.214727 2.341805152028776e-38
1.141467 0.030756 0.215292 2.341805152028776e-38
1.144550 0.025230 0.215857 2.341805152028776e-38
1.145641 0.019641 0.216049 2.341805152028776e-38
1.145722 0.014029 0.216054 2.341805152028776e-38
1.145777 0.008418 0.216057 2.341805152028776e-38
1.149735 0.002816 0.216800 2.341805152028776e-38
1.154648 -0.002828 0.217727 2.341805152028776e-38
1.158551 -0.008512 0.218466 2.341805152028776e-38
1.162427 -0.014234 0.219204 2.341805152028776e-38
1.163327 -0.019944 0.219384 2.341805152028776e-38
1.164199 -0.025663 0.219562 2.341805152028776e-38
1.163078 -0.031338 0.219369 2.341805152028776e-38
1.163895 -0.037066 0.219544 2.341805152028776e-38
1.167630 -0.042910 0.220273 2.341805152028776e-38
1.169372 -0.048710 0.220629 2.341805152028776e-38
1.166178 -0.054300 0.220058 2.341805152028776e-38
1.188473 -0.061173 0.224301 2.341805152028776e-38
1.203861 -0.067878 0.227245 2.341805152028776e-38
1.111062 0.353309 0.211985 2.341805152028776e-38
1.058376 0.330639 0.201609 2.341805152028776e-38
1.043113 0.320061 0.198385 2.341805152028776e-38
1.040959 0.313622 0.197661 2.341805152028776e-38
1.040641 0.307805 0.197311 2.341805152028776e-38
1.038392 0.301473 0.196613 2.341805152028776e-38
1.041783 0.296791 0.196985 2.341805152028776e-38
1.042311 0.291290 0.196818 2.341805152028776e-38
1.045657 0.286573 0.197184 2.341805152028776e-38
1.047081 0.281322 0.197188 2.341805152028776e-38
1.050370 0.276596 0.197568 2.341805152028776e-38
1.051725 0.271373 0.197602 2.341805152028776e-38
1.054962 0.266628 0.197991 2.341805152028776e-38
1.055313 0.261149 0.197840 2.341805152028776e-38
1.059460 0.256602 0.198404 2.341805152028776e-38
1.062631 0.251794 0.198785 2.341805152028776e-38
1.062899 0.246312 0.198639 2.341805152028776e-38
1.064087 0.241082 0.198694 2.341805152028776e-38
1.065250 0.235847 0.198747 2.341805152028776e-38
1.069272 0.231230 0.199336 2.341805152028776e-38
1.072311 0.226377 0.199744 2.341805152028776e-38
1.074366 0.221302 0.199971 2.341805152028776e-38
1.075432 0.216019 0.200017 2.341805152028776e-38
1.079363 0.211313 0.200613 2.341805152028776e-38
1.079407 0.205842 0.200495 2.341805152028776e-38
1.081358 0.200735 0.200735 2.341805152028776e-38
1.084253 0.195788 0.201152 2.341805152028776e-38
1.087126 0.190818 0.201568 2.341805152028776e-38
1.087067 0.185328 0.201444 2.341805152028776e-38
1.087951 0.180005 0.201498 2.341805152028776e-38
1.089781 0.174832 0.201730 2.341805152028776e-38
1.092559 0.169798 0.202140 2.341805152028776e-38
1.095313 0.164740 0.202549 2.341805152028776e-38
1.099018 0.159800 0.203136 2.341805152028776e-38
1.100753 0.154555 0.203362 2.341805152028776e-38
1.103437 0.149429 0.203767 2.341805152028776e-38
1.104148 0.144026 0.203810 2.341805152028776e-38
1.105808 0.138742 0.204032 2.341805152028776e-38
1.107443 0.133445 0.204252 2.341805152028776e-38
1.109053 0.128135 0.204470 2.341805152028776e-38
1.110638 0.122812 0.204687 2.341805152028776e-38
1.112197 0.117478 0.204903 2.341805152028776e-38
1.114710 0.112229 0.205297 2.341805152028776e-38
1.117198 0.106959 0.205690 2.341805152028776e-38
1.118683 0.101578 0.205901 2.341805152028776e-38
1.120141 0.096185 0.206110 2.341805152028776e-38
1.121574 0.090780 0.206318 2.341805152028776e-38
1.123962 0.085438 0.206705 2.341805152028776e-38
1.125343 0.080005 0.206909 2.341805152028776e-38
1.126698 0.074560 0.207112 2.341805152028776e-38
1.128028 0.069105 0.207314 2.341805152028776e-38
1.131295 0.063748 0.207875 2.341805152028776e-38
1.133555 0.058311 0.208253 2.341805152028776e-38
1.134806 0.052807 0.208450 2.341805152028776e-38
1.135048 0.047252 0.208465 2.341805152028776e-38
1.136246 0.041732 0.208659 2.341805152028776e-38
1.139384 0.036263 0.209211 2.341805152028776e-38
1.143479 0.030792 0.209943 2.341805152028776e-38
1.146565 0.025259 0.210493 2.341805152028776e-38
1.147657 0.019663 0.210680 2.341805152028776e-38
1.145771 0.014022 0.210324 2.341805152028776e-38
1.145826 0.008413 0.210327 2.341805152028776e-38
1.150771 0.002816 0.211232 2.341805152028776e-38
1.155689 -0.002828 0.212135 2.341805152028776e-38
1.159595 -0.008514 0.212855 2.341805152028776e-38
1.159540 -0.014190 0.212852 2.341805152028776e-38
1.161425 -0.019899 0.213208 2.341805152028776e-38
1.164265 -0.025649 0.213743 2.341805152028776e-38
1.168060 -0.031454 0.214456 2.341805152028776e-38
1.166910 -0.037139 0.214266 2.341805152028776e-38
1.167700 -0.042887 0.214435 2.341805152028776e-38
1.169444 -0.048684 0.214782 2.341805152028776e-38
1.168212 -0.054362 0.214586 2.341805152028776e-38
1.190527 -0.061242 0.218720 2.341805152028776e-38
1.184324 -0.066736 0.217619 2.341805152028776e-38
1.114942 0.354204 0.206855 2.341805152028776e-38
1.059388 0.330635 0.196231 2.341805152028776e-38
1.044109 0.320053 0.193090 2.341805152028776e-38
1.037231 0.312204 0.191520 2.341805152028776e-38
1.036896 0.306428 0.191190 2.341805152028776e-38
1.038419 0.301214 0.191205 2.341805152028776e-38
1.041811 0.296533 0.191566 2.341805152028776e-38
1.042337 0.291034 0.191401 2.341805152028776e-38
1.044733 0.286059 0.191580 2.341805152028776e-38
1.046149 0.280828 0.191593 2.341805152028776e-38
1.049430 0.276128 0.191975 2.341805152028776e-38
1.051736 0.271159 0.192180 2.341805152028776e-38
1.051155 0.265451 0.191861 2.341805152028776e-38
1.050543 0.259757 0.191538 2.341805152028776e-38
1.055643 0.255467 0.192259 2.341805152028776e-38
1.060724 0.251140 0.192982 2.341805152028776e-38
1.063854 0.246367 0.193385 2.341805152028776e-38
1.065043 0.241135 0.193438 2.341805152028776e-38
1.065245 0.235685 0.193315 2.341805152028776e-38
1.069268 0.231072 0.193888 2.341805152028776e-38
1.072309 0.226221 0.194284 2.341805152028776e-38
1.071470 0.220553 0.193981 2.341805152028776e-38
1.074459 0.215688 0.194386 2.341805152028776e-38
1.074524 0.210240 0.194272 2.341805152028776e-38
1.078431 0.205533 0.194856 2.341805152028776e-38
1.080381 0.200434 0.195089 2.341805152028776e-38
1.081338 0.195146 0.195146 2.341805152028776e-38
1.083240 0.190023 0.195376 2.341805152028776e-38
1.084147 0.184721 0.195429 2.341805152028776e-38
1.086000 0.179575 0.195656 2.341805152028776e-38
1.089773 0.174727 0.196232 2.341805152028776e-38
1.091578 0.169545 0.196456 2.341805152028776e-38
1.094334 0.164495 0.196854 2.341805152028776e-38
1.098040 0.159564 0.197426 2.341805152028776e-38
1.099774 0.154327 0.197646 2.341805152028776e-38
1.101484 0.149076 0.197865 2.341805152028776e-38
1.104145 0.143940 0.198257 2.341805152028776e-38
1.104829 0.138537 0.198298 2.341805152028776e-38
1.105486 0.133130 0.198337 2.341805152028776e-38
1.108074 0.127946 0.198725 2.341805152028776e-38
1.109658 0.122632 0.198936 2.341805152028776e-38
1.113176 0.117512 0.199497 2.341805152028776e-38
1.112752 0.111966 0.199354 2.341805152028776e-38
1.116221 0.106802 0.199912 2.341805152028776e-38
1.116725 0.101340 0.199942 2.341805152028776e-38
1.118183 0.095960 0.200145 2.341805152028776e-38
1.119616 0.090568 0.200348 2.341805152028776e-38
1.123967 0.085388 0.201075 2.341805152028776e-38
1.125349 0.079958 0.201274 2.341805152028776e-38
1.125723 0.074452 0.201296 2.341805152028776e-38
1.127053 0.069004 0.201493 2.341805152028776e-38
1.130322 0.063656 0.202039 2.341805152028776e-38
1.131600 0.058176 0.202232 2.341805152028776e-38
1.130885 0.052594 0.202072 2.341805152028776e-38
1.133093 0.047143 0.202437 2.341805152028776e-38
1.137243 0.041744 0.203153 2.341805152028776e-38
1.140384 0.036274 0.203691 2.341805152028776e-38
1.143498 0.030774 0.204228 2.341805152028776e-38
1.144618 0.025201 0.204412 2.341805152028776e-38
1.145710 0.019619 0.204594 2.341805152028776e-38
1.144807 0.014002 0.204423 2.341805152028776e-38
1.146830 0.008416 0.204778 2.341805152028776e-38
1.152764 0.002820 0.205834 2.341805152028776e-38
1.156702 -0.002829 0.206537 2.341805152028776e-38
1.159628 -0.008509 0.207063 2.341805152028776e-38
1.158588 -0.014170 0.206884 2.341805152028776e-38
1.159490 -0.019855 0.207055 2.341805152028776e-38
1.164302 -0.025635 0.207927 2.341805152028776e-38
1.167116 -0.031410 0.208446 2.341805152028776e-38
1.168918 -0.037181 0.208788 2.341805152028776e-38
1.168724 -0.042899 0.208777 2.341805152028776e-38
1.171453 -0.048739 0.209291 2.341805152028776e-38
1.170220 -0.054423 0.209100 2.341805152028776e-38
1.189606 -0.061158 0.212598 2.341805152028776e-38
1.194210 -0.067254 0.213458 2.341805152028776e-38
1.116918 0.354500 0.201356 2.341805152028776e-38
1.058490 0.330043 0.190512 2.341805152028776e-38
1.043193 0.319466 0.187455 2.341805152028776e-38
1.038179 0.312222 0.186284 2.341805152028776e-38
1.035951 0.305885 0.185623 2.341805152028776e-38
1.039365 0.301226 0.185975 2.341805152028776e-38
1.039915 0.295734 0.185815 2.341805152028776e-38
1.040436 0.290246 0.185653 2.341805152028776e-38
1.043780 0.285541 0.185995 2.341805152028776e-38
1.046132 0.280606 0.186197 2.341805152028776e-38
1.048460 0.275658 0.186398 2.341805152028776e-38
1.048856 0.270204 0.186257 2.341805152028776e-38
1.045402 0.263789 0.185436 2.341805152028776e-38
1.044780 0.258126 0.185121 2.341805152028776e-38
1.048917 0.253636 0.185651 2.341805152028776e-38
1.057816 0.250287 0.187057 2.341805152028776e-38
1.062864 0.245976 0.187788 2.341805152028776e-38
1.065973 0.241186 0.188178 2.341805152028776e-38
1.067137 0.235947 0.188227 2.341805152028776e-38
1.069237 0.230911 0.188445 2.341805152028776e-38
1.068422 0.225251 0.188150 2.341805152028776e-38
1.071434 0.220410 0.188543 2.341805152028776e-38
1.074421 0.215556 0.188944 2.341805152028776e-38
1.077386 0.210677 0.189343 2.341805152028776e-38
1.078393 0.205407 0.189401 2.341805152028776e-38
1.080343 0.200311 0.189627 2.341805152028776e-38
1.088089 0.196250 0.190873 2.341805152028776e-38
1.091938 0.191438 0.191438 2.341805152028776e-38
1.087994 0.185269 0.190639 2.341805152028776e-38
1.087906 0.179786 0.190520 2.341805152028776e-38
1.089737 0.174621 0.190739 2.341805152028776e-38
1.088622 0.168988 0.190447 2.341805152028776e-38
1.092350 0.164102 0.191004 2.341805152028776e-38
1.096057 0.159184 0.191560 2.341805152028776e-38
1.097791 0.153960 0.191774 2.341805152028776e-38
1.099499 0.148722 0.191987 2.341805152028776e-38
1.102160 0.143599 0.192369 2.341805152028776e-38
1.103820 0.138331 0.192578 2.341805152028776e-38
1.105455 0.133050 0.192787 2.341805152028776e-38
1.109023 0.127982 0.193335 2.341805152028776e-38
1.111588 0.122775 0.193711 2.341805152028776e-38
1.112169 0.117338 0.193744 2.341805152028776e-38
1.111743 0.111800 0.193606 2.341805152028776e-38
1.114233 0.106551 0.193977 2.341805152028776e-38
1.114736 0.101102 0.194006 2.341805152028776e-38
1.118157 0.095903 0.194546 2.341805152028776e-38
1.120572 0.090594 0.194914 2.341805152028776e-38
1.122963 0.085263 0.195280 2.341805152028776e-38
1.124345 0.079841 0.195473 2.341805152028776e-38
1.123735 0.074278 0.195324 2.341805152028776e-38
1.127032 0.068964 0.195857 2.341805152028776e-38
1.128336 0.063508 0.196046 2.341805152028776e-38
1.128630 0.057990 0.196063 2.341805152028776e-38
1.130866 0.052563 0.196420 2.341805152028776e-38
1.134060 0.047156 0.196947 2.341805152028776e-38
1.136244 0.041683 0.197301 2.341805152028776e-38
1.140372 0.036253 0.197996 2.341805152028776e-38
1.141518 0.030703 0.198176 2.341805152028776e-38
1.142639 0.025144 0.198355 2.341805152028776e-38
1.144717 0.019590 0.198703 2.341805152028776e-38
1.146769 0.014018 0.199050 2.341805152028776e-38
1.149779 0.008432 0.199566 2.341805152028776e-38
1.153747 0.002820 0.200251 2.341805152028776e-38
1.157688 -0.002830 0.200935 2.341805152028776e-38
1.159631 -0.008505 0.201276 2.341805152028776e-38
1.158591 -0.014162 0.201102 2.341805152028776e-38
1.159494 -0.019843 0.201268 2.341805152028776e-38
1.164309 -0.025620 0.202117 2.341805152028776e-38
1.167126 -0.031392 0.202622 2.341805152028776e-38
1.169915 -0.037192 0.203125 2.341805152028776e-38
1.170706 -0.042948 0.203285 2.341805152028776e-38
1.169499 -0.048630 0.203101 2.341805152028776e-38
1.172203 -0.054484 0.203600 2.341805152028776e-38
1.193573 -0.061327 0.207345 2.341805152028776e-38
1.203099 -0.067716 0.209036 2.341805152028776e-38
1.104765 0.350321 0.193377 2.341805152028776e-38
1.058504 0.329741 0.184977 2.341805152028776e-38
1.044123 0.319477 0.182181 2.341805152028776e-38
1.038155 0.311955 0.180882 2.341805152028776e-38
1.036869 0.305899 0.180402 2.341805152028776e-38
1.037443 0.300414 0.180248 2.341805152028776e-38
1.038936 0.295202 0.180256 2.341805152028776e-38
1.040404 0.289985 0.180261 2.341805152028776e-38
1.042785 0.285053 0.180446 2.341805152028776e-38
1.045134 0.280127 0.180643 2.341805152028776e-38
1.045553 0.274685 0.180507 2.341805152028776e-38
1.047854 0.269739 0.180699 2.341805152028776e-38
1.044393 0.263331 0.179900 2.341805152028776e-38
1.043767 0.257675 0.179592 2.341805152028776e-38
1.049812 0.253683 0.180455 2.341805152028776e-38
1.056796 0.249886 0.181496 2.341805152028776e-38
1.059923 0.245138 0.181876 2.341805152028776e-38
1.063992 0.240583 0.182420 2.341805152028776e-38
1.066115 0.235569 0.182632 2.341805152028776e-38
1.068215 0.230540 0.182842 2.341805152028776e-38
1.070289 0.225505 0.183057 2.341805152028776e-38
1.071368 0.220272 0.183117 2.341805152028776e-38
1.076290 0.215809 0.183837 2.341805152028776e-38
1.076354 0.210357 0.183729 2.341805152028776e-38
1.075422 0.204725 0.183455 2.341805152028776e-38
1.088037 0.201624 0.185494 2.341805152028776e-38
1.102588 0.198753 0.187863 2.341805152028776e-38
1.097709 0.192341 0.186923 2.341805152028776e-38
1.090849 0.185651 0.185651 2.341805152028776e-38
1.088816 0.179836 0.185204 2.341805152028776e-38
1.089673 0.174513 0.185252 2.341805152028776e-38
1.091480 0.169337 0.185464 2.341805152028776e-38
1.092287 0.164001 0.185509 2.341805152028776e-38
1.094044 0.158803 0.185718 2.341805152028776e-38
1.095776 0.153591 0.185926 2.341805152028776e-38
1.099438 0.148631 0.186464 2.341805152028776e-38
1.102101 0.143511 0.186835 2.341805152028776e-38
1.103761 0.138246 0.187039 2.341805152028776e-38
1.103438 0.132733 0.186910 2.341805152028776e-38
1.107986 0.127791 0.187609 2.341805152028776e-38
1.108592 0.122375 0.187642 2.341805152028776e-38
1.109171 0.116957 0.187675 2.341805152028776e-38
1.108743 0.111437 0.187540 2.341805152028776e-38
1.113196 0.106393 0.188233 2.341805152028776e-38
1.114680 0.101041 0.188427 2.341805152028776e-38
1.116138 0.095677 0.188620 2.341805152028776e-38
1.118554 0.090380 0.188977 2.341805152028776e-38
1.121928 0.085137 0.189499 2.341805152028776e-38
1.122327 0.079654 0.189521 2.341805152028776e-38
1.124667 0.074298 0.189874 2.341805152028776e-38
1.126982 0.068922 0.190226 2.341805152028776e-38
1.129272 0.063525 0.190576 2.341805152028776e-38
1.130551 0.058057 0.190758 2.341805152028776e-38
1.133773 0.052669 0.191272 2.341805152028776e-38
1.132044 0.047046 0.190953 2.341805152028776e-38
1.131273 0.041478 0.190799 2.341805152028776e-38
1.133432 0.036012 0.191141 2.341805152028776e-38
1.139507 0.030632 0.192148 2.341805152028776e-38
1.142600 0.025129 0.192654 2.341805152028776e-38
1.146652 0.019613 0.193325 2.341805152028776e-38
1.148705 0.014033 0.193662 2.341805152028776e-38
1.149745 0.008427 0.193831 2.341805152028776e-38
1.151745 0.002814 0.194165 2.341805152028776e-38
1.154703 -0.002821 0.194664 2.341805152028776e-38
1.156648 -0.008478 0.194995 2.341805152028776e-38
1.158565 -0.014154 0.195324 2.341805152028776e-38
1.159469 -0.019832 0.195486 2.341805152028776e-38
1.164288 -0.025606 0.196311 2.341805152028776e-38
1.165136 -0.031321 0.196469 2.341805152028776e-38
1.167928 -0.037108 0.196959 2.341805152028776e-38
1.170691 -0.042923 0.197447 2.341805152028776e-38
1.173425 -0.048766 0.197933 2.341805152028776e-38
1.175145 -0.054591 0.198251 2.341805152028776e-38
1.191608 -0.061192 0.201061 2.341805152028776e-38
1.201143 -0.067568 0.202705 2.341805152028776e-38
1.106675 0.350613 0.187928 2.341805152028776e-38
1.055661 0.328558 0.178970 2.341805152028776e-38
1.039360 0.317763 0.175951 2.341805152028776e-38
1.037159 0.311402 0.175327 2.341805152028776e-38
1.037760 0.305911 0.175180 2.341805152028776e-38
1.037385 0.300148 0.174869 2.341805152028776e-38
1.039827 0.295207 0.175034 2.341805152028776e-38
1.040340 0.289733 0.174884 2.341805152028776e-38
1.042712 0.284825 0.175076 2.341805152028776e-38
1.044108 0.279646 0.175105 2.341805152028776e-38
1.044523 0.274211 0.174973 2.341805152028776e-38
1.045867 0.269026 0.174997 2.341805152028776e-38
1.046227 0.263594 0.174860 2.341805152028776e-38
1.048471 0.258654 0.175049 2.341805152028776e-38
1.052598 0.254199 0.175580 2.341805152028776e-38
1.056707 0.249709 0.176111 2.341805152028776e-38
1.059836 0.244964 0.176480 2.341805152028776e-38
1.061980 0.239977 0.176686 2.341805152028776e-38
1.065065 0.235188 0.177052 2.341805152028776e-38
1.067163 0.230170 0.177258 2.341805152028776e-38
1.068265 0.224955 0.177318 2.341805152028776e-38
1.072242 0.220330 0.177857 2.341805152028776e-38
1.078135 0.216060 0.178716 2.341805152028776e-38
1.077230 0.210413 0.178452 2.341805152028776e-38
1.076297 0.204780 0.178185 2.341805152028776e-38
1.086010 0.201138 0.179683 2.341805152028776e-38
1.088914 0.196181 0.180057 2.341805152028776e-38
1.084990 0.190009 0.179304 2.341805152028776e-38
1.085897 0.184707 0.179354 2.341805152028776e-38
1.089699 0.179884 0.179884 2.341805152028776e-38
1.090557 0.174559 0.179930 2.341805152028776e-38
1.091389 0.169230 0.179975 2.341805152028776e-38
1.094148 0.164191 0.180341 2.341805152028776e-38
1.093953 0.158703 0.180222 2.341805152028776e-38
1.097641 0.153769 0.180746 2.341805152028776e-38
1.100328 0.148670 0.181108 2.341805152028776e-38
1.100056 0.143167 0.180985 2.341805152028776e-38
1.103674 0.138161 0.181505 2.341805152028776e-38
1.103350 0.132651 0.181379 2.341805152028776e-38
1.107901 0.127712 0.182058 2.341805152028776e-38
1.112430 0.122733 0.182735 2.341805152028776e-38
1.112029 0.117195 0.182606 2.341805152028776e-38
1.111602 0.111664 0.182475 2.341805152028776e-38
1.113111 0.106327 0.182664 2.341805152028776e-38
1.116562 0.101156 0.183175 2.341805152028776e-38
1.116055 0.095618 0.183040 2.341805152028776e-38
1.118472 0.090325 0.183387 2.341805152028776e-38
1.120864 0.085010 0.183732 2.341805152028776e-38
1.122247 0.079605 0.183915 2.341805152028776e-38
1.124589 0.074253 0.184258 2.341805152028776e-38
1.128875 0.069001 0.184922 2.341805152028776e-38
1.132152 0.063653 0.185424 2.341805152028776e-38
1.132446 0.058123 0.185440 2.341805152028776e-38
1.135672 0.052729 0.185938 2.341805152028776e-38
1.135914 0.047182 0.185952 2.341805152028776e-38
1.139087 0.041742 0.186447 2.341805152028776e-38
1.138290 0.036147 0.186296 2.341805152028776e-38
1.141411 0.030667 0.186789 2.341805152028776e-38
1.143519 0.025135 0.187120 2.341805152028776e-38
1.146587 0.019601 0.187610 2.341805152028776e-38
1.147655 0.014013 0.187776 2.341805152028776e-38
1.150670 0.008430 0.188263 2.341805152028776e-38
1.152671 0.002815 0.188587 2.341805152028776e-38
1.155632 -0.002822 0.189072 2.341805152028776e-38
1.158565 -0.008488 0.189555 2.341805152028776e-38
1.159497 -0.014158 0.189713 2.341805152028776e-38
1.159415 -0.019820 0.189709 2.341805152028776e-38
1.163252 -0.025569 0.190349 2.341805152028776e-38
1.164101 -0.031277 0.190503 2.341805152028776e-38
1.167881 -0.037087 0.191139 2.341805152028776e-38
1.170646 -0.042898 0.191613 2.341805152028776e-38
1.174369 -0.048779 0.192247 2.341805152028776e-38
1.175105 -0.054560 0.192395 2.341805152028776e-38
1.192568 -0.061209 0.195285 2.341805152028776e-38
1.191272 -0.066977 0.195106 2.341805152028776e-38
1.105733 0.350008 0.182004 2.341805152028776e-38
1.053716 0.327695 0.173172 2.341805152028776e-38
1.041174 0.318067 0.170863 2.341805152028776e-38
1.035186 0.310563 0.169635 2.341805152028776e-38
1.036731 0.305362 0.169645 2.341805152028776e-38
1.039198 0.300429 0.169808 2.341805152028776e-38
1.038791 0.294671 0.169501 2.341805152028776e-38
1.041192 0.289765 0.169682 2.341805152028776e-38
1.042612 0.284594 0.169712 2.341805152028776e-38
1.045915 0.279929 0.170050 2.341805152028776e-38
1.046331 0.274486 0.169920 2.341805152028776e-38
1.047676 0.269294 0.169943 2.341805152028776e-38
1.049953 0.264338 0.170118 2.341805152028776e-38
1.052190 0.259415 0.170323 2.341805152028776e-38
1.054402 0.254480 0.170528 2.341805152028776e-38
1.057553 0.249758 0.170887 2.341805152028776e-38
1.059721 0.244788 0.171089 2.341805152028776e-38
1.062829 0.240022 0.171444 2.341805152028776e-38
1.063987 0.234806 0.171487 2.341805152028776e-38
1.067043 0.230022 0.171855 2.341805152028776e-38
1.070077 0.225217 0.172225 2.341805152028776e-38
1.075025 0.220785 0.172904 2.341805152028776e-38
1.075113 0.215340 0.172804 2.341805152028776e-38
1.075173 0.209900 0.172702 2.341805152028776e-38
1.077147 0.204833 0.172911 2.341805152028776e-38
1.078126 0.199572 0.172962 2.341805152028776e-38
1.080051 0.194482 0.173169 2.341805152028776e-38
1.083899 0.189718 0.173685 2.341805152028776e-38
1.085778 0.184590 0.173889 2.341805152028776e-38
1.087634 0.179448 0.174091 2.341805152028776e-38
1.086539 0.173824 0.173824 2.341805152028776e-38
1.092248 0.169274 0.174648 2.341805152028776e-38
1.094031 0.164087 0.174847 2.341805152028776e-38
1.095790 0.158886 0.175044 2.341805152028776e-38
1.095568 0.153398 0.174927 2.341805152028776e-38
1.097277 0.148180 0.175122 2.341805152028776e-38
1.099940 0.143077 0.175472 2.341805152028776e-38
1.102580 0.137951 0.175820 2.341805152028776e-38
1.105196 0.132803 0.176167 2.341805152028776e-38
1.114656 0.128424 0.177607 2.341805152028776e-38
1.121156 0.123630 0.178577 2.341805152028776e-38
1.116829 0.117639 0.177826 2.341805152028776e-38
1.116403 0.112087 0.177699 2.341805152028776e-38
1.116932 0.106636 0.177727 2.341805152028776e-38
1.118419 0.101272 0.177910 2.341805152028776e-38
1.117912 0.095727 0.177778 2.341805152028776e-38
1.118362 0.090269 0.177802 2.341805152028776e-38
1.121741 0.085032 0.178294 2.341805152028776e-38
1.121154 0.079486 0.178158 2.341805152028776e-38
1.124482 0.074207 0.178647 2.341805152028776e-38
1.127785 0.068898 0.179135 2.341805152028776e-38
1.131064 0.063559 0.179622 2.341805152028776e-38
1.132344 0.058087 0.179794 2.341805152028776e-38
1.138532 0.052834 0.180748 2.341805152028776e-38
1.149629 0.047726 0.182484 2.341805152028776e-38
1.145898 0.041970 0.181868 2.341805152028776e-38
1.144114 0.036313 0.181565 2.341805152028776e-38
1.143289 0.030701 0.181417 2.341805152028776e-38
1.145399 0.025164 0.181737 2.341805152028776e-38
1.146495 0.019589 0.181900 2.341805152028776e-38
1.149539 0.014029 0.182374 2.341805152028776e-38
1.149593 0.008417 0.182377 2.341805152028776e-38
1.152583 0.002813 0.182848 2.341805152028776e-38
1.158509 -0.002828 0.183789 2.341805152028776e-38
1.156506 -0.008468 0.183474 2.341805152028776e-38
1.151514 -0.014053 0.182687 2.341805152028776e-38
1.150445 -0.019657 0.182527 2.341805152028776e-38
1.158235 -0.025446 0.183774 2.341805152028776e-38
1.163035 -0.031232 0.184550 2.341805152028776e-38
1.166818 -0.037034 0.185168 2.341805152028776e-38
1.172547 -0.042946 0.186098 2.341805152028776e-38
1.175286 -0.048792 0.186556 2.341805152028776e-38
1.174049 -0.054482 0.186386 2.341805152028776e-38
1.190540 -0.061073 0.189034 2.341805152028776e-38
1.188258 -0.066772 0.188705 2.341805152028776e-38
1.104759 0.349402 0.176099 2.341805152028776e-38
1.054571 0.327711 0.167852 2.341805152028776e-38
1.040127 0.317504 0.165312 2.341805152028776e-38
1.036024 0.310574 0.164421 2.341805152028776e-38
1.037568 0.305369 0.164430 2.341805152028776e-38
1.037187 0.299610 0.164134 2.341805152028776e-38
1.038670 0.294423 0.164147 2.341805152028776e-38
1.042971 0.290060 0.164629 2.341805152028776e-38
1.044392 0.284882 0.164657 2.341805152028776e-38
1.045788 0.279699 0.164682 2.341805152028776e-38
1.045246 0.274008 0.164405 2.341805152028776e-38
1.046589 0.268823 0.164426 2.341805152028776e-38
1.048854 0.263903 0.164613 2.341805152028776e-38
1.053007 0.259465 0.165114 2.341805152028776e-38
1.056182 0.254760 0.165463 2.341805152028776e-38
1.058374 0.249804 0.165660 2.341805152028776e-38
1.060542 0.244833 0.165855 2.341805152028776e-38
1.062688 0.239847 0.166048 2.341805152028776e-38
1.064805 0.234862 0.166250 2.341805152028776e-38
1.066896 0.229871 0.166459 2.341805152028776e-38
1.069931 0.225070 0.166816 2.341805152028776e-38
1.071976 0.220045 0.167022 2.341805152028776e-38
1.073029 0.214812 0.167076 2.341805152028776e-38
1.075996 0.209952 0.167430 2.341805152028776e-38
1.077971 0.204884 0.167633 2.341805152028776e-38
1.079922 0.199802 0.167834 2.341805152028776e-38
1.081850 0.194705 0.168033 2.341805152028776e-38
1.083753 0.189595 0.168232 2.341805152028776e-38
1.085633 0.184470 0.168429 2.341805152028776e-38
1.086513 0.179171 0.168474 2.341805152028776e-38
1.089320 0.174180 0.168820 2.341805152028776e-38
1.094057 0.169468 0.169468 2.341805152028776e-38
1.094865 0.164128 0.169509 2.341805152028776e-38
1.093690 0.158500 0.169246 2.341805152028776e-38
1.094444 0.153162 0.169285 2.341805152028776e-38
1.097132 0.148085 0.169625 2.341805152028776e-38
1.100776 0.143113 0.170115 2.341805152028776e-38
1.104399 0.138108 0.170604 2.341805152028776e-38
1.107998 0.133072 0.171092 2.341805152028776e-38
1.113539 0.128230 0.171882 2.341805152028776e-38
1.117094 0.123120 0.172368 2.341805152028776e-38
1.114728 0.117358 0.171943 2.341805152028776e-38
1.114300 0.111819 0.171820 2.341805152028776e-38
1.117780 0.106663 0.172301 2.341805152028776e-38
1.117298 0.101119 0.172175 2.341805152028776e-38
1.117775 0.095666 0.172200 2.341805152028776e-38
1.119210 0.090291 0.172374 2.341805152028776e-38
1.122590 0.085054 0.172851 2.341805152028776e-38
1.124961 0.079715 0.173175 2.341805152028776e-38
1.125333 0.074226 0.173194 2.341805152028776e-38
1.127653 0.068855 0.173515 2.341805152028776e-38
1.130933 0.063519 0.173987 2.341805152028776e-38
1.131227 0.058001 0.174002 2.341805152028776e-38
1.141368 0.052939 0.175534 2.341805152028776e-38
1.145561 0.047534 0.176154 2.341805152028776e-38
1.138864 0.041691 0.175102 2.341805152028776e-38
1.137076 0.036071 0.174808 2.341805152028776e-38
1.140201 0.030603 0.175271 2.341805152028776e-38
1.144289 0.025127 0.175886 2.341805152028776e-38
1.147362 0.019594 0.176347 2.341805152028776e-38
1.148431 0.014008 0.176503 2.341805152028776e-38
1.149474 0.008412 0.176658 2.341805152028776e-38
1.155431 0.002819 0.177571 2.341805152028776e-38
1.157408 -0.002823 0.177874 2.341805152028776e-38
1.149474 -0.008412 0.176658 2.341805152028776e-38
1.139536 -0.013900 0.175136 2.341805152028776e-38
1.143409 -0.019527 0.175739 2.341805152028776e-38
1.155159 -0.025365 0.177557 2.341805152028776e-38
1.161938 -0.031186 0.178613 2.341805152028776e-38
1.168689 -0.037074 0.179668 2.341805152028776e-38
1.173434 -0.042956 0.180417 2.341805152028776e-38
1.177163 -0.048845 0.181013 2.341805152028776e-38
1.174938 -0.054496 0.180697 2.341805152028776e-38
1.193415 -0.061189 0.183567 2.341805152028776e-38
1.192118 -0.066956 0.183400 2.341805152028776e-38
1.110345 0.350912 0.171245 2.341805152028776e-38
1.054455 0.327433 0.162386 2.341805152028776e-38
1.039996 0.317227 0.159924 2.341805152028776e-38
1.034940 0.310015 0.158915 2.341805152028776e-38
1.033634 0.303980 0.158485 2.341805152028776e-38
1.035146 0.298790 0.158489 2.341805152028776e-38
1.036613 0.293645 0.158516 2.341805152028776e-38
1.040912 0.289294 0.158981 2.341805152028776e-38
1.040421 0.283607 0.158716 2.341805152028776e-38
1.043723 0.278956 0.159031 2.341805152028776e-38
1.043175 0.273277 0.158761 2.341805152028776e-38
1.043553 0.267867 0.158639 2.341805152028776e-38
1.046765 0.263229 0.158980 2.341805152028776e-38
1.049957 0.258566 0.159318 2.341805152028776e-38
1.055053 0.254342 0.159947 2.341805152028776e-38
1.057243 0.249394 0.160137 2.341805152028776e-38
1.059410 0.244431 0.160326 2.341805152028776e-38
1.061552 0.239460 0.160517 2.341805152028776e-38
1.064631 0.234706 0.160866 2.341805152028776e-38
1.065755 0.229511 0.160921 2.341805152028776e-38
1.066853 0.224310 0.160976 2.341805152028776e-38
1.070834 0.219701 0.161467 2.341805152028776e-38
1.071885 0.214476 0.161519 2.341805152028776e-38
1.073881 0.209435 0.161716 2.341805152028776e-38
1.075854 0.204380 0.161912 2.341805152028776e-38
1.076831 0.199131 0.161960 2.341805152028776e-38
1.078756 0.194052 0.162153 2.341805152028776e-38
1.083580 0.189471 0.162785 2.341805152028776e-38
1.085460 0.184350 0.162976 2.341805152028776e-38
1.086339 0.179054 0.163019 2.341805152028776e-38
1.089147 0.174066 0.163354 2.341805152028776e-38
1.091932 0.169055 0.163688 2.341805152028776e-38
1.091759 0.163581 0.163581 2.341805152028776e-38
1.093517 0.158397 0.163767 2.341805152028776e-38
1.092312 0.152788 0.163510 2.341805152028776e-38
1.095979 0.147857 0.163986 2.341805152028776e-38
1.100606 0.143020 0.164608 2.341805152028776e-38
1.104230 0.138019 0.165082 2.341805152028776e-38
1.105867 0.132750 0.165261 2.341805152028776e-38
1.110427 0.127808 0.165879 2.341805152028776e-38
1.112016 0.122500 0.166056 2.341805152028776e-38
1.112596 0.117076 0.166084 2.341805152028776e-38
1.112166 0.111550 0.165965 2.341805152028776e-38
1.113677 0.106219 0.166138 2.341805152028776e-38
1.114178 0.100787 0.166162 2.341805152028776e-38
1.117610 0.095605 0.166626 2.341805152028776e-38
1.120031 0.090313 0.166943 2.341805152028776e-38
1.122428 0.085000 0.167257 2.341805152028776e-38
1.121839 0.079455 0.167130 2.341805152028776e-38
1.124185 0.074114 0.167442 2.341805152028776e-38
1.125517 0.068691 0.167606 2.341805152028776e-38
1.130775 0.063479 0.168357 2.341805152028776e-38
1.134032 0.058116 0.168813 2.341805152028776e-38
1.138252 0.052768 0.169414 2.341805152028776e-38
1.136518 0.047135 0.169132 2.341805152028776e-38
1.134756 0.041520 0.168849 2.341805152028776e-38
1.135932 0.036017 0.169005 2.341805152028776e-38
1.140048 0.030584 0.169601 2.341805152028776e-38
1.141171 0.025046 0.169755 2.341805152028776e-38
1.142268 0.019498 0.169907 2.341805152028776e-38
1.144327 0.013951 0.170206 2.341805152028776e-38
1.148337 0.008400 0.170797 2.341805152028776e-38
1.154299 0.002814 0.171681 2.341805152028776e-38
1.152321 -0.002810 0.171387 2.341805152028776e-38
1.144381 -0.008371 0.170208 2.341805152028776e-38
1.141360 -0.013915 0.169764 2.341805152028776e-38
1.149191 -0.019616 0.170937 2.341805152028776e-38
1.156005 -0.025371 0.171962 2.341805152028776e-38
1.160812 -0.031141 0.172690 2.341805152028776e-38
1.165591 -0.036958 0.173418 2.341805152028776e-38
1.168363 -0.042750 0.173849 2.341805152028776e-38
1.173084 -0.048652 0.174574 2.341805152028776e-38
1.171847 -0.054326 0.174415 2.341805152028776e-38
1.192314 -0.061103 0.177489 2.341805152028776e-38
1.195955 -0.067138 0.178062 2.341805152028776e-38
1.103637 0.348544 0.164513 2.341805152028776e-38
1.051473 0.326273 0.156505 2.341805152028776e-38
1.036997 0.316083 0.154123 2.341805152028776e-38
1.033827 0.309454 0.153427 2.341805152028776e-38
1.032516 0.303425 0.153009 2.341805152028776e-38
1.033065 0.297992 0.152883 2.341805152028776e-38
1.034526 0.292864 0.152911 2.341805152028776e-38
1.038824 0.288525 0.153360 2.341805152028776e-38
1.040238 0.283371 0.153384 2.341805152028776e-38
1.041627 0.278211 0.153406 2.341805152028776e-38
1.042032 0.272795 0.153285 2.341805152028776e-38
1.041437 0.267177 0.153043 2.341805152028776e-38
1.042727 0.262069 0.153090 2.341805152028776e-38
1.047837 0.257902 0.153699 2.341805152028776e-38
1.053895 0.253923 0.154448 2.341805152028776e-38
1.055120 0.248755 0.154490 2.341805152028776e-38
1.056321 0.243582 0.154531 2.341805152028776e-38
1.060385 0.239081 0.155009 2.341805152028776e-38
1.061530 0.233909 0.155063 2.341805152028776e-38
1.063618 0.228940 0.155258 2.341805152028776e-38
1.066651 0.224160 0.155593 2.341805152028776e-38
1.068693 0.219156 0.155786 2.341805152028776e-38
1.070712 0.214138 0.155977 2.341805152028776e-38
1.073680 0.209295 0.156309 2.341805152028776e-38
1.073708 0.203874 0.156215 2.341805152028776e-38
1.073708 0.198458 0.156120 2.341805152028776e-38
1.078554 0.193923 0.156732 2.341805152028776e-38
1.080455 0.188833 0.156918 2.341805152028776e-38
1.083308 0.183896 0.157244 2.341805152028776e-38
1.088093 0.179257 0.157853 2.341805152028776e-38
1.089925 0.174107 0.158036 2.341805152028776e-38
1.091733 0.168943 0.158217 2.341805152028776e-38
1.092538 0.163620 0.158255 2.341805152028776e-38
1.092338 0.158151 0.158151 2.341805152028776e-38
1.093090 0.152824 0.158187 2.341805152028776e-38
1.095779 0.147759 0.158505 2.341805152028776e-38
1.096482 0.142416 0.158539 2.341805152028776e-38
1.102069 0.137683 0.159281 2.341805152028776e-38
1.106654 0.132782 0.159880 2.341805152028776e-38
1.111217 0.127838 0.160478 2.341805152028776e-38
1.109855 0.122204 0.160223 2.341805152028776e-38
1.112403 0.117000 0.160535 2.341805152028776e-38
1.113941 0.111675 0.160703 2.341805152028776e-38
1.114468 0.106244 0.160728 2.341805152028776e-38
1.116941 0.100989 0.161036 2.341805152028776e-38
1.118403 0.095628 0.161201 2.341805152028776e-38
1.118853 0.090175 0.161223 2.341805152028776e-38
1.120263 0.084796 0.161385 2.341805152028776e-38
1.119673 0.079264 0.161262 2.341805152028776e-38
1.122019 0.073936 0.161564 2.341805152028776e-38
1.125328 0.068647 0.162007 2.341805152028776e-38
1.128612 0.063328 0.162449 2.341805152028776e-38
1.132859 0.058028 0.163032 2.341805152028776e-38
