VERSION .7
FIELDS x y z rgb
SIZE 4 4 4 4
TYPE F F F F
COUNT 1 1 1 1
WIDTH 953
HEIGHT 1
VIEWPOINT 0 0 0 1 0 0 0
POINTS 953
DATA ascii
1.846565 0.103076 -0.129965 2.341805152028776e-38
1.850031 0.094273 -0.130187 2.341805152028776e-38
1.849469 0.085255 -0.130127 2.341805152028776e-38
1.845873 0.076122 -0.129855 2.341805152028776e-38
1.850207 0.067316 -0.130144 2.341805152028776e-38
1.850511 0.058344 -0.130151 2.341805152028776e-38
1.849775 0.049343 -0.130087 2.341805152028776e-38
1.849992 0.040373 -0.130092 2.341805152028776e-38
1.852161 0.031436 -0.130237 2.341805152028776e-38
1.853289 0.022467 -0.130310 2.341805152028776e-38
1.853376 0.013481 -0.130312 2.341805152028776e-38
1.851424 0.004489 -0.130173 2.341805152028776e-38
1.852422 -0.004491 -0.130243 2.341805152028776e-38
1.852378 -0.013473 -0.130242 2.341805152028776e-38
1.854286 -0.022479 -0.130380 2.341805152028776e-38
1.851163 -0.031419 -0.130166 2.341805152028776e-38
1.849992 -0.040373 -0.130092 2.341805152028776e-38
1.849775 -0.049343 -0.130087 2.341805152028776e-38
1.851508 -0.058375 -0.130221 2.341805152028776e-38
1.849210 -0.067280 -0.130074 2.341805152028776e-38
1.850856 -0.076328 -0.130206 2.341805152028776e-38
1.846479 -0.085118 -0.129916 2.341805152028776e-38
1.912794 -0.097471 -0.134603 2.341805152028776e-38
1.800701 0.440800 -0.138028 2.341805152028776e-38
1.812512 0.434385 -0.138824 2.341805152028776e-38
1.814593 0.425589 -0.138876 2.341805152028776e-38
1.815660 0.416560 -0.138853 2.341805152028776e-38
1.814736 0.407094 -0.138680 2.341805152028776e-38
1.815711 0.398074 -0.138655 2.341805152028776e-38
1.820543 0.389889 -0.138926 2.341805152028776e-38
1.820456 0.380646 -0.138824 2.341805152028776e-38
1.821301 0.371613 -0.138795 2.341805152028776e-38
1.821122 0.362385 -0.138691 2.341805152028776e-38
1.824813 0.353928 -0.138883 2.341805152028776e-38
1.825525 0.344888 -0.138851 2.341805152028776e-38
1.825212 0.335669 -0.138743 2.341805152028776e-38
1.823870 0.326286 -0.138560 2.341805152028776e-38
1.823463 0.317095 -0.138450 2.341805152028776e-38
1.825960 0.308413 -0.138562 2.341805152028776e-38
1.825464 0.299230 -0.138450 2.341805152028776e-38
1.827876 0.290530 -0.138560 2.341805152028776e-38
1.829261 0.281661 -0.138595 2.341805152028776e-38
1.828630 0.272491 -0.138479 2.341805152028776e-38
1.827954 0.263335 -0.138362 2.341805152028776e-38
1.828219 0.254329 -0.138319 2.341805152028776e-38
1.830417 0.245591 -0.138424 2.341805152028776e-38
1.829607 0.236455 -0.138304 2.341805152028776e-38
1.834688 0.228070 -0.138631 2.341805152028776e-38
1.837751 0.219406 -0.138808 2.341805152028776e-38
1.838792 0.210490 -0.138834 2.341805152028776e-38
1.834833 0.201026 -0.138485 2.341805152028776e-38
1.833801 0.191917 -0.138359 2.341805152028776e-38
1.837685 0.183318 -0.138606 2.341805152028776e-38
1.839544 0.174497 -0.138703 2.341805152028776e-38
1.837387 0.165305 -0.138499 2.341805152028776e-38
1.837173 0.156307 -0.138443 2.341805152028776e-38
1.837908 0.147395 -0.138462 2.341805152028776e-38
1.842577 0.138779 -0.138779 2.341805152028776e-38
1.841238 0.129700 -0.138645 2.341805152028776e-38
1.841844 0.120769 -0.138660 2.341805152028776e-38
1.842407 0.111834 -0.138674 2.341805152028776e-38
1.844918 0.103008 -0.138837 2.341805152028776e-38
1.845395 0.094059 -0.138849 2.341805152028776e-38
1.845829 0.085108 -0.138860 2.341805152028776e-38
1.846219 0.076154 -0.138870 2.341805152028776e-38
1.849556 0.067308 -0.139103 2.341805152028776e-38
1.846870 0.058243 -0.138886 2.341805152028776e-38
1.849124 0.049338 -0.139042 2.341805152028776e-38
1.848344 0.040347 -0.138973 2.341805152028776e-38
1.853503 0.031467 -0.139352 2.341805152028776e-38
1.851639 0.022452 -0.139205 2.341805152028776e-38
1.849732 0.013457 -0.139058 2.341805152028776e-38
1.848778 0.004483 -0.138984 2.341805152028776e-38
1.850772 -0.004488 -0.139134 2.341805152028776e-38
1.850729 -0.013464 -0.139133 2.341805152028776e-38
1.850642 -0.022440 -0.139130 2.341805152028776e-38
1.850511 -0.031416 -0.139127 2.341805152028776e-38
1.852332 -0.040434 -0.139273 2.341805152028776e-38
1.850120 -0.049364 -0.139117 2.341805152028776e-38
1.849860 -0.058337 -0.139111 2.341805152028776e-38
1.852545 -0.067417 -0.139328 2.341805152028776e-38
1.852197 -0.076401 -0.139319 2.341805152028776e-38
1.844833 -0.085062 -0.138785 2.341805152028776e-38
1.897182 -0.096699 -0.142746 2.341805152028776e-38
1.798075 0.440271 -0.146757 2.341805152028776e-38
1.806971 0.433169 -0.147367 2.341805152028776e-38
1.810017 0.424625 -0.147501 2.341805152028776e-38
1.810108 0.415393 -0.147397 2.341805152028776e-38
1.812098 0.406606 -0.147451 2.341805152028776e-38
1.815019 0.398024 -0.147582 2.341805152028776e-38
1.817899 0.389422 -0.147712 2.341805152028776e-38
1.818787 0.380394 -0.147683 2.341805152028776e-38
1.818654 0.371167 -0.147573 2.341805152028776e-38
1.819451 0.362145 -0.147541 2.341805152028776e-38
1.824119 0.353884 -0.147825 2.341805152028776e-38
1.824831 0.344845 -0.147791 2.341805152028776e-38
1.823538 0.335447 -0.147597 2.341805152028776e-38
1.824159 0.326421 -0.147560 2.341805152028776e-38
1.826700 0.317738 -0.147681 2.341805152028776e-38
1.825268 0.308374 -0.147483 2.341805152028776e-38
1.827723 0.299677 -0.147602 2.341805152028776e-38
1.826199 0.290337 -0.147402 2.341805152028776e-38
1.828568 0.281626 -0.147518 2.341805152028776e-38
1.829910 0.272751 -0.147554 2.341805152028776e-38
1.829236 0.263586 -0.147430 2.341805152028776e-38
1.829503 0.254571 -0.147383 2.341805152028776e-38
1.830714 0.245693 -0.147416 2.341805152028776e-38
1.833859 0.237064 -0.147606 2.341805152028776e-38
1.833996 0.228042 -0.147557 2.341805152028776e-38
1.833098 0.218906 -0.147426 2.341805152028776e-38
1.834137 0.210010 -0.147454 2.341805152028776e-38
1.833150 0.200892 -0.147321 2.341805152028776e-38
1.835092 0.192101 -0.147426 2.341805152028776e-38
1.836993 0.183295 -0.147530 2.341805152028776e-38
1.837858 0.174381 -0.147553 2.341805152028776e-38
1.837688 0.165374 -0.147495 2.341805152028776e-38
1.839460 0.156541 -0.147596 2.341805152028776e-38
1.840197 0.147615 -0.147615 2.341805152028776e-38
1.839896 0.138611 -0.147554 2.341805152028776e-38
1.839551 0.129614 -0.147492 2.341805152028776e-38
1.842146 0.120819 -0.147667 2.341805152028776e-38
1.842709 0.111881 -0.147682 2.341805152028776e-38
1.844224 0.102995 -0.147776 2.341805152028776e-38
1.845697 0.094098 -0.147868 2.341805152028776e-38
1.845135 0.085097 -0.147800 2.341805152028776e-38
1.845525 0.076145 -0.147811 2.341805152028776e-38
1.846868 0.067227 -0.147900 2.341805152028776e-38
1.847172 0.058267 -0.147908 2.341805152028776e-38
1.845439 0.049252 -0.147755 2.341805152028776e-38
1.847649 0.040342 -0.147920 2.341805152028776e-38
1.850813 0.031429 -0.148164 2.341805152028776e-38
1.848950 0.022425 -0.148008 2.341805152028776e-38
1.848040 0.013448 -0.147931 2.341805152028776e-38
1.847087 0.004480 -0.147852 2.341805152028776e-38
1.847087 -0.004480 -0.147852 2.341805152028776e-38
1.847043 -0.013441 -0.147851 2.341805152028776e-38
1.849947 -0.022438 -0.148088 2.341805152028776e-38
1.848820 -0.031395 -0.148005 2.341805152028776e-38
1.848646 -0.040364 -0.148000 2.341805152028776e-38
1.851418 -0.049411 -0.148234 2.341805152028776e-38
1.852154 -0.058424 -0.148307 2.341805152028776e-38
1.852845 -0.067445 -0.148378 2.341805152028776e-38
1.850505 -0.076350 -0.148209 2.341805152028776e-38
1.840156 -0.084867 -0.147401 2.341805152028776e-38
1.887509 -0.096230 -0.151218 2.341805152028776e-38
1.795407 0.439738 -0.155463 2.341805152028776e-38
1.805267 0.432879 -0.156193 2.341805152028776e-38
1.808311 0.424341 -0.156336 2.341805152028776e-38
1.812287 0.416006 -0.156562 2.341805152028776e-38
1.814279 0.407207 -0.156618 2.341805152028776e-38
1.814283 0.397971 -0.156505 2.341805152028776e-38
1.817162 0.389371 -0.156643 2.341805152028776e-38
1.817075 0.380140 -0.156528 2.341805152028776e-38
1.816941 0.370919 -0.156412 2.341805152028776e-38
1.818716 0.362097 -0.156462 2.341805152028776e-38
1.820447 0.353267 -0.156511 2.341805152028776e-38
1.823115 0.344614 -0.156643 2.341805152028776e-38
1.824762 0.335763 -0.156689 2.341805152028776e-38
1.824404 0.326553 -0.156566 2.341805152028776e-38
1.824982 0.317525 -0.156526 2.341805152028776e-38
1.824532 0.308333 -0.156401 2.341805152028776e-38
1.825020 0.299314 -0.156358 2.341805152028776e-38
1.826448 0.290455 -0.156399 2.341805152028776e-38
1.827832 0.281588 -0.156438 2.341805152028776e-38
1.830160 0.272862 -0.156560 2.341805152028776e-38
1.831459 0.263978 -0.156597 2.341805152028776e-38
1.828768 0.254538 -0.156295 2.341805152028776e-38
1.830966 0.245793 -0.156414 2.341805152028776e-38
1.833123 0.237033 -0.156531 2.341805152028776e-38
1.831282 0.227766 -0.156310 2.341805152028776e-38
1.832363 0.218876 -0.156340 2.341805152028776e-38
1.835381 0.210209 -0.156539 2.341805152028776e-38
1.836377 0.201300 -0.156567 2.341805152028776e-38
1.835348 0.192179 -0.156425 2.341805152028776e-38
1.837248 0.183369 -0.156535 2.341805152028776e-38
1.836130 0.174264 -0.156390 2.341805152028776e-38
1.837945 0.165441 -0.156498 2.341805152028776e-38
1.837731 0.156436 -0.156436 2.341805152028776e-38
1.837474 0.147436 -0.156372 2.341805152028776e-38
1.839160 0.138593 -0.156476 2.341805152028776e-38
1.840803 0.129737 -0.156579 2.341805152028776e-38
1.842404 0.120868 -0.156681 2.341805152028776e-38
1.844956 0.112047 -0.156866 2.341805152028776e-38
1.847467 0.103204 -0.157049 2.341805152028776e-38
1.844959 0.094086 -0.156809 2.341805152028776e-38
1.847384 0.085224 -0.156991 2.341805152028776e-38
1.844788 0.076135 -0.156748 2.341805152028776e-38
1.844139 0.067146 -0.156673 2.341805152028776e-38
1.841455 0.058102 -0.156428 2.341805152028776e-38
1.842710 0.049192 -0.156520 2.341805152028776e-38
1.845915 0.040315 -0.156780 2.341805152028776e-38
1.849078 0.031408 -0.157039 2.341805152028776e-38
1.847215 0.022410 -0.156873 2.341805152028776e-38
1.847302 0.013446 -0.156875 2.341805152028776e-38
1.846349 0.004480 -0.156792 2.341805152028776e-38
1.846349 -0.004480 -0.156792 2.341805152028776e-38
1.849295 -0.013461 -0.157045 2.341805152028776e-38
1.851201 -0.022459 -0.157211 2.341805152028776e-38
1.850074 -0.031425 -0.157123 2.341805152028776e-38
1.851892 -0.040445 -0.157287 2.341805152028776e-38
1.854663 -0.049511 -0.157535 2.341805152028776e-38
1.853406 -0.058479 -0.157443 2.341805152028776e-38
1.852105 -0.067436 -0.157350 2.341805152028776e-38
1.850761 -0.076381 -0.157256 2.341805152028776e-38
1.841412 -0.084948 -0.156483 2.341805152028776e-38
1.886755 -0.096217 -0.160362 2.341805152028776e-38
1.794633 0.439676 -0.164323 2.341805152028776e-38
1.801583 0.432121 -0.164830 2.341805152028776e-38
1.809472 0.424736 -0.165424 2.341805152028776e-38
1.810537 0.415725 -0.165396 2.341805152028776e-38
1.815443 0.407586 -0.165722 2.341805152028776e-38
1.815449 0.398341 -0.165603 2.341805152028776e-38
1.819304 0.389942 -0.165837 2.341805152028776e-38
1.817271 0.380290 -0.165538 2.341805152028776e-38
1.817138 0.371066 -0.165415 2.341805152028776e-38
1.817937 0.362046 -0.165379 2.341805152028776e-38
1.817712 0.352838 -0.165253 2.341805152028776e-38
1.819399 0.344010 -0.165304 2.341805152028776e-38
1.823982 0.335716 -0.165620 2.341805152028776e-38
1.822644 0.326331 -0.165401 2.341805152028776e-38
1.827146 0.317993 -0.165714 2.341805152028776e-38
1.823754 0.308290 -0.165315 2.341805152028776e-38
1.827190 0.299756 -0.165537 2.341805152028776e-38
1.826653 0.290570 -0.165402 2.341805152028776e-38
1.830991 0.282155 -0.165710 2.341805152028776e-38
1.829380 0.272823 -0.165483 2.341805152028776e-38
1.830679 0.263940 -0.165522 2.341805152028776e-38
1.828976 0.254639 -0.165292 2.341805152028776e-38
1.831174 0.245891 -0.165417 2.341805152028776e-38
1.831355 0.236872 -0.165363 2.341805152028776e-38
1.832481 0.227979 -0.165397 2.341805152028776e-38
1.832574 0.218964 -0.165340 2.341805152028776e-38
1.837570 0.210519 -0.165728 2.341805152028776e-38
1.834608 0.201163 -0.165401 2.341805152028776e-38
1.837541 0.192463 -0.165608 2.341805152028776e-38
1.835478 0.183245 -0.165367 2.341805152028776e-38
1.838326 0.174521 -0.165572 2.341805152028776e-38
1.837166 0.165418 -0.165418 2.341805152028776e-38
1.838937 0.156583 -0.165530 2.341805152028776e-38
1.837688 0.147495 -0.165374 2.341805152028776e-38
1.840367 0.138723 -0.165573 2.341805152028776e-38
1.842010 0.129859 -0.165682 2.341805152028776e-38
1.844605 0.121047 -0.165879 2.341805152028776e-38
1.845169 0.112092 -0.165895 2.341805152028776e-38
1.845690 0.103134 -0.165911 2.341805152028776e-38
1.846168 0.094174 -0.165925 2.341805152028776e-38
1.846602 0.085212 -0.165938 2.341805152028776e-38
1.845998 0.076206 -0.165860 2.341805152028776e-38
1.846345 0.067245 -0.165871 2.341805152028776e-38
1.842667 0.058156 -0.165522 2.341805152028776e-38
1.844918 0.049265 -0.165709 2.341805152028776e-38
1.847126 0.040353 -0.165894 2.341805152028776e-38
1.849292 0.031420 -0.166078 2.341805152028776e-38
1.849422 0.022444 -0.166082 2.341805152028776e-38
1.849509 0.013466 -0.166085 2.341805152028776e-38
1.846565 0.004482 -0.165818 2.341805152028776e-38
1.848557 -0.004486 -0.165997 2.341805152028776e-38
1.847517 -0.013452 -0.165906 2.341805152028776e-38
1.852410 -0.022480 -0.166350 2.341805152028776e-38
1.852279 -0.031471 -0.166347 2.341805152028776e-38
1.854097 -0.040505 -0.166520 2.341805152028776e-38
1.849896 -0.049398 -0.166156 2.341805152028776e-38
1.850631 -0.058408 -0.166238 2.341805152028776e-38
1.850326 -0.067390 -0.166229 2.341805152028776e-38
1.852964 -0.076494 -0.166486 2.341805152028776e-38
1.840633 -0.084936 -0.165402 2.341805152028776e-38
1.870041 -0.095392 -0.168071 2.341805152028776e-38
1.789948 0.438662 -0.172806 2.341805152028776e-38
1.801732 0.432289 -0.173807 2.341805152028776e-38
1.806711 0.424218 -0.174152 2.341805152028776e-38
1.810685 0.415886 -0.174404 2.341805152028776e-38
1.812677 0.407089 -0.174467 2.341805152028776e-38
1.815598 0.398496 -0.174622 2.341805152028776e-38
1.818480 0.389884 -0.174775 2.341805152028776e-38
1.817422 0.380437 -0.174554 2.341805152028776e-38
1.820218 0.371807 -0.174705 2.341805152028776e-38
1.818091 0.362187 -0.174386 2.341805152028776e-38
1.818845 0.353165 -0.174347 2.341805152028776e-38
1.821512 0.344514 -0.174494 2.341805152028776e-38
1.823158 0.335666 -0.174546 2.341805152028776e-38
1.823782 0.326634 -0.174503 2.341805152028776e-38
1.826322 0.317945 -0.174646 2.341805152028776e-38
1.825877 0.308742 -0.174506 2.341805152028776e-38
1.825385 0.299550 -0.174365 2.341805152028776e-38
1.829763 0.291153 -0.174692 2.341805152028776e-38
1.827215 0.281658 -0.174360 2.341805152028776e-38
1.826588 0.272489 -0.174214 2.341805152028776e-38
1.828871 0.263759 -0.174349 2.341805152028776e-38
1.828154 0.254601 -0.174201 2.341805152028776e-38
1.830352 0.245854 -0.174333 2.341805152028776e-38
1.830533 0.236836 -0.174276 2.341805152028776e-38
1.830670 0.227823 -0.174217 2.341805152028776e-38
1.833729 0.219168 -0.174439 2.341805152028776e-38
1.835757 0.210375 -0.174566 2.341805152028776e-38
1.838733 0.201676 -0.174786 2.341805152028776e-38
1.838698 0.192642 -0.174722 2.341805152028776e-38
1.838618 0.183613 -0.174656 2.341805152028776e-38
1.837503 0.174495 -0.174495 2.341805152028776e-38
1.838326 0.165572 -0.174521 2.341805152028776e-38
1.840098 0.156728 -0.174640 2.341805152028776e-38
1.837858 0.147553 -0.174381 2.341805152028776e-38
1.839544 0.138703 -0.174497 2.341805152028776e-38
1.839200 0.129699 -0.174423 2.341805152028776e-38
1.842787 0.120963 -0.174725 2.341805152028776e-38
1.843351 0.112014 -0.174743 2.341805152028776e-38
1.846854 0.103230 -0.175042 2.341805152028776e-38
1.844349 0.094109 -0.174774 2.341805152028776e-38
1.844783 0.085153 -0.174788 2.341805152028776e-38
1.846168 0.076236 -0.174894 2.341805152028776e-38
1.846515 0.067271 -0.174905 2.341805152028776e-38
1.842839 0.058179 -0.174538 2.341805152028776e-38
1.845089 0.049284 -0.174734 2.341805152028776e-38
1.848292 0.040390 -0.175024 2.341805152028776e-38
1.849461 0.031432 -0.175124 2.341805152028776e-38
1.848596 0.022440 -0.175034 2.341805152028776e-38
1.848683 0.013464 -0.175036 2.341805152028776e-38
1.844745 0.004478 -0.174661 2.341805152028776e-38
1.847731 -0.004486 -0.174943 2.341805152028776e-38
1.850674 -0.013479 -0.175225 2.341805152028776e-38
1.853574 -0.022501 -0.175505 2.341805152028776e-38
1.851452 -0.031466 -0.175312 2.341805152028776e-38
1.849288 -0.040412 -0.175118 2.341805152028776e-38
1.849070 -0.049390 -0.175111 2.341805152028776e-38
1.849804 -0.058399 -0.175197 2.341805152028776e-38
1.851490 -0.067452 -0.175376 2.341805152028776e-38
1.850147 -0.076400 -0.175271 2.341805152028776e-38
1.839810 -0.084923 -0.174317 2.341805152028776e-38
1.860257 -0.094921 -0.176281 2.341805152028776e-38
1.781154 0.445829 -0.180980 2.341805152028776e-38
1.790057 0.438830 -0.181738 2.341805152028776e-38
1.800869 0.432221 -0.182691 2.341805152028776e-38
1.804878 0.423924 -0.182956 2.341805152028776e-38
1.805939 0.414929 -0.182926 2.341805152028776e-38
1.813752 0.407461 -0.183581 2.341805152028776e-38
1.813759 0.398220 -0.183450 2.341805152028776e-38
1.815666 0.389405 -0.183513 2.341805152028776e-38
1.816556 0.380378 -0.183476 2.341805152028776e-38
1.820326 0.371948 -0.183734 2.341805152028776e-38
1.818201 0.362325 -0.183399 2.341805152028776e-38
1.819934 0.353489 -0.183456 2.341805152028776e-38
1.823579 0.345015 -0.183709 2.341805152028776e-38
1.825228 0.336154 -0.183764 2.341805152028776e-38
1.825854 0.327109 -0.183719 2.341805152028776e-38
1.825455 0.317895 -0.183573 2.341805152028776e-38
1.825010 0.308693 -0.183427 2.341805152028776e-38
1.828447 0.300148 -0.183673 2.341805152028776e-38
1.828896 0.291107 -0.183621 2.341805152028776e-38
1.828317 0.281917 -0.183470 2.341805152028776e-38
1.826707 0.272593 -0.183218 2.341805152028776e-38
1.828990 0.263860 -0.183360 2.341805152028776e-38
1.830246 0.254973 -0.183402 2.341805152028776e-38
1.831459 0.246081 -0.183442 2.341805152028776e-38
1.830655 0.236927 -0.183283 2.341805152028776e-38
1.832768 0.228156 -0.183419 2.341805152028776e-38
1.832863 0.219133 -0.183356 2.341805152028776e-38
1.836868 0.210568 -0.183687 2.341805152028776e-38
1.836877 0.201536 -0.183622 2.341805152028776e-38
1.836841 0.192508 -0.183554 2.341805152028776e-38
1.833791 0.183189 -0.183189 2.341805152028776e-38
1.836637 0.174468 -0.183415 2.341805152028776e-38
1.837460 0.165546 -0.183443 2.341805152028776e-38
1.838240 0.156619 -0.183468 2.341805152028776e-38
1.838976 0.147689 -0.183493 2.341805152028776e-38
1.841654 0.138905 -0.183714 2.341805152028776e-38
1.841312 0.129889 -0.183636 2.341805152028776e-38
1.843905 0.121075 -0.183854 2.341805152028776e-38
1.840497 0.111876 -0.183477 2.341805152028776e-38
1.843004 0.103047 -0.183692 2.341805152028776e-38
1.842487 0.094044 -0.183609 2.341805152028776e-38
1.843915 0.085140 -0.183722 2.341805152028776e-38
1.841323 0.076060 -0.183438 2.341805152028776e-38
1.844653 0.067224 -0.183747 2.341805152028776e-38
1.843962 0.058233 -0.183658 2.341805152028776e-38
1.847206 0.049356 -0.183964 2.341805152028776e-38
1.846429 0.040362 -0.183872 2.341805152028776e-38
1.848592 0.031428 -0.184076 2.341805152028776e-38
1.846732 0.022425 -0.183882 2.341805152028776e-38
1.843834 0.013433 -0.183587 2.341805152028776e-38
1.843877 0.004478 -0.183589 2.341805152028776e-38
1.846863 -0.004485 -0.183886 2.341805152028776e-38
1.850799 -0.013484 -0.184281 2.341805152028776e-38
1.852702 -0.022497 -0.184476 2.341805152028776e-38
1.849587 -0.031444 -0.184175 2.341805152028776e-38
1.847423 -0.040384 -0.183971 2.341805152028776e-38
1.848201 -0.049383 -0.184063 2.341805152028776e-38
1.849929 -0.058421 -0.184252 2.341805152028776e-38
1.848630 -0.067369 -0.184143 2.341805152028776e-38
1.849277 -0.076388 -0.184231 2.341805152028776e-38
1.839939 -0.084956 -0.183326 2.341805152028776e-38
1.867332 -0.095312 -0.186085 2.341805152028776e-38
1.835256 0.459526 -0.195640 2.341805152028776e-38
1.797850 0.440890 -0.191498 2.341805152028776e-38
1.801898 0.432614 -0.191777 2.341805152028776e-38
1.803971 0.423854 -0.191850 2.341805152028776e-38
1.806971 0.415306 -0.192023 2.341805152028776e-38
1.807990 0.406303 -0.191990 2.341805152028776e-38
1.807021 0.396874 -0.191748 2.341805152028776e-38
1.808921 0.388089 -0.191814 2.341805152028776e-38
1.812725 0.379703 -0.192085 2.341805152028776e-38
1.814542 0.370891 -0.192148 2.341805152028776e-38
1.817292 0.362265 -0.192313 2.341805152028776e-38
1.819024 0.353431 -0.192374 2.341805152028776e-38
1.820713 0.344589 -0.192433 2.341805152028776e-38
1.824317 0.336099 -0.192696 2.341805152028776e-38
1.824943 0.327055 -0.192649 2.341805152028776e-38
1.826505 0.318185 -0.192703 2.341805152028776e-38
1.826062 0.308975 -0.192549 2.341805152028776e-38
1.825574 0.299776 -0.192394 2.341805152028776e-38
1.826021 0.290747 -0.192340 2.341805152028776e-38
1.828390 0.282023 -0.192492 2.341805152028776e-38
1.828750 0.272989 -0.192435 2.341805152028776e-38
1.829066 0.263959 -0.192377 2.341805152028776e-38
1.830322 0.255069 -0.192420 2.341805152028776e-38
1.831535 0.246173 -0.192462 2.341805152028776e-38
1.831719 0.237144 -0.192399 2.341805152028776e-38
1.830871 0.227995 -0.192231 2.341805152028776e-38
1.829978 0.218861 -0.192062 2.341805152028776e-38
1.832993 0.210194 -0.192305 2.341805152028776e-38
1.833989 0.201286 -0.192340 2.341805152028776e-38
1.830985 0.191958 -0.191958 2.341805152028776e-38
1.828923 0.182763 -0.191678 2.341805152028776e-38
1.831767 0.174063 -0.191916 2.341805152028776e-38
1.834569 0.165340 -0.192152 2.341805152028776e-38
1.838321 0.156678 -0.192490 2.341805152028776e-38
1.840049 0.147824 -0.192620 2.341805152028776e-38
1.841735 0.138957 -0.192747 2.341805152028776e-38
1.842386 0.130008 -0.192770 2.341805152028776e-38
1.840016 0.120859 -0.192480 2.341805152028776e-38
1.840580 0.111918 -0.192499 2.341805152028776e-38
1.840107 0.102919 -0.192414 2.341805152028776e-38
1.840584 0.093977 -0.192430 2.341805152028776e-38
1.839030 0.084942 -0.192237 2.341805152028776e-38
1.839419 0.076006 -0.192251 2.341805152028776e-38
1.841754 0.067141 -0.192471 2.341805152028776e-38
1.844045 0.058255 -0.192689 2.341805152028776e-38
1.844305 0.049295 -0.192698 2.341805152028776e-38
1.843528 0.040312 -0.192602 2.341805152028776e-38
1.845690 0.031389 -0.192815 2.341805152028776e-38
1.843832 0.022397 -0.192612 2.341805152028776e-38
1.843918 0.013438 -0.192615 2.341805152028776e-38
1.841972 0.004475 -0.192409 2.341805152028776e-38
1.841972 -0.004475 -0.192409 2.341805152028776e-38
1.843918 -0.013438 -0.192615 2.341805152028776e-38
1.844826 -0.022409 -0.192716 2.341805152028776e-38
1.845690 -0.031389 -0.192815 2.341805152028776e-38
1.848500 -0.040421 -0.193121 2.341805152028776e-38
1.849277 -0.049428 -0.193217 2.341805152028776e-38
1.851998 -0.058506 -0.193520 2.341805152028776e-38
1.852687 -0.067540 -0.193613 2.341805152028776e-38
1.849357 -0.076417 -0.193290 2.341805152028776e-38
1.839030 -0.084942 -0.192237 2.341805152028776e-38
1.866409 -0.095296 -0.195130 2.341805152028776e-38
1.809454 0.443893 -0.201770 2.341805152028776e-38
1.804815 0.433468 -0.201093 2.341805152028776e-38
1.803021 0.423781 -0.200738 2.341805152028776e-38
1.803113 0.414566 -0.200597 2.341805152028776e-38
1.808009 0.406451 -0.200992 2.341805152028776e-38
1.807042 0.397019 -0.200740 2.341805152028776e-38
1.808943 0.388231 -0.200809 2.341805152028776e-38
1.816639 0.380657 -0.201524 2.341805152028776e-38
1.817486 0.371624 -0.201483 2.341805152028776e-38
1.815364 0.362008 -0.201116 2.341805152028776e-38
1.818071 0.353370 -0.201287 2.341805152028776e-38
1.819760 0.344529 -0.201348 2.341805152028776e-38
1.822384 0.335860 -0.201516 2.341805152028776e-38
1.823989 0.326999 -0.201575 2.341805152028776e-38
1.826530 0.318300 -0.201740 2.341805152028776e-38
1.828049 0.309419 -0.201795 2.341805152028776e-38
1.828544 0.300369 -0.201741 2.341805152028776e-38
1.826050 0.290853 -0.201360 2.341805152028776e-38
1.828419 0.282126 -0.201518 2.341805152028776e-38
1.827797 0.272942 -0.201351 2.341805152028776e-38
1.828113 0.263913 -0.201290 2.341805152028776e-38
1.829369 0.255025 -0.201335 2.341805152028776e-38
1.828611 0.245866 -0.201163 2.341805152028776e-38
1.830766 0.237103 -0.201314 2.341805152028776e-38
1.832879 0.228325 -0.201463 2.341805152028776e-38
1.831988 0.219178 -0.201286 2.341805152028776e-38
1.834015 0.210384 -0.201432 2.341805152028776e-38
1.833036 0.201251 -0.201251 2.341805152028776e-38
1.829045 0.191821 -0.200743 2.341805152028776e-38
1.828963 0.182831 -0.200668 2.341805152028776e-38
1.833785 0.174315 -0.201133 2.341805152028776e-38
1.837578 0.165669 -0.201489 2.341805152028776e-38
1.838358 0.156736 -0.201517 2.341805152028776e-38
1.839095 0.147799 -0.201544 2.341805152028776e-38
1.839789 0.138859 -0.201569 2.341805152028776e-38
1.840440 0.129915 -0.201593 2.341805152028776e-38
1.841047 0.120969 -0.201615 2.341805152028776e-38
1.839626 0.111899 -0.201418 2.341805152028776e-38
1.840146 0.102957 -0.201437 2.341805152028776e-38
1.844594 0.094215 -0.201889 2.341805152028776e-38
1.843043 0.085157 -0.201687 2.341805152028776e-38
1.840454 0.076075 -0.201376 2.341805152028776e-38
1.839807 0.067093 -0.201280 2.341805152028776e-38
1.841104 0.058182 -0.201399 2.341805152028776e-38
1.843351 0.049286 -0.201626 2.341805152028776e-38
1.844562 0.040349 -0.201743 2.341805152028776e-38
1.843741 0.031366 -0.201640 2.341805152028776e-38
1.843872 0.022405 -0.201645 2.341805152028776e-38
1.842964 0.013436 -0.201539 2.341805152028776e-38
1.841020 0.004474 -0.201324 2.341805152028776e-38
1.840025 -0.004471 -0.201215 2.341805152028776e-38
1.840976 -0.013421 -0.201322 2.341805152028776e-38
1.844866 -0.022417 -0.201754 2.341805152028776e-38
1.846723 -0.031417 -0.201966 2.341805152028776e-38
1.849531 -0.040457 -0.202286 2.341805152028776e-38
1.849313 -0.049446 -0.202278 2.341805152028776e-38
1.852033 -0.058527 -0.202595 2.341805152028776e-38
1.848747 -0.067419 -0.202258 2.341805152028776e-38
1.850386 -0.076486 -0.202462 2.341805152028776e-38
1.843043 -0.085157 -0.201687 2.341805152028776e-38
1.865443 -0.095280 -0.204171 2.341805152028776e-38
1.809421 0.444050 -0.210812 2.341805152028776e-38
1.806718 0.434086 -0.210330 2.341805152028776e-38
1.804929 0.424386 -0.209960 2.341805152028776e-38
1.805026 0.415160 -0.209812 2.341805152028776e-38
1.807014 0.406378 -0.209888 2.341805152028776e-38
1.808960 0.397587 -0.209962 2.341805152028776e-38
1.814749 0.389621 -0.210485 2.341805152028776e-38
1.819532 0.381404 -0.210894 2.341805152028776e-38
1.817463 0.371756 -0.210512 2.341805152028776e-38
1.819241 0.362915 -0.210580 2.341805152028776e-38
1.818050 0.353496 -0.210308 2.341805152028776e-38
1.818764 0.344467 -0.210259 2.341805152028776e-38
1.822364 0.335980 -0.210548 2.341805152028776e-38
1.822991 0.326940 -0.210496 2.341805152028776e-38
1.829447 0.318926 -0.211120 2.341805152028776e-38
1.835868 0.310856 -0.211743 2.341805152028776e-38
1.831468 0.300960 -0.211121 2.341805152028776e-38
1.828979 0.291426 -0.210723 2.341805152028776e-38
1.824476 0.281620 -0.210098 2.341805152028776e-38
1.824835 0.272599 -0.210036 2.341805152028776e-38
1.827117 0.263866 -0.210198 2.341805152028776e-38
1.826405 0.254704 -0.210019 2.341805152028776e-38
1.829585 0.246086 -0.210292 2.341805152028776e-38
1.829770 0.237060 -0.210223 2.341805152028776e-38
1.830896 0.228161 -0.210266 2.341805152028776e-38
1.830006 0.219020 -0.210080 2.341805152028776e-38
1.832032 0.210233 -0.210233 2.341805152028776e-38
1.835991 0.201649 -0.210611 2.341805152028776e-38
1.834969 0.192512 -0.210421 2.341805152028776e-38
1.834891 0.183490 -0.210342 2.341805152028776e-38
1.834768 0.174472 -0.210261 2.341805152028776e-38
1.833612 0.165371 -0.210066 2.341805152028776e-38
1.838351 0.156792 -0.210549 2.341805152028776e-38
1.836117 0.147613 -0.210237 2.341805152028776e-38
1.836810 0.138684 -0.210263 2.341805152028776e-38
1.839442 0.129892 -0.210515 2.341805152028776e-38
1.839058 0.120882 -0.210424 2.341805152028776e-38
1.838630 0.111879 -0.210332 2.341805152028776e-38
1.843118 0.103160 -0.210806 2.341805152028776e-38
1.846572 0.094350 -0.211164 2.341805152028776e-38
1.842045 0.085142 -0.210613 2.341805152028776e-38
1.839457 0.076062 -0.210288 2.341805152028776e-38
1.838811 0.067081 -0.210187 2.341805152028776e-38
1.842093 0.058234 -0.210539 2.341805152028776e-38
1.844340 0.049331 -0.210776 2.341805152028776e-38
1.843563 0.040341 -0.210671 2.341805152028776e-38
1.844730 0.031394 -0.210791 2.341805152028776e-38
1.844861 0.022425 -0.210796 2.341805152028776e-38
1.843954 0.013448 -0.210686 2.341805152028776e-38
1.842010 0.004478 -0.210461 2.341805152028776e-38
1.842010 -0.004478 -0.210461 2.341805152028776e-38
1.844948 -0.013455 -0.210799 2.341805152028776e-38
1.845854 -0.022437 -0.210910 2.341805152028776e-38
1.845724 -0.031411 -0.210905 2.341805152028776e-38
1.845550 -0.040385 -0.210898 2.341805152028776e-38
1.847319 -0.049410 -0.211117 2.341805152028776e-38
1.848051 -0.058423 -0.211220 2.341805152028776e-38
1.848740 -0.067443 -0.211322 2.341805152028776e-38
1.847399 -0.076390 -0.211196 2.341805152028776e-38
1.841052 -0.085096 -0.210500 2.341805152028776e-38
1.858479 -0.094958 -0.212526 2.341805152028776e-38
1.851463 0.464173 -0.225193 2.341805152028776e-38
1.811268 0.444690 -0.220099 2.341805152028776e-38
1.808575 0.434701 -0.219591 2.341805152028776e-38
1.804858 0.424534 -0.218970 2.341805152028776e-38
1.804956 0.415304 -0.218816 2.341805152028776e-38
1.807914 0.406738 -0.219013 2.341805152028776e-38
1.808892 0.397725 -0.218972 2.341805152028776e-38
1.816622 0.390173 -0.219753 2.341805152028776e-38
1.816545 0.380925 -0.219592 2.341805152028776e-38
1.817395 0.371885 -0.219547 2.341805152028776e-38
1.816252 0.362458 -0.219265 2.341805152028776e-38
1.817011 0.353429 -0.219216 2.341805152028776e-38
1.819676 0.344772 -0.219400 2.341805152028776e-38
1.821324 0.335917 -0.219466 2.341805152028776e-38
1.820973 0.326703 -0.219294 2.341805152028776e-38
1.829381 0.319036 -0.220180 2.341805152028776e-38
1.833842 0.310632 -0.220594 2.341805152028776e-38
1.831404 0.301064 -0.220181 2.341805152028776e-38
1.824014 0.290746 -0.219178 2.341805152028776e-38
1.822456 0.281416 -0.218879 2.341805152028776e-38
1.822815 0.272401 -0.218814 2.341805152028776e-38
1.825095 0.263674 -0.218984 2.341805152028776e-38
1.825366 0.254657 -0.218915 2.341805152028776e-38
1.825593 0.245643 -0.218845 2.341805152028776e-38
1.828731 0.237016 -0.219128 2.341805152028776e-38
1.826900 0.227749 -0.218818 2.341805152028776e-38
1.826995 0.218743 -0.218743 2.341805152028776e-38
1.832965 0.210420 -0.219374 2.341805152028776e-38
1.835937 0.201719 -0.219650 2.341805152028776e-38
1.833929 0.192476 -0.219333 2.341805152028776e-38
1.829899 0.183060 -0.218779 2.341805152028776e-38
1.831752 0.174251 -0.218931 2.341805152028776e-38
1.833563 0.165429 -0.219082 2.341805152028776e-38
1.834342 0.156509 -0.219113 2.341805152028776e-38
1.836068 0.147665 -0.219260 2.341805152028776e-38
1.836761 0.138733 -0.219288 2.341805152028776e-38
1.838402 0.129868 -0.219432 2.341805152028776e-38
1.840990 0.121055 -0.219692 2.341805152028776e-38
1.841555 0.112099 -0.219714 2.341805152028776e-38
1.842076 0.103141 -0.219735 2.341805152028776e-38
1.843545 0.094231 -0.219872 2.341805152028776e-38
1.841004 0.085126 -0.219535 2.341805152028776e-38
1.842386 0.076211 -0.219668 2.341805152028776e-38
1.844718 0.067322 -0.219919 2.341805152028776e-38
1.844030 0.058318 -0.219812 2.341805152028776e-38
1.844290 0.049348 -0.219823 2.341805152028776e-38
1.845500 0.040399 -0.219950 2.341805152028776e-38
1.845674 0.031422 -0.219956 2.341805152028776e-38
1.844812 0.022433 -0.219843 2.341805152028776e-38
1.843905 0.013453 -0.219728 2.341805152028776e-38
1.842956 0.004482 -0.219612 2.341805152028776e-38
1.843949 -0.004484 -0.219730 2.341805152028776e-38
1.843905 -0.013453 -0.219728 2.341805152028776e-38
1.845804 -0.022445 -0.219962 2.341805152028776e-38
1.844681 -0.031405 -0.219838 2.341805152028776e-38
1.843515 -0.040355 -0.219713 2.341805152028776e-38
1.845283 -0.049374 -0.219941 2.341805152028776e-38
1.845022 -0.058349 -0.219931 2.341805152028776e-38
1.845710 -0.067358 -0.220037 2.341805152028776e-38
1.846355 -0.076376 -0.220141 2.341805152028776e-38
1.841995 -0.085171 -0.219653 2.341805152028776e-38
1.858420 -0.094991 -0.221646 2.341805152028776e-38
1.854194 0.465072 -0.234839 2.341805152028776e-38
1.810173 0.444628 -0.229051 2.341805152028776e-38
1.805560 0.434151 -0.228265 2.341805152028776e-38
1.804742 0.424678 -0.227985 2.341805152028776e-38
1.803875 0.415223 -0.227703 2.341805152028776e-38
1.807801 0.406876 -0.228029 2.341805152028776e-38
1.807811 0.397648 -0.227865 2.341805152028776e-38
1.810685 0.389054 -0.228066 2.341805152028776e-38
1.809633 0.379627 -0.227776 2.341805152028776e-38
1.812421 0.371016 -0.227974 2.341805152028776e-38
1.815169 0.362387 -0.228169 2.341805152028776e-38
1.816902 0.353550 -0.228241 2.341805152028776e-38
1.818592 0.344704 -0.228311 2.341805152028776e-38
1.817312 0.335311 -0.228011 2.341805152028776e-38
1.819890 0.326639 -0.228200 2.341805152028776e-38
1.825361 0.318462 -0.228754 2.341805152028776e-38
1.829817 0.310074 -0.229185 2.341805152028776e-38
1.827379 0.300522 -0.228756 2.341805152028776e-38
1.823912 0.290845 -0.228202 2.341805152028776e-38
1.825298 0.281967 -0.228259 2.341805152028776e-38
1.825660 0.272935 -0.228192 2.341805152028776e-38
1.825978 0.263906 -0.228122 2.341805152028776e-38
1.827234 0.255018 -0.228174 2.341805152028776e-38
1.827463 0.245992 -0.228101 2.341805152028776e-38
1.826664 0.236842 -0.227904 2.341805152028776e-38
1.826804 0.227828 -0.227828 2.341805152028776e-38
1.828871 0.219054 -0.227995 2.341805152028776e-38
1.831882 0.210379 -0.228284 2.341805152028776e-38
1.832879 0.201463 -0.228325 2.341805152028776e-38
1.831858 0.192335 -0.228118 2.341805152028776e-38
1.830793 0.183222 -0.227910 2.341805152028776e-38
1.831658 0.174311 -0.227946 2.341805152028776e-38
1.833469 0.165486 -0.228102 2.341805152028776e-38
1.835237 0.156647 -0.228258 2.341805152028776e-38
1.835974 0.147716 -0.228288 2.341805152028776e-38
1.838647 0.138930 -0.228562 2.341805152028776e-38
1.840288 0.130052 -0.228712 2.341805152028776e-38
1.837925 0.120901 -0.228368 2.341805152028776e-38
1.839479 0.112017 -0.228515 2.341805152028776e-38
1.839009 0.103010 -0.228413 2.341805152028776e-38
1.841468 0.094162 -0.228679 2.341805152028776e-38
1.841902 0.085201 -0.228697 2.341805152028776e-38
1.844276 0.076320 -0.228959 2.341805152028776e-38
1.845615 0.067381 -0.229096 2.341805152028776e-38
1.843936 0.058338 -0.228863 2.341805152028776e-38
1.842213 0.049312 -0.228627 2.341805152028776e-38
1.843422 0.040369 -0.228759 2.341805152028776e-38
1.847564 0.031467 -0.229259 2.341805152028776e-38
1.846703 0.022465 -0.229141 2.341805152028776e-38
1.845797 0.013472 -0.229022 2.341805152028776e-38
1.843856 0.004486 -0.228777 2.341805152028776e-38
1.842864 -0.004483 -0.228654 2.341805152028776e-38
1.844805 -0.013465 -0.228898 2.341805152028776e-38
1.844718 -0.022441 -0.228895 2.341805152028776e-38
1.844588 -0.031416 -0.228889 2.341805152028776e-38
1.846398 -0.040434 -0.229129 2.341805152028776e-38
1.847173 -0.049445 -0.229243 2.341805152028776e-38
1.848895 -0.058494 -0.229478 2.341805152028776e-38
1.848590 -0.067490 -0.229466 2.341805152028776e-38
1.848242 -0.076484 -0.229451 2.341805152028776e-38
1.842893 -0.085247 -0.228820 2.341805152028776e-38
1.863272 -0.095277 -0.231386 2.341805152028776e-38
1.849178 0.464037 -0.243505 2.341805152028776e-38
1.809997 0.444800 -0.238125 2.341805152028776e-38
1.805394 0.434310 -0.237303 2.341805152028776e-38
1.805548 0.425046 -0.237131 2.341805152028776e-38
1.803718 0.415361 -0.236711 2.341805152028776e-38
1.806675 0.406793 -0.236923 2.341805152028776e-38
1.806686 0.397566 -0.236753 2.341805152028776e-38
1.810529 0.389183 -0.237089 2.341805152028776e-38
1.811421 0.380161 -0.237042 2.341805152028776e-38
1.814211 0.371537 -0.237247 2.341805152028776e-38
1.818907 0.363284 -0.237704 2.341805152028776e-38
1.818697 0.354046 -0.237525 2.341805152028776e-38
1.817466 0.344634 -0.237216 2.341805152028776e-38
1.818137 0.335603 -0.237159 2.341805152028776e-38
1.820717 0.326923 -0.237355 2.341805152028776e-38
1.826186 0.318738 -0.237931 2.341805152028776e-38
1.828685 0.310010 -0.238124 2.341805152028776e-38
1.827229 0.300622 -0.237805 2.341805152028776e-38
1.825724 0.291255 -0.237485 2.341805152028776e-38
1.826132 0.282212 -0.237417 2.341805152028776e-38
1.827477 0.273320 -0.237474 2.341805152028776e-38
1.827797 0.264278 -0.237403 2.341805152028776e-38
1.825125 0.254829 -0.236946 2.341805152028776e-38
1.827320 0.246074 -0.237126 2.341805152028776e-38
1.828490 0.237176 -0.237176 2.341805152028776e-38
1.829617 0.228272 -0.237224 2.341805152028776e-38
1.827746 0.219010 -0.236888 2.341805152028776e-38
1.829770 0.210223 -0.237060 2.341805152028776e-38
1.831752 0.201422 -0.237230 2.341805152028776e-38
1.833692 0.192607 -0.237399 2.341805152028776e-38
1.834602 0.183678 -0.237438 2.341805152028776e-38
1.835470 0.174746 -0.237475 2.341805152028776e-38
1.836294 0.165809 -0.237510 2.341805152028776e-38
1.835099 0.156700 -0.237288 2.341805152028776e-38
1.835836 0.147765 -0.237320 2.341805152028776e-38
1.837519 0.138902 -0.237477 2.341805152028776e-38
1.837180 0.129886 -0.237377 2.341805152028776e-38
1.839767 0.121072 -0.237659 2.341805152028776e-38
1.840331 0.112115 -0.237683 2.341805152028776e-38
1.841842 0.103211 -0.237833 2.341805152028776e-38
1.842320 0.094244 -0.237854 2.341805152028776e-38
1.842755 0.085275 -0.237873 2.341805152028776e-38
1.842155 0.076263 -0.237761 2.341805152028776e-38
1.844485 0.067368 -0.238032 2.341805152028776e-38
1.841815 0.058294 -0.237661 2.341805152028776e-38
1.843067 0.049355 -0.237800 2.341805152028776e-38
1.847250 0.040470 -0.238321 2.341805152028776e-38
1.849408 0.031511 -0.238585 2.341805152028776e-38
1.846563 0.022472 -0.238207 2.341805152028776e-38
1.846650 0.013484 -0.238210 2.341805152028776e-38
1.843719 0.004487 -0.237828 2.341805152028776e-38
1.844710 -0.004490 -0.237956 2.341805152028776e-38
1.845659 -0.013476 -0.238082 2.341805152028776e-38
1.846563 -0.022472 -0.238207 2.341805152028776e-38
1.846433 -0.031461 -0.238201 2.341805152028776e-38
1.848242 -0.040491 -0.238449 2.341805152028776e-38
1.846041 -0.049434 -0.238184 2.341805152028776e-38
1.845780 -0.058420 -0.238173 2.341805152028776e-38
1.847458 -0.067476 -0.238416 2.341805152028776e-38
1.848100 -0.076509 -0.238529 2.341805152028776e-38
1.844736 -0.085367 -0.238128 2.341805152028776e-38
1.863121 -0.095308 -0.240539 2.341805152028776e-38
1.861429 0.467344 -0.254494 2.341805152028776e-38
1.812665 0.445678 -0.247599 2.341805152028776e-38
1.808070 0.435172 -0.246747 2.341805152028776e-38
1.805344 0.425183 -0.246159 2.341805152028776e-38
1.805449 0.415940 -0.245986 2.341805152028776e-38
1.806474 0.406924 -0.245943 2.341805152028776e-38
1.809391 0.398335 -0.246162 2.341805152028776e-38
1.812267 0.389726 -0.246379 2.341805152028776e-38
1.812192 0.380488 -0.246198 2.341805152028776e-38
1.814983 0.371857 -0.246411 2.341805152028776e-38
1.816762 0.363013 -0.246490 2.341805152028776e-38
1.818498 0.354161 -0.246568 2.341805152028776e-38
1.820191 0.345300 -0.246643 2.341805152028776e-38
1.819892 0.336072 -0.246453 2.341805152028776e-38
1.821497 0.327205 -0.246524 2.341805152028776e-38
1.821107 0.317989 -0.246329 2.341805152028776e-38
1.822625 0.309116 -0.246397 2.341805152028776e-38
1.825078 0.300397 -0.246595 2.341805152028776e-38
1.826510 0.291506 -0.246659 2.341805152028776e-38
1.824961 0.282153 -0.246324 2.341805152028776e-38
1.823365 0.272822 -0.245987 2.341805152028776e-38
1.821721 0.263513 -0.245648 2.341805152028776e-38
1.823957 0.254775 -0.245836 2.341805152028776e-38
1.826151 0.246022 -0.246022 2.341805152028776e-38
1.827320 0.237126 -0.246074 2.341805152028776e-38
1.827463 0.228101 -0.245992 2.341805152028776e-38
1.827562 0.219081 -0.245908 2.341805152028776e-38
1.829585 0.210292 -0.246086 2.341805152028776e-38
1.831567 0.201488 -0.246263 2.341805152028776e-38
1.834492 0.192773 -0.246570 2.341805152028776e-38
1.835404 0.183837 -0.246611 2.341805152028776e-38
1.832325 0.174521 -0.246119 2.341805152028776e-38
1.832162 0.165507 -0.246023 2.341805152028776e-38
1.835904 0.156835 -0.246456 2.341805152028776e-38
1.835654 0.147814 -0.246356 2.341805152028776e-38
1.837336 0.138947 -0.246519 2.341805152028776e-38
1.839964 0.130138 -0.246814 2.341805152028776e-38
1.838594 0.121046 -0.246575 2.341805152028776e-38
1.840148 0.112151 -0.246733 2.341805152028776e-38
1.840669 0.103189 -0.246756 2.341805152028776e-38
1.840157 0.094173 -0.246645 2.341805152028776e-38
1.839601 0.085165 -0.246531 2.341805152028776e-38
1.839992 0.076206 -0.246549 2.341805152028776e-38
1.841330 0.067281 -0.246697 2.341805152028776e-38
1.843615 0.058376 -0.246976 2.341805152028776e-38
1.845857 0.049451 -0.247253 2.341805152028776e-38
1.847066 0.040483 -0.247395 2.341805152028776e-38
1.849222 0.031521 -0.247668 2.341805152028776e-38
1.846380 0.022480 -0.247276 2.341805152028776e-38
1.846467 0.013488 -0.247280 2.341805152028776e-38
1.846510 0.004496 -0.247282 2.341805152028776e-38
1.845519 -0.004494 -0.247149 2.341805152028776e-38
1.843493 -0.013466 -0.246882 2.341805152028776e-38
1.846380 -0.022480 -0.247276 2.341805152028776e-38
1.847240 -0.031488 -0.247403 2.341805152028776e-38
1.844093 -0.040418 -0.246997 2.341805152028776e-38
1.845857 -0.049451 -0.247253 2.341805152028776e-38
1.846587 -0.058470 -0.247374 2.341805152028776e-38
1.848263 -0.067534 -0.247626 2.341805152028776e-38
1.847914 -0.076534 -0.247610 2.341805152028776e-38
1.847522 -0.085532 -0.247593 2.341805152028776e-38
1.862924 -0.095339 -0.249696 2.341805152028776e-38
1.876295 -0.105186 -0.251532 2.341805152028776e-38
1.832302 0.460268 -0.259755 2.341805152028776e-38
1.811436 0.445606 -0.256561 2.341805152028776e-38
1.806845 0.435103 -0.255679 2.341805152028776e-38
1.804124 0.425111 -0.255067 2.341805152028776e-38
1.803271 0.415626 -0.254739 2.341805152028776e-38
1.807195 0.407271 -0.255104 2.341805152028776e-38
1.808177 0.398247 -0.255057 2.341805152028776e-38
1.810084 0.389432 -0.255145 2.341805152028776e-38
1.810979 0.380405 -0.255095 2.341805152028776e-38
1.812799 0.371576 -0.255179 2.341805152028776e-38
1.814576 0.362739 -0.255261 2.341805152028776e-38
1.818255 0.354273 -0.255614 2.341805152028776e-38
1.821895 0.345779 -0.255966 2.341805152028776e-38
1.822574 0.336718 -0.255905 2.341805152028776e-38
1.819307 0.326958 -0.255296 2.341805152028776e-38
1.818917 0.317749 -0.255094 2.341805152028776e-38
1.822387 0.309214 -0.255438 2.341805152028776e-38
1.824840 0.300492 -0.255643 2.341805152028776e-38
1.823338 0.291129 -0.255298 2.341805152028776e-38
1.823747 0.282091 -0.255225 2.341805152028776e-38
1.823132 0.272909 -0.255013 2.341805152028776e-38
1.824432 0.264023 -0.255073 2.341805152028776e-38
1.822745 0.254719 -0.254719 2.341805152028776e-38
1.824938 0.245968 -0.254912 2.341805152028776e-38
1.826108 0.237074 -0.254966 2.341805152028776e-38
1.828217 0.228297 -0.255155 2.341805152028776e-38
1.828317 0.219269 -0.255068 2.341805152028776e-38
1.830341 0.210472 -0.255253 2.341805152028776e-38
1.832323 0.201660 -0.255437 2.341805152028776e-38
1.833277 0.192731 -0.255481 2.341805152028776e-38
1.830246 0.183402 -0.254973 2.341805152028776e-38
1.831113 0.174483 -0.255013 2.341805152028776e-38
1.830949 0.165470 -0.254914 2.341805152028776e-38
1.833702 0.156717 -0.255224 2.341805152028776e-38
1.834439 0.147781 -0.255258 2.341805152028776e-38
1.836121 0.138917 -0.255428 2.341805152028776e-38
1.835784 0.129900 -0.255320 2.341805152028776e-38
1.837379 0.121020 -0.255486 2.341805152028776e-38
1.836955 0.112006 -0.255374 2.341805152028776e-38
1.838464 0.103111 -0.255536 2.341805152028776e-38
1.837952 0.094102 -0.255420 2.341805152028776e-38
1.837397 0.085101 -0.255303 2.341805152028776e-38
1.836798 0.076107 -0.255183 2.341805152028776e-38
1.841104 0.067302 -0.255749 2.341805152028776e-38
1.844378 0.058426 -0.256176 2.341805152028776e-38
1.846619 0.049493 -0.256463 2.341805152028776e-38
1.846837 0.040496 -0.256473 2.341805152028776e-38
1.848002 0.031515 -0.256618 2.341805152028776e-38
1.847142 0.022499 -0.256487 2.341805152028776e-38
1.845248 0.013485 -0.256216 2.341805152028776e-38
1.844301 0.004493 -0.256080 2.341805152028776e-38
1.843311 -0.004490 -0.255943 2.341805152028776e-38
1.842277 -0.013463 -0.255803 2.341805152028776e-38
1.845161 -0.022475 -0.256212 2.341805152028776e-38
1.842059 -0.031413 -0.255793 2.341805152028776e-38
1.842876 -0.040409 -0.255923 2.341805152028776e-38
1.844639 -0.049440 -0.256188 2.341805152028776e-38
1.846358 -0.058489 -0.256451 2.341805152028776e-38
1.847043 -0.067520 -0.256574 2.341805152028776e-38
1.847684 -0.076558 -0.256696 2.341805152028776e-38
1.845312 -0.085468 -0.256403 2.341805152028776e-38
1.854769 -0.094963 -0.257757 2.341805152028776e-38
1.872089 -0.104997 -0.260209 2.341805152028776e-38
1.855977 0.466464 -0.272489 2.341805152028776e-38
1.811125 0.445768 -0.265659 2.341805152028776e-38
1.805577 0.435031 -0.264606 2.341805152028776e-38
1.802858 0.425042 -0.263973 2.341805152028776e-38
1.804909 0.416203 -0.264043 2.341805152028776e-38
1.805938 0.407178 -0.263994 2.341805152028776e-38
1.809822 0.398796 -0.264370 2.341805152028776e-38
1.809795 0.389552 -0.264179 2.341805152028776e-38
1.811660 0.380725 -0.264268 2.341805152028776e-38
1.812512 0.371691 -0.264214 2.341805152028776e-38
1.818172 0.363627 -0.264864 2.341805152028776e-38
1.817968 0.354381 -0.264665 2.341805152028776e-38
1.818689 0.345331 -0.264604 2.341805152028776e-38
1.816446 0.335742 -0.264117 2.341805152028776e-38
1.817075 0.326708 -0.264052 2.341805152028776e-38
1.822536 0.318529 -0.264693 2.341805152028776e-38
1.821129 0.309144 -0.264340 2.341805152028776e-38
1.821627 0.300102 -0.264269 2.341805152028776e-38
1.822081 0.291063 -0.264196 2.341805152028776e-38
1.823468 0.282178 -0.264262 2.341805152028776e-38
1.821876 0.272847 -0.263901 2.341805152028776e-38
1.823175 0.263963 -0.263963 2.341805152028776e-38
1.821491 0.254662 -0.263597 2.341805152028776e-38
1.821721 0.245648 -0.263513 2.341805152028776e-38
1.824852 0.237020 -0.263853 2.341805152028776e-38
1.825978 0.228122 -0.263906 2.341805152028776e-38
1.828043 0.219337 -0.264100 2.341805152028776e-38
1.830067 0.210537 -0.264292 2.341805152028776e-38
1.831065 0.201615 -0.264339 2.341805152028776e-38
1.831035 0.192584 -0.264243 2.341805152028776e-38
1.829975 0.183459 -0.264002 2.341805152028776e-38
1.830842 0.174537 -0.264043 2.341805152028776e-38
1.830679 0.165522 -0.263940 2.341805152028776e-38
1.831459 0.156597 -0.263978 2.341805152028776e-38
1.832196 0.147668 -0.264013 2.341805152028776e-38
1.833876 0.138811 -0.264188 2.341805152028776e-38
1.832551 0.129731 -0.263935 2.341805152028776e-38
1.835133 0.120927 -0.264248 2.341805152028776e-38
1.838661 0.112162 -0.264702 2.341805152028776e-38
1.838194 0.103143 -0.264584 2.341805152028776e-38
1.838672 0.094182 -0.264607 2.341805152028776e-38
1.836139 0.085082 -0.264201 2.341805152028776e-38
1.837519 0.076172 -0.264362 2.341805152028776e-38
1.840833 0.067323 -0.264805 2.341805152028776e-38
1.841137 0.058350 -0.264820 2.341805152028776e-38
1.842388 0.049402 -0.264974 2.341805152028776e-38
1.845574 0.040487 -0.265412 2.341805152028776e-38
1.848717 0.031541 -0.265847 2.341805152028776e-38
1.844889 0.022482 -0.265284 2.341805152028776e-38
1.842007 0.013468 -0.264861 2.341805152028776e-38
1.842050 0.004489 -0.264863 2.341805152028776e-38
1.843040 -0.004492 -0.265005 2.341805152028776e-38
1.842996 -0.013475 -0.265003 2.341805152028776e-38
1.841920 -0.022445 -0.264857 2.341805152028776e-38
1.839810 -0.031389 -0.264566 2.341805152028776e-38
1.839636 -0.040356 -0.264558 2.341805152028776e-38
1.842388 -0.049402 -0.264974 2.341805152028776e-38
1.843116 -0.058413 -0.265104 2.341805152028776e-38
1.843801 -0.067432 -0.265232 2.341805152028776e-38
1.845430 -0.076500 -0.265500 2.341805152028776e-38
1.842072 -0.085357 -0.265054 2.341805152028776e-38
1.851522 -0.094840 -0.266456 2.341805152028776e-38
1.827323 -0.102533 -0.263019 2.341805152028776e-38
1.863261 0.468552 -0.282987 2.341805152028776e-38
1.811729 0.446162 -0.274908 2.341805152028776e-38
1.803303 0.434724 -0.273383 2.341805152028776e-38
1.803475 0.425424 -0.273167 2.341805152028776e-38
