VERSION .7
FIELDS x y z rgb
SIZE 4 4 4 4
TYPE F F F F
COUNT 1 1 1 1
WIDTH 957
HEIGHT 1
VIEWPOINT 0 0 0 1 0 0 0
POINTS 957
DATA ascii
0.992274 0.782089 -0.185632 2.341805152028776e-38
0.995327 0.774971 -0.185385 2.341805152028776e-38
1.000684 0.769656 -0.185569 2.341805152028776e-38
1.004391 0.763167 -0.185471 2.341805152028776e-38
1.009632 0.757858 -0.185660 2.341805152028776e-38
1.015640 0.753105 -0.185989 2.341805152028776e-38
1.021627 0.748308 -0.186313 2.341805152028776e-38
1.026791 0.742889 -0.186486 2.341805152028776e-38
1.030280 0.736334 -0.186375 2.341805152028776e-38
1.035329 0.730925 -0.186554 2.341805152028776e-38
1.041162 0.726050 -0.186874 2.341805152028776e-38
1.046159 0.720572 -0.187042 2.341805152028776e-38
1.051126 0.715061 -0.187205 2.341805152028776e-38
1.056038 0.709557 -0.187372 2.341805152028776e-38
1.060075 0.703506 -0.187397 2.341805152028776e-38
1.064077 0.697432 -0.187416 2.341805152028776e-38
1.068044 0.691338 -0.187429 2.341805152028776e-38
1.071977 0.685222 -0.187437 2.341805152028776e-38
1.075020 0.678584 -0.187301 2.341805152028776e-38
1.080512 0.673548 -0.187609 2.341805152028776e-38
1.085138 0.667954 -0.187766 2.341805152028776e-38
1.088891 0.661818 -0.187772 2.341805152028776e-38
1.092608 0.655662 -0.187772 2.341805152028776e-38
1.099688 0.651517 -0.188353 2.341805152028776e-38
1.103302 0.645374 -0.188363 2.341805152028776e-38
1.106882 0.639213 -0.188367 2.341805152028776e-38
1.110428 0.633034 -0.188366 2.341805152028776e-38
1.114801 0.627322 -0.188506 2.341805152028776e-38
1.119146 0.621582 -0.188639 2.341805152028776e-38
1.123419 0.615885 -0.188789 2.341805152028776e-38
1.127662 0.610163 -0.188934 2.341805152028776e-38
1.131003 0.603949 -0.188928 2.341805152028776e-38
1.134310 0.597718 -0.188916 2.341805152028776e-38
1.138461 0.591928 -0.189045 2.341805152028776e-38
1.142552 0.586164 -0.189185 2.341805152028776e-38
1.146603 0.580395 -0.189327 2.341805152028776e-38
1.150625 0.574601 -0.189463 2.341805152028776e-38
1.156393 0.569656 -0.189885 2.341805152028776e-38
1.161251 0.564234 -0.190156 2.341805152028776e-38
1.166959 0.559241 -0.190579 2.341805152028776e-38
1.171731 0.553821 -0.190865 2.341805152028776e-38
1.180065 0.550039 -0.191728 2.341805152028776e-38
1.179403 0.542053 -0.191129 2.341805152028776e-38
1.184998 0.536951 -0.191544 2.341805152028776e-38
1.193274 0.533030 -0.192395 2.341805152028776e-38
1.201513 0.529099 -0.193264 2.341805152028776e-38
1.225170 0.531794 -0.196603 2.341805152028776e-38
0.820978 0.950605 -0.187737 2.341805152028776e-38
0.825688 0.943863 -0.187582 2.341805152028776e-38
0.832313 0.939321 -0.187864 2.341805152028776e-38
0.836908 0.932546 -0.187701 2.341805152028776e-38
0.844071 0.928715 -0.188132 2.341805152028776e-38
0.849879 0.923377 -0.188261 2.341805152028776e-38
0.857002 0.919450 -0.188682 2.341805152028776e-38
0.860716 0.911875 -0.188354 2.341805152028776e-38
0.866401 0.906450 -0.188470 2.341805152028776e-38
0.872007 0.901034 -0.188589 2.341805152028776e-38
0.877578 0.895585 -0.188702 2.341805152028776e-38
0.881723 0.888698 -0.188512 2.341805152028776e-38
0.888619 0.884586 -0.188912 2.341805152028776e-38
0.896195 0.881126 -0.189457 2.341805152028776e-38
0.900872 0.874902 -0.189412 2.341805152028776e-38
0.906934 0.870024 -0.189659 2.341805152028776e-38
0.912970 0.865106 -0.189901 2.341805152028776e-38
0.919701 0.860823 -0.190287 2.341805152028776e-38
0.923509 0.853808 -0.190070 2.341805152028776e-38
0.927938 0.847507 -0.190010 2.341805152028776e-38
0.933059 0.841847 -0.190094 2.341805152028776e-38
0.939622 0.837473 -0.190472 2.341805152028776e-38
0.944682 0.831744 -0.190545 2.341805152028776e-38
0.947469 0.824039 -0.190163 2.341805152028776e-38
0.953145 0.818968 -0.190387 2.341805152028776e-38
0.960297 0.815144 -0.190907 2.341805152028776e-38
0.965923 0.809994 -0.191122 2.341805152028776e-38
0.969998 0.803546 -0.191032 2.341805152028776e-38
0.974796 0.797706 -0.191086 2.341805152028776e-38
0.981054 0.793132 -0.191446 2.341805152028776e-38
0.986507 0.787910 -0.191654 2.341805152028776e-38
0.991156 0.782040 -0.191706 2.341805152028776e-38
0.997330 0.777360 -0.192054 2.341805152028776e-38
0.998784 0.769016 -0.191494 2.341805152028776e-38
1.003288 0.763119 -0.191540 2.341805152028776e-38
1.009318 0.758410 -0.191887 2.341805152028776e-38
1.015328 0.753657 -0.192228 2.341805152028776e-38
1.020519 0.748277 -0.192414 2.341805152028776e-38
1.024080 0.741703 -0.192293 2.341805152028776e-38
1.029184 0.736297 -0.192476 2.341805152028776e-38
1.035040 0.731464 -0.192813 2.341805152028776e-38
1.039253 0.725457 -0.192843 2.341805152028776e-38
1.045059 0.720551 -0.193169 2.341805152028776e-38
1.048392 0.713933 -0.193038 2.341805152028776e-38
1.052489 0.707874 -0.193057 2.341805152028776e-38
1.057339 0.702389 -0.193234 2.341805152028776e-38
1.061335 0.696330 -0.193255 2.341805152028776e-38
1.066956 0.691326 -0.193571 2.341805152028776e-38
1.071721 0.685748 -0.193732 2.341805152028776e-38
1.074781 0.679092 -0.193587 2.341805152028776e-38
1.080274 0.674056 -0.193907 2.341805152028776e-38
1.082378 0.666908 -0.193618 2.341805152028776e-38
1.086969 0.661300 -0.193776 2.341805152028776e-38
1.091531 0.655664 -0.193929 2.341805152028776e-38
1.098616 0.651511 -0.194527 2.341805152028776e-38
1.101382 0.644867 -0.194386 2.341805152028776e-38
1.104959 0.638716 -0.194392 2.341805152028776e-38
1.108502 0.632547 -0.194392 2.341805152028776e-38
1.113733 0.627330 -0.194689 2.341805152028776e-38
1.117213 0.621116 -0.194678 2.341805152028776e-38
1.120629 0.614931 -0.194677 2.341805152028776e-38
1.123127 0.608283 -0.194527 2.341805152028776e-38
1.127330 0.602559 -0.194673 2.341805152028776e-38
1.132379 0.597271 -0.194964 2.341805152028776e-38
1.137403 0.591947 -0.195249 2.341805152028776e-38
1.140627 0.585714 -0.195238 2.341805152028776e-38
1.143793 0.579508 -0.195235 2.341805152028776e-38
1.148694 0.574170 -0.195528 2.341805152028776e-38
1.153571 0.568798 -0.195816 2.341805152028776e-38
1.156645 0.562527 -0.195797 2.341805152028776e-38
1.160571 0.556679 -0.195926 2.341805152028776e-38
1.167116 0.552137 -0.196523 2.341805152028776e-38
1.174540 0.547962 -0.197266 2.341805152028776e-38
1.177463 0.541658 -0.197251 2.341805152028776e-38
1.183053 0.536566 -0.197682 2.341805152028776e-38
1.194939 0.534257 -0.199161 2.341805152028776e-38
1.201377 0.529505 -0.199753 2.341805152028776e-38
1.214138 0.527473 -0.201399 2.341805152028776e-38
0.819769 0.950459 -0.193667 2.341805152028776e-38
0.823829 0.942979 -0.193355 2.341805152028776e-38
0.833722 0.942147 -0.194411 2.341805152028776e-38
0.842968 0.940501 -0.195312 2.341805152028776e-38
0.845529 0.931508 -0.194688 2.341805152028776e-38
0.848679 0.923248 -0.194211 2.341805152028776e-38
0.853107 0.916433 -0.194033 2.341805152028776e-38
0.860871 0.913195 -0.194615 2.341805152028776e-38
0.863849 0.904897 -0.194120 2.341805152028776e-38
0.869445 0.899495 -0.194243 2.341805152028776e-38
0.875698 0.894766 -0.194514 2.341805152028776e-38
0.882622 0.890697 -0.194934 2.341805152028776e-38
0.888829 0.885880 -0.195194 2.341805152028776e-38
0.893602 0.879634 -0.195141 2.341805152028776e-38
0.902525 0.877554 -0.196017 2.341805152028776e-38
0.905752 0.869926 -0.195658 2.341805152028776e-38
0.910353 0.863654 -0.195601 2.341805152028776e-38
0.916353 0.858710 -0.195846 2.341805152028776e-38
0.922327 0.853726 -0.196085 2.341805152028776e-38
0.928955 0.849419 -0.196485 2.341805152028776e-38
0.932621 0.842426 -0.196264 2.341805152028776e-38
0.937712 0.836737 -0.196346 2.341805152028776e-38
0.942767 0.831019 -0.196423 2.341805152028776e-38
0.947043 0.824622 -0.196339 2.341805152028776e-38
0.952735 0.819537 -0.196568 2.341805152028776e-38
0.959135 0.815074 -0.196951 2.341805152028776e-38
0.964759 0.809931 -0.197174 2.341805152028776e-38
0.969595 0.804119 -0.197237 2.341805152028776e-38
0.972868 0.797028 -0.196984 2.341805152028776e-38
0.978366 0.791826 -0.197198 2.341805152028776e-38
0.986125 0.788470 -0.197879 2.341805152028776e-38
0.990003 0.781989 -0.197779 2.341805152028776e-38
0.993838 0.775491 -0.197674 2.341805152028776e-38
0.995284 0.767167 -0.197098 2.341805152028776e-38
1.001363 0.762470 -0.197452 2.341805152028776e-38
1.008967 0.758959 -0.198122 2.341805152028776e-38
1.013392 0.753028 -0.198165 2.341805152028776e-38
1.016986 0.746489 -0.198048 2.341805152028776e-38
1.022937 0.741675 -0.198390 2.341805152028776e-38
1.028054 0.736257 -0.198575 2.341805152028776e-38
1.033101 0.730859 -0.198769 2.341805152028776e-38
1.038120 0.725429 -0.198957 2.341805152028776e-38
1.043111 0.719966 -0.199140 2.341805152028776e-38
1.044809 0.712246 -0.198695 2.341805152028776e-38
1.049729 0.706740 -0.198866 2.341805152028776e-38
1.053750 0.700723 -0.198895 2.341805152028776e-38
1.061039 0.696853 -0.199539 2.341805152028776e-38
1.065004 0.690775 -0.199557 2.341805152028776e-38
1.069765 0.685208 -0.199724 2.341805152028776e-38
1.073662 0.679083 -0.199730 2.341805152028776e-38
1.078325 0.673516 -0.199902 2.341805152028776e-38
1.081268 0.666897 -0.199762 2.341805152028776e-38
1.085014 0.660781 -0.199771 2.341805152028776e-38
1.088726 0.654646 -0.199775 2.341805152028776e-38
1.094103 0.649500 -0.200083 2.341805152028776e-38
1.098577 0.643858 -0.200243 2.341805152028776e-38
1.102148 0.637722 -0.200251 2.341805152028776e-38
1.106544 0.632058 -0.200409 2.341805152028776e-38
1.110049 0.625882 -0.200405 2.341805152028776e-38
1.115247 0.620648 -0.200707 2.341805152028776e-38
1.117809 0.613976 -0.200545 2.341805152028776e-38
1.120303 0.607342 -0.200392 2.341805152028776e-38
1.126242 0.602566 -0.200855 2.341805152028776e-38
1.129542 0.596360 -0.200847 2.341805152028776e-38
1.133683 0.590595 -0.200988 2.341805152028776e-38
1.137792 0.584810 -0.201125 2.341805152028776e-38
1.140953 0.578618 -0.201124 2.341805152028776e-38
1.145848 0.573296 -0.201428 2.341805152028776e-38
1.150718 0.567939 -0.201727 2.341805152028776e-38
1.155564 0.562548 -0.202020 2.341805152028776e-38
1.161276 0.557551 -0.202463 2.341805152028776e-38
1.165152 0.551721 -0.202609 2.341805152028776e-38
1.180626 0.551317 -0.204775 2.341805152028776e-38
1.177285 0.542088 -0.203675 2.341805152028776e-38
1.181975 0.536589 -0.203966 2.341805152028776e-38
1.191149 0.533074 -0.205029 2.341805152028776e-38
1.199399 0.529112 -0.205942 2.341805152028776e-38
1.207619 0.525120 -0.206866 2.341805152028776e-38
0.816588 0.948063 -0.199123 2.341805152028776e-38
0.823233 0.943577 -0.199431 2.341805152028776e-38
0.837702 0.947927 -0.201622 2.341805152028776e-38
0.843697 0.942565 -0.201763 2.341805152028776e-38
0.846942 0.934294 -0.201279 2.341805152028776e-38
0.850114 0.926023 -0.200788 2.341805152028776e-38
0.853216 0.917751 -0.200291 2.341805152028776e-38
0.856924 0.910197 -0.199945 2.341805152028776e-38
0.862616 0.904778 -0.200066 2.341805152028776e-38
0.868907 0.900083 -0.200351 2.341805152028776e-38
0.875163 0.895355 -0.200631 2.341805152028776e-38
0.880005 0.889181 -0.200590 2.341805152028776e-38
0.886202 0.884379 -0.200859 2.341805152028776e-38
0.895186 0.882307 -0.201756 2.341805152028776e-38
0.901305 0.877446 -0.202024 2.341805152028776e-38
0.903822 0.869140 -0.201496 2.341805152028776e-38
0.908419 0.862878 -0.201438 2.341805152028776e-38
0.914414 0.857944 -0.201692 2.341805152028776e-38
0.921106 0.853642 -0.202099 2.341805152028776e-38
0.925561 0.847326 -0.202031 2.341805152028776e-38
0.932146 0.843001 -0.202441 2.341805152028776e-38
0.938712 0.838629 -0.202845 2.341805152028776e-38
0.941558 0.830944 -0.202448 2.341805152028776e-38
0.945090 0.823904 -0.202204 2.341805152028776e-38
0.950791 0.818814 -0.202437 2.341805152028776e-38
0.957185 0.814362 -0.202834 2.341805152028776e-38
0.961292 0.807958 -0.202746 2.341805152028776e-38
0.965357 0.801535 -0.202652 2.341805152028776e-38
0.970907 0.796346 -0.202872 2.341805152028776e-38
0.975646 0.790518 -0.202930 2.341805152028776e-38
0.982623 0.786559 -0.203473 2.341805152028776e-38
0.988039 0.781322 -0.203691 2.341805152028776e-38
0.991872 0.774835 -0.203584 2.341805152028776e-38
0.994099 0.767125 -0.203152 2.341805152028776e-38
1.000975 0.763015 -0.203673 2.341805152028776e-38
1.003846 0.755942 -0.203406 2.341805152028776e-38
1.009838 0.751219 -0.203772 2.341805152028776e-38
1.015013 0.745869 -0.203972 2.341805152028776e-38
1.021758 0.741645 -0.204486 2.341805152028776e-38
1.025279 0.735068 -0.204355 2.341805152028776e-38
1.030322 0.729681 -0.204555 2.341805152028776e-38
1.037761 0.725963 -0.205230 2.341805152028776e-38
1.042754 0.720502 -0.205420 2.341805152028776e-38
1.044457 0.712783 -0.204963 2.341805152028776e-38
1.047744 0.706174 -0.204821 2.341805152028776e-38
1.052596 0.700696 -0.205007 2.341805152028776e-38
1.059057 0.696289 -0.205513 2.341805152028776e-38
1.063018 0.690221 -0.205533 2.341805152028776e-38
1.066113 0.683599 -0.205386 2.341805152028776e-38
1.071670 0.678550 -0.205714 2.341805152028776e-38
1.075505 0.672451 -0.205727 2.341805152028776e-38
1.078443 0.665847 -0.205584 2.341805152028776e-38
1.082184 0.659746 -0.205595 2.341805152028776e-38
1.086736 0.654135 -0.205761 2.341805152028776e-38
1.092107 0.649000 -0.206081 2.341805152028776e-38
1.095740 0.642847 -0.206080 2.341805152028776e-38
1.100161 0.637221 -0.206250 2.341805152028776e-38
1.101982 0.630098 -0.205934 2.341805152028776e-38
1.108056 0.625402 -0.206413 2.341805152028776e-38
1.112387 0.619699 -0.206566 2.341805152028776e-38
1.115823 0.613494 -0.206553 2.341805152028776e-38
1.119183 0.607341 -0.206558 2.341805152028776e-38
1.124249 0.602104 -0.206877 2.341805152028776e-38
1.127546 0.595910 -0.206870 2.341805152028776e-38
1.133435 0.591068 -0.207338 2.341805152028776e-38
1.137549 0.585279 -0.207480 2.341805152028776e-38
1.140724 0.579068 -0.207474 2.341805152028776e-38
1.143854 0.572862 -0.207469 2.341805152028776e-38
1.148720 0.567516 -0.207779 2.341805152028776e-38
1.152675 0.561703 -0.207923 2.341805152028776e-38
1.159269 0.557149 -0.208542 2.341805152028776e-38
1.165832 0.552571 -0.209165 2.341805152028776e-38
1.184876 0.553835 -0.212040 2.341805152028776e-38
1.179762 0.543756 -0.210588 2.341805152028776e-38
1.179966 0.536201 -0.210091 2.341805152028776e-38
1.182825 0.529872 -0.210068 2.341805152028776e-38
1.190165 0.525527 -0.210840 2.341805152028776e-38
1.195646 0.520402 -0.211315 2.341805152028776e-38
0.814019 0.946410 -0.204709 2.341805152028776e-38
0.818709 0.939706 -0.204542 2.341805152028776e-38
0.829875 0.940382 -0.205988 2.341805152028776e-38
0.837137 0.936539 -0.206458 2.341805152028776e-38
0.839701 0.927564 -0.205794 2.341805152028776e-38
0.844168 0.920793 -0.205614 2.341805152028776e-38
0.850598 0.916172 -0.205915 2.341805152028776e-38
0.858355 0.912946 -0.206535 2.341805152028776e-38
0.861343 0.904657 -0.206011 2.341805152028776e-38
0.867646 0.899955 -0.206302 2.341805152028776e-38
0.873900 0.895233 -0.206592 2.341805152028776e-38
0.879436 0.889767 -0.206714 2.341805152028776e-38
0.886333 0.885663 -0.207155 2.341805152028776e-38
0.891809 0.880123 -0.207265 2.341805152028776e-38
0.897222 0.874579 -0.207374 2.341805152028776e-38
0.902568 0.869034 -0.207486 2.341805152028776e-38
0.907166 0.862778 -0.207427 2.341805152028776e-38
0.913877 0.858526 -0.207854 2.341805152028776e-38
0.920571 0.854225 -0.208274 2.341805152028776e-38
0.926500 0.849229 -0.208530 2.341805152028776e-38
0.930900 0.842910 -0.208462 2.341805152028776e-38
0.933787 0.835256 -0.208060 2.341805152028776e-38
0.938095 0.828905 -0.207980 2.341805152028776e-38
0.943846 0.823832 -0.208221 2.341805152028776e-38
0.948813 0.818088 -0.208295 2.341805152028776e-38
0.953698 0.812366 -0.208376 2.341805152028776e-38
0.957795 0.805982 -0.208287 2.341805152028776e-38
0.961090 0.798948 -0.208028 2.341805152028776e-38
0.965861 0.793158 -0.208091 2.341805152028776e-38
0.972128 0.788585 -0.208476 2.341805152028776e-38
0.979861 0.785262 -0.209201 2.341805152028776e-38
0.985268 0.780041 -0.209427 2.341805152028776e-38
0.989094 0.773568 -0.209319 2.341805152028776e-38
0.992878 0.767080 -0.209204 2.341805152028776e-38
0.997404 0.761174 -0.209247 2.341805152028776e-38
1.002638 0.755891 -0.209464 2.341805152028776e-38
1.009418 0.751763 -0.210007 2.341805152028776e-38
1.014596 0.746414 -0.210215 2.341805152028776e-38
1.018149 0.739872 -0.210087 2.341805152028776e-38
1.024866 0.735617 -0.210612 2.341805152028776e-38
1.030731 0.730782 -0.210979 2.341805152028776e-38
1.035748 0.725363 -0.211182 2.341805152028776e-38
1.040737 0.719913 -0.211379 2.341805152028776e-38
1.042440 0.712205 -0.210910 2.341805152028776e-38
1.045724 0.705607 -0.210766 2.341805152028776e-38
1.050587 0.700119 -0.210953 2.341805152028776e-38
1.056217 0.695181 -0.211311 2.341805152028776e-38
1.061826 0.690203 -0.211662 2.341805152028776e-38
1.065752 0.684120 -0.211678 2.341805152028776e-38
1.068811 0.677489 -0.211524 2.341805152028776e-38
1.073491 0.671907 -0.211697 2.341805152028776e-38
1.078943 0.666868 -0.212046 2.341805152028776e-38
1.082690 0.660764 -0.212059 2.341805152028776e-38
1.085557 0.654132 -0.211902 2.341805152028776e-38
1.090927 0.649003 -0.212233 2.341805152028776e-38
1.094572 0.642837 -0.212228 2.341805152028776e-38
1.098141 0.636718 -0.212239 2.341805152028776e-38
1.102529 0.631075 -0.212411 2.341805152028776e-38
1.106029 0.624920 -0.212411 2.341805152028776e-38
1.109495 0.618747 -0.212406 2.341805152028776e-38
1.112927 0.612557 -0.212394 2.341805152028776e-38
1.118896 0.607809 -0.212888 2.341805152028776e-38
1.122224 0.601641 -0.212888 2.341805152028776e-38
1.129006 0.597302 -0.213543 2.341805152028776e-38
1.133151 0.591539 -0.213697 2.341805152028776e-38
1.136390 0.585299 -0.213681 2.341805152028776e-38
1.140459 0.579516 -0.213832 2.341805152028776e-38
1.140946 0.571985 -0.213335 2.341805152028776e-38
1.145806 0.566653 -0.213656 2.341805152028776e-38
1.149755 0.560856 -0.213807 2.341805152028776e-38
1.157230 0.556745 -0.214611 2.341805152028776e-38
1.165584 0.552996 -0.215575 2.341805152028776e-38
1.181935 0.553007 -0.218043 2.341805152028776e-38
1.176824 0.542943 -0.216550 2.341805152028776e-38
1.175231 0.534587 -0.215710 2.341805152028776e-38
1.176282 0.527476 -0.215360 2.341805152028776e-38
1.183605 0.523163 -0.216157 2.341805152028776e-38
1.186372 0.516863 -0.216143 2.341805152028776e-38
0.813345 0.946996 -0.210773 2.341805152028776e-38
0.816746 0.938807 -0.210269 2.341805152028776e-38
0.823987 0.935053 -0.210758 2.341805152028776e-38
0.830556 0.930510 -0.211074 2.341805152028776e-38
0.835747 0.924488 -0.211057 2.341805152028776e-38
0.843526 0.921376 -0.211708 2.341805152028776e-38
0.849958 0.916757 -0.212019 2.341805152028776e-38
0.853667 0.909220 -0.211654 2.341805152028776e-38
0.859353 0.903817 -0.211785 2.341805152028776e-38
0.865665 0.899112 -0.212083 2.341805152028776e-38
0.871912 0.894400 -0.212383 2.341805152028776e-38
0.877443 0.888945 -0.212509 2.341805152028776e-38
0.883636 0.884154 -0.212796 2.341805152028776e-38
0.887701 0.877243 -0.212574 2.341805152028776e-38
0.893110 0.871709 -0.212685 2.341805152028776e-38
0.897729 0.865503 -0.212632 2.341805152028776e-38
0.903020 0.859954 -0.212741 2.341805152028776e-38
0.914020 0.859778 -0.214190 2.341805152028776e-38
0.917109 0.852120 -0.213783 2.341805152028776e-38
0.917229 0.841796 -0.212696 2.341805152028776e-38
0.923046 0.836857 -0.212964 2.341805152028776e-38
0.931039 0.833852 -0.213731 2.341805152028776e-38
0.936077 0.828170 -0.213818 2.341805152028776e-38
0.941823 0.823107 -0.214068 2.341805152028776e-38
0.948288 0.818651 -0.214480 2.341805152028776e-38
0.950931 0.811007 -0.214058 2.341805152028776e-38
0.954267 0.804003 -0.213799 2.341805152028776e-38
0.959068 0.798250 -0.213871 2.341805152028776e-38
0.966119 0.794349 -0.214444 2.341805152028776e-38
0.970862 0.788528 -0.214504 2.341805152028776e-38
0.975529 0.782729 -0.214570 2.341805152028776e-38
0.979375 0.776307 -0.214466 2.341805152028776e-38
0.985508 0.771691 -0.214863 2.341805152028776e-38
0.990841 0.766429 -0.215085 2.341805152028776e-38
0.996930 0.761730 -0.215470 2.341805152028776e-38
1.001394 0.755837 -0.215520 2.341805152028776e-38
1.005801 0.749948 -0.215572 2.341805152028776e-38
1.009380 0.743450 -0.215449 2.341805152028776e-38
1.017699 0.740417 -0.216336 2.341805152028776e-38
1.024416 0.736163 -0.216878 2.341805152028776e-38
1.027886 0.729599 -0.216743 2.341805152028776e-38
1.032088 0.723630 -0.216784 2.341805152028776e-38
1.037066 0.718199 -0.216988 2.341805152028776e-38
1.040389 0.711624 -0.216847 2.341805152028776e-38
1.044487 0.705589 -0.216869 2.341805152028776e-38
1.050184 0.700634 -0.217227 2.341805152028776e-38
1.054993 0.695155 -0.217427 2.341805152028776e-38
1.058121 0.688570 -0.217282 2.341805152028776e-38
1.062867 0.683040 -0.217470 2.341805152028776e-38
1.067585 0.677481 -0.217652 2.341805152028776e-38
1.072273 0.671891 -0.217828 2.341805152028776e-38
1.075215 0.665295 -0.217677 2.341805152028776e-38
1.078953 0.659211 -0.217693 2.341805152028776e-38
1.082656 0.653108 -0.217703 2.341805152028776e-38
1.088018 0.647995 -0.218046 2.341805152028776e-38
1.092508 0.642344 -0.218213 2.341805152028776e-38
1.096941 0.636708 -0.218388 2.341805152028776e-38
1.099617 0.630091 -0.218227 2.341805152028776e-38
1.103970 0.624436 -0.218399 2.341805152028776e-38
1.108294 0.618755 -0.218565 2.341805152028776e-38
1.111726 0.612571 -0.218555 2.341805152028776e-38
1.115975 0.606863 -0.218717 2.341805152028776e-38
1.121035 0.601642 -0.219059 2.341805152028776e-38
1.126072 0.596386 -0.219396 2.341805152028776e-38
1.130211 0.590639 -0.219557 2.341805152028776e-38
1.133445 0.584415 -0.219542 2.341805152028776e-38
1.136644 0.578175 -0.219521 2.341805152028776e-38
1.138008 0.571105 -0.219181 2.341805152028776e-38
1.142861 0.565789 -0.219514 2.341805152028776e-38
1.150347 0.561737 -0.220350 2.341805152028776e-38
1.154271 0.555912 -0.220501 2.341805152028776e-38
1.159945 0.550909 -0.220986 2.341805152028776e-38
1.170931 0.548415 -0.222500 2.341805152028776e-38
1.172067 0.541302 -0.222153 2.341805152028776e-38
1.172263 0.533787 -0.221631 2.341805152028776e-38
1.176009 0.527902 -0.221781 2.341805152028776e-38
1.185132 0.524388 -0.222943 2.341805152028776e-38
1.182501 0.515686 -0.221901 2.341805152028776e-38
0.811348 0.946080 -0.216501 2.341805152028776e-38
0.816686 0.940133 -0.216497 2.341805152028776e-38
0.823282 0.935637 -0.216830 2.341805152028776e-38
0.831166 0.932567 -0.217500 2.341805152028776e-38
0.835725 0.925796 -0.217309 2.341805152028776e-38
0.838856 0.917591 -0.216777 2.341805152028776e-38
0.844594 0.912276 -0.216926 2.341805152028776e-38
0.848952 0.905490 -0.216724 2.341805152028776e-38
0.854614 0.900114 -0.216859 2.341805152028776e-38
0.862283 0.896844 -0.217507 2.341805152028776e-38
0.869203 0.892857 -0.217988 2.341805152028776e-38
0.875415 0.888118 -0.218292 2.341805152028776e-38
0.881602 0.883338 -0.218589 2.341805152028776e-38
0.885664 0.876438 -0.218362 2.341805152028776e-38
0.891082 0.870900 -0.218473 2.341805152028776e-38
0.893572 0.862652 -0.217902 2.341805152028776e-38
0.905261 0.863245 -0.219571 2.341805152028776e-38
0.911971 0.859000 -0.220025 2.341805152028776e-38
0.909290 0.845986 -0.218222 2.341805152028776e-38
0.915186 0.841036 -0.218490 2.341805152028776e-38
0.923195 0.838082 -0.219283 2.341805152028776e-38
0.929725 0.833760 -0.219727 2.341805152028776e-38
0.934763 0.828084 -0.219819 2.341805152028776e-38
0.941989 0.824324 -0.220424 2.341805152028776e-38
0.946224 0.817933 -0.220329 2.341805152028776e-38
0.949631 0.810924 -0.220065 2.341805152028776e-38
0.954473 0.805196 -0.220147 2.341805152028776e-38
0.961551 0.801332 -0.220744 2.341805152028776e-38
0.965576 0.794910 -0.220640 2.341805152028776e-38
0.968794 0.787849 -0.220356 2.341805152028776e-38
0.973472 0.782042 -0.220421 2.341805152028776e-38
0.980401 0.778080 -0.221011 2.341805152028776e-38
0.986543 0.773457 -0.221421 2.341805152028776e-38
0.991106 0.767584 -0.221477 2.341805152028776e-38
0.995635 0.761686 -0.221526 2.341805152028776e-38
1.000115 0.755780 -0.221574 2.341805152028776e-38
1.004522 0.749897 -0.221630 2.341805152028776e-38
1.010479 0.745159 -0.222027 2.341805152028776e-38
1.018007 0.741538 -0.222767 2.341805152028776e-38
1.021530 0.734980 -0.222629 2.341805152028776e-38
1.025009 0.728412 -0.222486 2.341805152028776e-38
1.030817 0.723590 -0.222878 2.341805152028776e-38
1.036603 0.718727 -0.223264 2.341805152028776e-38
1.040742 0.712710 -0.223295 2.341805152028776e-38
1.046478 0.707775 -0.223669 2.341805152028776e-38
1.049735 0.701158 -0.223513 2.341805152028776e-38
1.053733 0.695126 -0.223543 2.341805152028776e-38
1.056862 0.688547 -0.223395 2.341805152028776e-38
1.060779 0.682491 -0.223416 2.341805152028776e-38
1.065492 0.676942 -0.223605 2.341805152028776e-38
1.070177 0.671364 -0.223788 2.341805152028776e-38
1.073132 0.664757 -0.223628 2.341805152028776e-38
1.076867 0.658683 -0.223646 2.341805152028776e-38
1.080567 0.652591 -0.223658 2.341805152028776e-38
1.085079 0.646985 -0.223838 2.341805152028776e-38
1.089562 0.641350 -0.224012 2.341805152028776e-38
1.094003 0.635706 -0.224186 2.341805152028776e-38
1.097530 0.629594 -0.224197 2.341805152028776e-38
1.102736 0.624436 -0.224551 2.341805152028776e-38
1.106199 0.618280 -0.224549 2.341805152028776e-38
1.110490 0.612583 -0.224716 2.341805152028776e-38
1.114753 0.606859 -0.224877 2.341805152028776e-38
1.119813 0.601641 -0.225230 2.341805152028776e-38
1.123977 0.595930 -0.225404 2.341805152028776e-38
1.127240 0.589737 -0.225397 2.341805152028776e-38
1.130469 0.583528 -0.225384 2.341805152028776e-38
1.132787 0.576858 -0.225190 2.341805152028776e-38
1.138560 0.571991 -0.225705 2.341805152028776e-38
1.142534 0.566234 -0.225875 2.341805152028776e-38
1.148248 0.561319 -0.226388 2.341805152028776e-38
1.150395 0.554649 -0.226198 2.341805152028776e-38
1.156949 0.550090 -0.226873 2.341805152028776e-38
1.165263 0.546328 -0.227897 2.341805152028776e-38
1.178902 0.545030 -0.229984 2.341805152028776e-38
1.174641 0.535436 -0.228578 2.341805152028776e-38
1.177497 0.529134 -0.228561 2.341805152028776e-38
1.183920 0.524415 -0.229235 2.341805152028776e-38
1.175886 0.513341 -0.227115 2.341805152028776e-38
0.808676 0.944410 -0.222040 2.341805152028776e-38
0.815939 0.940709 -0.222565 2.341805152028776e-38
0.823188 0.936955 -0.223084 2.341805152028776e-38
0.829113 0.931677 -0.223245 2.341805152028776e-38
0.832366 0.923441 -0.222695 2.341805152028776e-38
0.838805 0.918890 -0.223032 2.341805152028776e-38
0.843883 0.912851 -0.223009 2.341805152028776e-38
0.848920 0.906785 -0.222980 2.341805152028776e-38
0.855267 0.902122 -0.223298 2.341805152028776e-38
0.862272 0.898127 -0.223786 2.341805152028776e-38
0.870576 0.895543 -0.224635 2.341805152028776e-38
0.877495 0.891495 -0.225125 2.341805152028776e-38
0.881617 0.884608 -0.224900 2.341805152028776e-38
0.884990 0.877013 -0.224492 2.341805152028776e-38
0.889709 0.870789 -0.224430 2.341805152028776e-38
0.892925 0.863217 -0.224018 2.341805152028776e-38
0.902472 0.861772 -0.225202 2.341805152028776e-38
0.909888 0.858218 -0.225847 2.341805152028776e-38
0.910094 0.847899 -0.224708 2.341805152028776e-38
0.916724 0.843608 -0.225162 2.341805152028776e-38
0.921847 0.837980 -0.225263 2.341805152028776e-38
0.929107 0.834321 -0.225899 2.341805152028776e-38
0.936356 0.830605 -0.226529 2.341805152028776e-38
0.940635 0.824241 -0.226440 2.341805152028776e-38
0.944870 0.817856 -0.226344 2.341805152028776e-38
0.949042 0.811476 -0.226248 2.341805152028776e-38
0.953888 0.805749 -0.226334 2.341805152028776e-38
0.957188 0.798735 -0.226057 2.341805152028776e-38
0.963476 0.794215 -0.226487 2.341805152028776e-38
0.968218 0.788408 -0.226554 2.341805152028776e-38
0.974449 0.783819 -0.226975 2.341805152028776e-38
0.979074 0.778013 -0.227047 2.341805152028776e-38
0.983665 0.772181 -0.227112 2.341805152028776e-38
0.986667 0.765118 -0.226814 2.341805152028776e-38
0.990400 0.758647 -0.226687 2.341805152028776e-38
0.994091 0.752160 -0.226554 2.341805152028776e-38
1.000842 0.748076 -0.227149 2.341805152028776e-38
1.006787 0.743358 -0.227559 2.341805152028776e-38
1.013505 0.739178 -0.228141 2.341805152028776e-38
1.017016 0.732645 -0.228002 2.341805152028776e-38
1.024494 0.728951 -0.228750 2.341805152028776e-38
1.028705 0.722982 -0.228792 2.341805152028776e-38
1.034486 0.718130 -0.229190 2.341805152028776e-38
1.037810 0.711568 -0.229046 2.341805152028776e-38
1.042723 0.706097 -0.229252 2.341805152028776e-38
1.047607 0.700595 -0.229452 2.341805152028776e-38
1.051617 0.694552 -0.229477 2.341805152028776e-38
1.055568 0.688522 -0.229507 2.341805152028776e-38
1.059485 0.682472 -0.229531 2.341805152028776e-38
1.064197 0.676930 -0.229727 2.341805152028776e-38
1.069714 0.671881 -0.230096 2.341805152028776e-38
1.071017 0.664216 -0.229568 2.341805152028776e-38
1.073910 0.657639 -0.229409 2.341805152028776e-38
1.077604 0.651563 -0.229424 2.341805152028776e-38
1.083798 0.646981 -0.229969 2.341805152028776e-38
1.087433 0.640853 -0.229971 2.341805152028776e-38
1.092733 0.635697 -0.230325 2.341805152028776e-38
1.096263 0.629585 -0.230336 2.341805152028776e-38
1.100611 0.623948 -0.230522 2.341805152028776e-38
1.103213 0.617322 -0.230344 2.341805152028776e-38
1.107498 0.611641 -0.230518 2.341805152028776e-38
1.112618 0.606405 -0.230865 2.341805152028776e-38
1.117690 0.601172 -0.231220 2.341805152028776e-38
1.120113 0.594549 -0.231042 2.341805152028776e-38
1.125111 0.589289 -0.231396 2.341805152028776e-38
1.130086 0.583995 -0.231744 2.341805152028776e-38
1.133283 0.577773 -0.231727 2.341805152028776e-38
1.136438 0.571549 -0.231709 2.341805152028776e-38
1.142171 0.566678 -0.232245 2.341805152028776e-38
1.145234 0.560466 -0.232237 2.341805152028776e-38
1.148263 0.554240 -0.232223 2.341805152028776e-38
1.154811 0.549691 -0.232920 2.341805152028776e-38
1.168468 0.548435 -0.235043 2.341805152028776e-38
1.175866 0.544211 -0.235930 2.341805152028776e-38
1.176083 0.536674 -0.235383 2.341805152028776e-38
1.177151 0.529556 -0.235010 2.341805152028776e-38
1.181774 0.524041 -0.235348 2.341805152028776e-38
1.167439 0.510220 -0.231918 2.341805152028776e-38
0.810445 0.947969 -0.228820 2.341805152028776e-38
0.816440 0.942766 -0.229000 2.341805152028776e-38
0.822403 0.937527 -0.229173 2.341805152028776e-38
0.827678 0.931517 -0.229159 2.341805152028776e-38
0.832911 0.925479 -0.229138 2.341805152028776e-38
0.839375 0.920911 -0.229483 2.341805152028776e-38
0.844467 0.914865 -0.229461 2.341805152028776e-38
0.848846 0.908075 -0.229252 2.341805152028776e-38
0.854524 0.902696 -0.229398 2.341805152028776e-38
0.860850 0.897993 -0.229719 2.341805152028776e-38
0.870534 0.896812 -0.230952 2.341805152028776e-38
0.876080 0.891359 -0.231093 2.341805152028776e-38
0.882285 0.886570 -0.231410 2.341805152028776e-38
0.884975 0.878277 -0.230810 2.341805152028776e-38
0.889001 0.871363 -0.230567 2.341805152028776e-38
0.892946 0.864462 -0.230324 2.341805152028776e-38
0.898941 0.859616 -0.230629 2.341805152028776e-38
0.905625 0.855406 -0.231110 2.341805152028776e-38
0.909416 0.848465 -0.230855 2.341805152028776e-38
0.914602 0.842844 -0.230957 2.341805152028776e-38
0.920463 0.837873 -0.231241 2.341805152028776e-38
0.926988 0.833562 -0.231712 2.341805152028776e-38
0.934230 0.829858 -0.232360 2.341805152028776e-38
0.939983 0.824801 -0.232636 2.341805152028776e-38
0.943480 0.817775 -0.232357 2.341805152028776e-38
0.946174 0.810105 -0.231889 2.341805152028776e-38
0.951012 0.804395 -0.231979 2.341805152028776e-38
0.956570 0.799287 -0.232246 2.341805152028776e-38
0.962859 0.794769 -0.232689 2.341805152028776e-38
0.967605 0.788964 -0.232760 2.341805152028776e-38
0.972315 0.783132 -0.232823 2.341805152028776e-38
0.977712 0.777943 -0.233080 2.341805152028776e-38
0.981529 0.771510 -0.232966 2.341805152028776e-38
0.982976 0.763252 -0.232294 2.341805152028776e-38
0.989819 0.759194 -0.232900 2.341805152028776e-38
1.002134 0.759239 -0.234785 2.341805152028776e-38
1.008152 0.754498 -0.235208 2.341805152028776e-38
1.006228 0.743892 -0.233795 2.341805152028776e-38
1.010565 0.737974 -0.233844 2.341805152028776e-38
1.017258 0.733758 -0.234437 2.341805152028776e-38
1.021536 0.727780 -0.234473 2.341805152028776e-38
1.024953 0.721240 -0.234327 2.341805152028776e-38
1.029107 0.715286 -0.234370 2.341805152028776e-38
1.034037 0.709867 -0.234591 2.341805152028776e-38
1.038939 0.704416 -0.234805 2.341805152028776e-38
1.044629 0.699482 -0.235197 2.341805152028776e-38
1.047829 0.692891 -0.235033 2.341805152028776e-38
1.053417 0.687957 -0.235434 2.341805152028776e-38
1.058156 0.682450 -0.235644 2.341805152028776e-38
1.062038 0.676386 -0.235664 2.341805152028776e-38
1.065885 0.670303 -0.235677 2.341805152028776e-38
1.068028 0.663162 -0.235316 2.341805152028776e-38
1.075112 0.659162 -0.236072 2.341805152028776e-38
1.087223 0.658168 -0.237929 2.341805152028776e-38
1.090077 0.651513 -0.237756 2.341805152028776e-38
1.088657 0.642352 -0.236656 2.341805152028776e-38
1.089717 0.634714 -0.236101 2.341805152028776e-38
1.092406 0.628104 -0.235922 2.341805152028776e-38
1.096745 0.622487 -0.236116 2.341805152028776e-38
1.101912 0.617323 -0.236487 2.341805152028776e-38
1.106196 0.611649 -0.236668 2.341805152028776e-38
1.109589 0.605477 -0.236658 2.341805152028776e-38
1.112073 0.598836 -0.236463 2.341805152028776e-38
1.118824 0.594549 -0.237203 2.341805152028776e-38
1.122950 0.588839 -0.237385 2.341805152028776e-38
1.126174 0.582653 -0.237377 2.341805152028776e-38
1.130240 0.576898 -0.237546 2.341805152028776e-38
1.134276 0.571119 -0.237709 2.341805152028776e-38
1.138251 0.565370 -0.237888 2.341805152028776e-38
1.142190 0.559610 -0.238066 2.341805152028776e-38
1.146984 0.554255 -0.238423 2.341805152028776e-38
1.150866 0.548445 -0.238589 2.341805152028776e-38
1.163615 0.546791 -0.240588 2.341805152028776e-38
1.176367 0.545042 -0.242591 2.341805152028776e-38
1.175698 0.537093 -0.241849 2.341805152028776e-38
1.173185 0.528362 -0.240733 2.341805152028776e-38
1.176901 0.522468 -0.240899 2.341805152028776e-38
1.166179 0.510248 -0.238116 2.341805152028776e-38
0.806423 0.944792 -0.233977 2.341805152028776e-38
0.813041 0.940356 -0.234348 2.341805152028776e-38
0.820931 0.937354 -0.235083 2.341805152028776e-38
0.826206 0.931351 -0.235069 2.341805152028776e-38
0.831439 0.925320 -0.235049 2.341805152028776e-38
0.838578 0.921471 -0.235587 2.341805152028776e-38
0.842344 0.913983 -0.235194 2.341805152028776e-38
0.846048 0.906486 -0.234795 2.341805152028776e-38
0.851042 0.900409 -0.234760 2.341805152028776e-38
0.858031 0.896435 -0.235277 2.341805152028776e-38
0.866348 0.893843 -0.236166 2.341805152028776e-38
0.871875 0.888414 -0.236312 2.341805152028776e-38
0.877369 0.882952 -0.236451 2.341805152028776e-38
0.881434 0.876072 -0.236211 2.341805152028776e-38
0.885449 0.869178 -0.235963 2.341805152028776e-38
0.889400 0.862282 -0.235710 2.341805152028776e-38
0.896090 0.858135 -0.236212 2.341805152028776e-38
0.902762 0.853941 -0.236706 2.341805152028776e-38
0.907264 0.847686 -0.236633 2.341805152028776e-38
0.911002 0.840744 -0.236366 2.341805152028776e-38
0.917591 0.836438 -0.236841 2.341805152028776e-38
0.926295 0.834115 -0.237888 2.341805152028776e-38
0.932069 0.829107 -0.238180 2.341805152028776e-38
0.936340 0.822764 -0.238089 2.341805152028776e-38
0.941311 0.817046 -0.238180 2.341805152028776e-38
0.946247 0.811300 -0.238263 2.341805152028776e-38
0.950353 0.804941 -0.238166 2.341805152028776e-38
0.955913 0.799835 -0.238441 2.341805152028776e-38
0.961446 0.794694 -0.238710 2.341805152028776e-38
0.966952 0.789517 -0.238972 2.341805152028776e-38
0.971666 0.783687 -0.239040 2.341805152028776e-38
0.975545 0.777256 -0.238923 2.341805152028776e-38
0.979360 0.770835 -0.238808 2.341805152028776e-38
0.983908 0.765000 -0.238874 2.341805152028776e-38
0.999327 0.767515 -0.241569 2.341805152028776e-38
1.010897 0.766908 -0.243316 2.341805152028776e-38
1.006758 0.754437 -0.241298 2.341805152028776e-38
1.006420 0.745006 -0.240227 2.341805152028776e-38
1.009971 0.738506 -0.240091 2.341805152028776e-38
1.015072 0.733142 -0.240325 2.341805152028776e-38
1.018547 0.726605 -0.240175 2.341805152028776e-38
1.021974 0.720061 -0.240020 2.341805152028776e-38
1.027734 0.715245 -0.240444 2.341805152028776e-38
1.031044 0.708719 -0.240295 2.341805152028776e-38
1.036750 0.703836 -0.240706 2.341805152028776e-38
1.040804 0.697819 -0.240732 2.341805152028776e-38
1.045641 0.692324 -0.240941 2.341805152028776e-38
1.051232 0.687388 -0.241350 2.341805152028776e-38
1.058442 0.683491 -0.242134 2.341805152028776e-38
1.060674 0.676369 -0.241779 2.341805152028776e-38
1.063690 0.669768 -0.241606 2.341805152028776e-38
1.065832 0.662640 -0.241237 2.341805152028776e-38
1.083805 0.665305 -0.244461 2.341805152028776e-38
1.097620 0.665278 -0.246746 2.341805152028776e-38
1.093773 0.654530 -0.245061 2.341805152028776e-38
1.083922 0.640352 -0.242047 2.341805152028776e-38
1.084126 0.632245 -0.241292 2.341805152028776e-38
1.090223 0.627600 -0.241856 2.341805152028776e-38
1.095411 0.622479 -0.242245 2.341805152028776e-38
1.099720 0.616842 -0.242440 2.341805152028776e-38
1.102283 0.610227 -0.242251 2.341805152028776e-38
1.105667 0.604076 -0.242244 2.341805152028776e-38
1.109881 0.598375 -0.242419 2.341805152028776e-38
1.114034 0.592702 -0.242608 2.341805152028776e-38
1.119887 0.587930 -0.243175 2.341805152028776e-38
1.121363 0.580856 -0.242792 2.341805152028776e-38
1.122794 0.573787 -0.242402 2.341805152028776e-38
1.126812 0.568048 -0.242572 2.341805152028776e-38
1.134304 0.564059 -0.243501 2.341805152028776e-38
1.139116 0.558753 -0.243875 2.341805152028776e-38
1.143903 0.553413 -0.244244 2.341805152028776e-38
1.148666 0.548041 -0.244606 2.341805152028776e-38
1.158736 0.545145 -0.246094 2.341805152028776e-38
1.175936 0.545465 -0.249085 2.341805152028776e-38
1.172597 0.536284 -0.247757 2.341805152028776e-38
1.170086 0.527569 -0.246615 2.341805152028776e-38
1.172002 0.520893 -0.246411 2.341805152028776e-38
1.160387 0.508304 -0.243370 2.341805152028776e-38
0.801100 0.940117 -0.238713 2.341805152028776e-38
0.809612 0.937942 -0.239663 2.341805152028776e-38
0.817482 0.934958 -0.240418 2.341805152028776e-38
0.821442 0.927504 -0.240025 2.341805152028776e-38
0.827963 0.922963 -0.240386 2.341805152028776e-38
0.835102 0.919120 -0.240934 2.341805152028776e-38
0.840185 0.913096 -0.240915 2.341805152028776e-38
0.846565 0.908483 -0.241269 2.341805152028776e-38
0.851572 0.902400 -0.241236 2.341805152028776e-38
0.857215 0.897001 -0.241386 2.341805152028776e-38
0.862817 0.891575 -0.241530 2.341805152028776e-38
0.867643 0.885464 -0.241490 2.341805152028776e-38
0.873810 0.880723 -0.241826 2.341805152028776e-38
0.879255 0.875249 -0.241963 2.341805152028776e-38
0.884667 0.869742 -0.242093 2.341805152028776e-38
0.890044 0.864204 -0.242216 2.341805152028776e-38
0.895331 0.858688 -0.242348 2.341805152028776e-38
0.898443 0.851121 -0.241898 2.341805152028776e-38
0.905078 0.846903 -0.242400 2.341805152028776e-38
0.912417 0.843303 -0.243087 2.341805152028776e-38
0.917571 0.837661 -0.243192 2.341805152028776e-38
0.922648 0.832034 -0.243302 2.341805152028776e-38
0.927676 0.826393 -0.243410 2.341805152028776e-38
0.932669 0.820724 -0.243511 2.341805152028776e-38
0.937627 0.815026 -0.243606 2.341805152028776e-38
0.942551 0.809300 -0.243693 2.341805152028776e-38
0.950405 0.806117 -0.244552 2.341805152028776e-38
0.955971 0.801009 -0.244837 2.341805152028776e-38
0.960754 0.795240 -0.244922 2.341805152028776e-38
0.965502 0.789444 -0.245000 2.341805152028776e-38
0.970216 0.783621 -0.245071 2.341805152028776e-38
0.974112 0.777179 -0.244947 2.341805152028776e-38
0.979469 0.771978 -0.245217 2.341805152028776e-38
0.984024 0.766141 -0.245286 2.341805152028776e-38
0.997878 0.767457 -0.247666 2.341805152028776e-38
1.000062 0.759735 -0.247143 2.341805152028776e-38
1.000619 0.750839 -0.246227 2.341805152028776e-38
1.003420 0.743780 -0.245903 2.341805152028776e-38
1.006964 0.737296 -0.245765 2.341805152028776e-38
1.011263 0.731373 -0.245814 2.341805152028776e-38
1.015526 0.725428 -0.245856 2.341805152028776e-38
1.020557 0.720025 -0.246084 2.341805152028776e-38
1.024716 0.714078 -0.246129 2.341805152028776e-38
1.029637 0.708681 -0.246365 2.341805152028776e-38
1.035341 0.703805 -0.246789 2.341805152028776e-38
1.038579 0.697248 -0.246625 2.341805152028776e-38
1.045047 0.692848 -0.247228 2.341805152028776e-38
1.052298 0.688966 -0.248028 2.341805152028776e-38
1.055394 0.682398 -0.247867 2.341805152028776e-38
1.057621 0.675292 -0.247505 2.341805152028776e-38
1.062292 0.669754 -0.247717 2.341805152028776e-38
1.066102 0.663670 -0.247729 2.341805152028776e-38
1.079900 0.663739 -0.250060 2.341805152028776e-38
1.084468 0.658134 -0.250276 2.341805152028776e-38
1.076383 0.644937 -0.247583 2.341805152028776e-38
1.078317 0.637850 -0.247205 2.341805152028776e-38
1.083594 0.632742 -0.247595 2.341805152028776e-38
1.087997 0.627108 -0.247784 2.341805152028776e-38
1.092339 0.621498 -0.247987 2.341805152028776e-38
1.095786 0.615396 -0.247996 2.341805152028776e-38
1.100057 0.609754 -0.248191 2.341805152028776e-38
1.105160 0.604556 -0.248574 2.341805152028776e-38
1.110239 0.599323 -0.248950 2.341805152028776e-38
1.113547 0.593158 -0.248942 2.341805152028776e-38
1.117664 0.587475 -0.249139 2.341805152028776e-38
1.116526 0.579057 -0.248167 2.341805152028776e-38
1.124936 0.575589 -0.249319 2.341805152028776e-38
1.135970 0.573374 -0.251045 2.341805152028776e-38
1.140865 0.567997 -0.251409 2.341805152028776e-38
1.140415 0.560055 -0.250632 2.341805152028776e-38
1.143442 0.553852 -0.250626 2.341805152028776e-38
1.146435 0.547636 -0.250613 2.341805152028776e-38
1.165370 0.548932 -0.254077 2.341805152028776e-38
1.171896 0.544256 -0.254825 2.341805152028776e-38
1.170359 0.535882 -0.253839 2.341805152028776e-38
1.167852 0.527177 -0.252671 2.341805152028776e-38
1.167974 0.519714 -0.252077 2.341805152028776e-38
0.803381 0.944402 -0.245722 2.341805152028776e-38
0.807433 0.937008 -0.245336 2.341805152028776e-38
0.812714 0.931079 -0.245332 2.341805152028776e-38
0.818602 0.925858 -0.245515 2.341805152028776e-38
0.825112 0.921332 -0.245886 2.341805152028776e-38
0.833572 0.918942 -0.246836 2.341805152028776e-38
0.838656 0.912926 -0.246817 2.341805152028776e-38
0.843697 0.906884 -0.246791 2.341805152028776e-38
0.848696 0.900816 -0.246758 2.341805152028776e-38
0.853652 0.894723 -0.246718 2.341805152028776e-38
0.856521 0.886490 -0.246082 2.341805152028776e-38
0.862698 0.881809 -0.246431 2.341805152028776e-38
0.870911 0.879186 -0.247364 2.341805152028776e-38
0.877736 0.875112 -0.247899 2.341805152028776e-38
0.882448 0.868925 -0.247838 2.341805152028776e-38
0.886415 0.862031 -0.247573 2.341805152028776e-38
0.892412 0.857198 -0.247901 2.341805152028776e-38
0.898364 0.852347 -0.248227 2.341805152028776e-38
0.905004 0.848126 -0.248744 2.341805152028776e-38
0.910188 0.842526 -0.248860 2.341805152028776e-38
0.916062 0.837558 -0.249166 2.341805152028776e-38
0.919700 0.830606 -0.248882 2.341805152028776e-38
0.922524 0.823023 -0.248403 2.341805152028776e-38
0.927497 0.817383 -0.248508 2.341805152028776e-38
0.933914 0.813002 -0.249001 2.341805152028776e-38
0.941056 0.809215 -0.249683 2.341805152028776e-38
0.948921 0.806020 -0.250560 2.341805152028776e-38
0.952983 0.799659 -0.250459 2.341805152028776e-38
0.957004 0.793280 -0.250351 2.341805152028776e-38
0.962499 0.788125 -0.250630 2.341805152028776e-38
0.966442 0.781703 -0.250507 2.341805152028776e-38
0.969578 0.774651 -0.250179 2.341805152028776e-38
0.976460 0.770689 -0.250852 2.341805152028776e-38
0.980234 0.764265 -0.250727 2.341805152028776e-38
0.986297 0.759620 -0.251189 2.341805152028776e-38
0.989999 0.753152 -0.251051 2.341805152028776e-38
0.995226 0.747846 -0.251301 2.341805152028776e-38
0.998814 0.741383 -0.251162 2.341805152028776e-38
1.003927 0.736083 -0.251419 2.341805152028776e-38
1.008218 0.730176 -0.251472 2.341805152028776e-38
1.014069 0.725388 -0.251913 2.341805152028776e-38
1.018298 0.719426 -0.251951 2.341805152028776e-38
1.024079 0.714591 -0.252387 2.341805152028776e-38
1.027387 0.708083 -0.252236 2.341805152028776e-38
1.031465 0.702115 -0.252275 2.341805152028776e-38
1.037949 0.697767 -0.252902 2.341805152028776e-38
1.043600 0.692827 -0.253325 2.341805152028776e-38
1.047585 0.686780 -0.253345 2.341805152028776e-38
1.050669 0.680237 -0.253182 2.341805152028776e-38
1.054538 0.674212 -0.253211 2.341805152028776e-38
1.060031 0.669214 -0.253629 2.341805152028776e-38
1.061342 0.661586 -0.253049 2.341805152028776e-38
1.067609 0.657049 -0.253652 2.341805152028776e-38
1.072986 0.652005 -0.254068 2.341805152028776e-38
1.072447 0.643410 -0.253095 2.341805152028776e-38
1.076061 0.637343 -0.253107 2.341805152028776e-38
1.082179 0.632742 -0.253708 2.341805152028776e-38
1.084884 0.626135 -0.253508 2.341805152028776e-38
1.088384 0.620029 -0.253510 2.341805152028776e-38
1.092678 0.614429 -0.253719 2.341805152028776e-38
1.099514 0.610229 -0.254518 2.341805152028776e-38
1.103758 0.604563 -0.254714 2.341805152028776e-38
1.108835 0.599337 -0.255102 2.341805152028776e-38
1.112158 0.593153 -0.255087 2.341805152028776e-38
1.116275 0.587474 -0.255290 2.341805152028776e-38
1.120362 0.581773 -0.255487 2.341805152028776e-38
1.135760 0.581857 -0.258257 2.341805152028776e-38
1.144194 0.578255 -0.259433 2.341805152028776e-38
1.140342 0.568460 -0.257826 2.341805152028776e-38
1.138157 0.559624 -0.256623 2.341805152028776e-38
1.140299 0.553005 -0.256421 2.341805152028776e-38
1.147709 0.548919 -0.257403 2.341805152028776e-38
1.164859 0.549371 -0.260559 2.341805152028776e-38
1.175826 0.546763 -0.262320 2.341805152028776e-38
1.170761 0.536704 -0.260505 2.341805152028776e-38
1.163800 0.525975 -0.258319 2.341805152028776e-38
1.163024 0.518134 -0.257516 2.341805152028776e-38
0.803068 0.945695 -0.251988 2.341805152028776e-38
0.807136 0.938296 -0.251594 2.341805152028776e-38
0.814358 0.934584 -0.252189 2.341805152028776e-38
0.820269 0.929349 -0.252379 2.341805152028776e-38
0.823533 0.921156 -0.251763 2.341805152028776e-38
0.828701 0.915141 -0.251738 2.341805152028776e-38
0.835102 0.910584 -0.252116 2.341805152028776e-38
0.841464 0.905997 -0.252491 2.341805152028776e-38
0.847130 0.900655 -0.252659 2.341805152028776e-38
0.852762 0.895279 -0.252820 2.341805152028776e-38
0.858360 0.889869 -0.252973 2.341805152028776e-38
0.863205 0.883757 -0.252927 2.341805152028776e-38
0.869359 0.879038 -0.253282 2.341805152028776e-38
0.874101 0.872894 -0.253229 2.341805152028776e-38
0.880195 0.868103 -0.253570 2.341805152028776e-38
0.886264 0.863272 -0.253903 2.341805152028776e-38
0.890168 0.856383 -0.253633 2.341805152028776e-38
0.896113 0.851543 -0.253969 2.341805152028776e-38
0.904175 0.848675 -0.254902 2.341805152028776e-38
0.910799 0.844409 -0.255426 2.341805152028776e-38
0.913793 0.836789 -0.254936 2.341805152028776e-38
0.918173 0.830487 -0.254843 2.341805152028776e-38
0.923191 0.824870 -0.254960 2.341805152028776e-38
0.928175 0.819223 -0.255070 2.341805152028776e-38
0.931648 0.812262 -0.254768 2.341805152028776e-38
0.937297 0.807208 -0.255066 2.341805152028776e-38
0.946650 0.805290 -0.256366 2.341805152028776e-38
0.949215 0.797674 -0.255858 2.341805152028776e-38
0.954732 0.792567 -0.256153 2.341805152028776e-38
0.959464 0.786803 -0.256239 2.341805152028776e-38
0.965684 0.782246 -0.256722 2.341805152028776e-38
0.970355 0.776421 -0.256793 2.341805152028776e-38
0.973419 0.769395 -0.256465 2.341805152028776e-38
0.977959 0.763591 -0.256542 2.341805152028776e-38
0.982465 0.757761 -0.256612 2.341805152028776e-38
0.987715 0.752501 -0.256878 2.341805152028776e-38
0.992154 0.746618 -0.256933 2.341805152028776e-38
0.996541 0.740734 -0.256989 2.341805152028776e-38
1.002438 0.736026 -0.257458 2.341805152028776e-38
1.005936 0.729551 -0.257311 2.341805152028776e-38
1.012577 0.725344 -0.257968 2.341805152028776e-38
1.016805 0.719390 -0.258009 2.341805152028776e-38
1.020996 0.713417 -0.258045 2.341805152028776e-38
1.025911 0.708039 -0.258297 2.341805152028776e-38
1.031607 0.703181 -0.258746 2.341805152028776e-38
1.034844 0.696643 -0.258579 2.341805152028776e-38
1.040486 0.691720 -0.259014 2.341805152028776e-38
1.044469 0.685682 -0.259036 2.341805152028776e-38
1.049205 0.680204 -0.259270 2.341805152028776e-38
1.052249 0.673658 -0.259099 2.341805152028776e-38
1.056081 0.667625 -0.259124 2.341805152028776e-38
1.060709 0.662092 -0.259345 2.341805152028776e-38
1.066975 0.657557 -0.259965 2.341805152028776e-38
1.069862 0.650963 -0.259774 2.341805152028776e-38
