VERSION .7
FIELDS x y z rgb
SIZE 4 4 4 4
TYPE F F F F
COUNT 1 1 1 1
WIDTH 938
HEIGHT 1
VIEWPOINT 0 0 0 1 0 0 0
POINTS 938
DATA ascii
1.084030 -0.831325 -0.180723 2.341805152028776e-38
1.081469 -0.839523 -0.181074 2.341805152028776e-38
1.076478 -0.845922 -0.181034 2.341805152028776e-38
1.083086 -0.861550 -0.182955 2.341805152028776e-38
1.086458 -0.874800 -0.184345 2.341805152028776e-38
1.072804 -0.874342 -0.182847 2.341805152028776e-38
1.062233 -0.876301 -0.181874 2.341805152028776e-38
1.060006 -0.885204 -0.182345 2.341805152028776e-38
1.055439 -0.892193 -0.182419 2.341805152028776e-38
1.047060 -0.895936 -0.181832 2.341805152028776e-38
1.037176 -0.898314 -0.180979 2.341805152028776e-38
1.031759 -0.904544 -0.180909 2.341805152028776e-38
1.023290 -0.908163 -0.180321 2.341805152028776e-38
1.019978 -0.916352 -0.180643 2.341805152028776e-38
1.020272 -0.927871 -0.181612 2.341805152028776e-38
1.019734 -0.938755 -0.182444 2.341805152028776e-38
1.015465 -0.946298 -0.182619 2.341805152028776e-38
1.002431 -0.945719 -0.181235 2.341805152028776e-38
0.986575 -0.942278 -0.179326 2.341805152028776e-38
0.993608 -0.960733 -0.181582 2.341805152028776e-38
1.003994 -0.982778 -0.184480 2.341805152028776e-38
0.993720 -0.984751 -0.183598 2.341805152028776e-38
0.972894 -0.976165 -0.180771 2.341805152028776e-38
0.983514 -0.999158 -0.183792 2.341805152028776e-38
1.007709 -1.036539 -0.189401 2.341805152028776e-38
0.983406 -1.024194 -0.185910 2.341805152028776e-38
0.947014 -0.998639 -0.180082 2.341805152028776e-38
0.965812 -1.031355 -0.184770 2.341805152028776e-38
1.032031 -1.116038 -0.198648 2.341805152028776e-38
1.224608 -0.561843 -0.185116 2.341805152028776e-38
1.227864 -0.571323 -0.186088 2.341805152028776e-38
1.224782 -0.577897 -0.186103 2.341805152028776e-38
1.221664 -0.584456 -0.186112 2.341805152028776e-38
1.217619 -0.590568 -0.185980 2.341805152028776e-38
1.212619 -0.596285 -0.185728 2.341805152028776e-38
1.208474 -0.602418 -0.185610 2.341805152028776e-38
1.204298 -0.608526 -0.185487 2.341805152028776e-38
1.201856 -0.615511 -0.185630 2.341805152028776e-38
1.200252 -0.622945 -0.185905 2.341805152028776e-38
1.199450 -0.630892 -0.186326 2.341805152028776e-38
1.195086 -0.637015 -0.186204 2.341805152028776e-38
1.188946 -0.642168 -0.185805 2.341805152028776e-38
1.185394 -0.648701 -0.185809 2.341805152028776e-38
1.185271 -0.657138 -0.186352 2.341805152028776e-38
1.185934 -0.666113 -0.187037 2.341805152028776e-38
1.183064 -0.673200 -0.187182 2.341805152028776e-38
1.175860 -0.677804 -0.186642 2.341805152028776e-38
1.172919 -0.684847 -0.186777 2.341805152028776e-38
1.170789 -0.692385 -0.187042 2.341805152028776e-38
1.166899 -0.698923 -0.187036 2.341805152028776e-38
1.161242 -0.704469 -0.186766 2.341805152028776e-38
1.157248 -0.711012 -0.186764 2.341805152028776e-38
1.154899 -0.718581 -0.187028 2.341805152028776e-38
1.153339 -0.726675 -0.187423 2.341805152028776e-38
1.150051 -0.733717 -0.187542 2.341805152028776e-38
1.146672 -0.740815 -0.187673 2.341805152028776e-38
1.141591 -0.746815 -0.187526 2.341805152028776e-38
1.134828 -0.751688 -0.187101 2.341805152028776e-38
1.126400 -0.755406 -0.186399 2.341805152028776e-38
1.126984 -0.765175 -0.187189 2.341805152028776e-38
1.124992 -0.773362 -0.187582 2.341805152028776e-38
1.119688 -0.779295 -0.187425 2.341805152028776e-38
1.114352 -0.785193 -0.187264 2.341805152028776e-38
1.109792 -0.791632 -0.187232 2.341805152028776e-38
1.107605 -0.799785 -0.187604 2.341805152028776e-38
1.105316 -0.807999 -0.187984 2.341805152028776e-38
1.097382 -0.812105 -0.187409 2.341805152028776e-38
1.091024 -0.817335 -0.187101 2.341805152028776e-38
1.089379 -0.826111 -0.187603 2.341805152028776e-38
1.082953 -0.831277 -0.187284 2.341805152028776e-38
1.074901 -0.835229 -0.186698 2.341805152028776e-38
1.076164 -0.846491 -0.187743 2.341805152028776e-38
1.082758 -0.862117 -0.189732 2.341805152028776e-38
1.081489 -0.871636 -0.190357 2.341805152028776e-38
1.070934 -0.873655 -0.189347 2.341805152028776e-38
1.059595 -0.874989 -0.188205 2.341805152028776e-38
1.055093 -0.881970 -0.188286 2.341805152028776e-38
1.052057 -0.890210 -0.188632 2.341805152028776e-38
1.043693 -0.893935 -0.188023 2.341805152028776e-38
1.036820 -0.898891 -0.187681 2.341805152028776e-38
1.026175 -0.900559 -0.186661 2.341805152028776e-38
1.020696 -0.906778 -0.186593 2.341805152028776e-38
1.016653 -0.914290 -0.186790 2.341805152028776e-38
1.014755 -0.923788 -0.187388 2.341805152028776e-38
1.019336 -0.939340 -0.189196 2.341805152028776e-38
1.018672 -0.950275 -0.190055 2.341805152028776e-38
1.002020 -0.946316 -0.187944 2.341805152028776e-38
0.984023 -0.940820 -0.185560 2.341805152028776e-38
0.993186 -0.961327 -0.188301 2.341805152028776e-38
1.005673 -0.985449 -0.191709 2.341805152028776e-38
0.991153 -0.983261 -0.189986 2.341805152028776e-38
0.971054 -0.975364 -0.187191 2.341805152028776e-38
0.983743 -1.000465 -0.190724 2.341805152028776e-38
1.005823 -1.035713 -0.196132 2.341805152028776e-38
0.982232 -1.024076 -0.192648 2.341805152028776e-38
0.944504 -0.997088 -0.186341 2.341805152028776e-38
0.952447 -1.018211 -0.189049 2.341805152028776e-38
0.999833 -1.082421 -0.199670 2.341805152028776e-38
1.221798 -0.561038 -0.191337 2.341805152028776e-38
1.224156 -0.570086 -0.192200 2.341805152028776e-38
1.221975 -0.577063 -0.192354 2.341805152028776e-38
1.218862 -0.583607 -0.192362 2.341805152028776e-38
1.215706 -0.590152 -0.192370 2.341805152028776e-38
1.210704 -0.595868 -0.192110 2.341805152028776e-38
1.209220 -0.603317 -0.192409 2.341805152028776e-38
1.204156 -0.608982 -0.192139 2.341805152028776e-38
1.201710 -0.615967 -0.192286 2.341805152028776e-38
1.198345 -0.622488 -0.192287 2.341805152028776e-38
1.196655 -0.629987 -0.192587 2.341805152028776e-38
1.191422 -0.635628 -0.192318 2.341805152028776e-38
1.187906 -0.642174 -0.192326 2.341805152028776e-38
1.185221 -0.649177 -0.192470 2.341805152028776e-38
1.185959 -0.658094 -0.193172 2.341805152028776e-38
1.184010 -0.665639 -0.193462 2.341805152028776e-38
1.180282 -0.672226 -0.193470 2.341805152028776e-38
1.175659 -0.678299 -0.193332 2.341805152028776e-38
1.172715 -0.685342 -0.193470 2.341805152028776e-38
1.167172 -0.690862 -0.193179 2.341805152028776e-38
1.164127 -0.697910 -0.193318 2.341805152028776e-38
1.161016 -0.704982 -0.193460 2.341805152028776e-38
1.156175 -0.711006 -0.193315 2.341805152028776e-38
1.151304 -0.716999 -0.193164 2.341805152028776e-38
1.148913 -0.724546 -0.193431 2.341805152028776e-38
1.144788 -0.731050 -0.193417 2.341805152028776e-38
1.141424 -0.738118 -0.193551 2.341805152028776e-38
1.133875 -0.742462 -0.192975 2.341805152028776e-38
1.128789 -0.748386 -0.192816 2.341805152028776e-38
1.126139 -0.755933 -0.193074 2.341805152028776e-38
1.125067 -0.764601 -0.193611 2.341805152028776e-38
1.122257 -0.772222 -0.193877 2.341805152028776e-38
1.120209 -0.780403 -0.194277 2.341805152028776e-38
1.114868 -0.786304 -0.194109 2.341805152028776e-38
1.111108 -0.793323 -0.194216 2.341805152028776e-38
1.105697 -0.799167 -0.194036 2.341805152028776e-38
1.099402 -0.804463 -0.193728 2.341805152028776e-38
1.089901 -0.807356 -0.192850 2.341805152028776e-38
1.087533 -0.815513 -0.193234 2.341805152028776e-38
1.083530 -0.822473 -0.193330 2.341805152028776e-38
1.077127 -0.827606 -0.192999 2.341805152028776e-38
1.074557 -0.835797 -0.193380 2.341805152028776e-38
1.073477 -0.845219 -0.194039 2.341805152028776e-38
1.070775 -0.853426 -0.194410 2.341805152028776e-38
1.066472 -0.860387 -0.194494 2.341805152028776e-38
1.058289 -0.864198 -0.193870 2.341805152028776e-38
1.050053 -0.867996 -0.193252 2.341805152028776e-38
1.051667 -0.880005 -0.194458 2.341805152028776e-38
1.053173 -0.892065 -0.195657 2.341805152028776e-38
1.044802 -0.895798 -0.195026 2.341805152028776e-38
1.034180 -0.897517 -0.193969 2.341805152028776e-38
1.022792 -0.898532 -0.192776 2.341805152028776e-38
1.023244 -0.909995 -0.193826 2.341805152028776e-38
1.016237 -0.914874 -0.193468 2.341805152028776e-38
1.010671 -0.921036 -0.193385 2.341805152028776e-38
1.013802 -0.935221 -0.194975 2.341805152028776e-38
1.020381 -0.952895 -0.197266 2.341805152028776e-38
1.000128 -0.945548 -0.194381 2.341805152028776e-38
0.989303 -0.946889 -0.193310 2.341805152028776e-38
0.995567 -0.964672 -0.195586 2.341805152028776e-38
1.002356 -0.983262 -0.197995 2.341805152028776e-38
0.986441 -0.979673 -0.195935 2.341805152028776e-38
0.969872 -0.975261 -0.193739 2.341805152028776e-38
0.976989 -0.994702 -0.196279 2.341805152028776e-38
0.989417 -1.019956 -0.199925 2.341805152028776e-38
0.968685 -1.011081 -0.196877 2.341805152028776e-38
0.939231 -0.992659 -0.192023 2.341805152028776e-38
0.948536 -1.015196 -0.195103 2.341805152028776e-38
0.997887 -1.081559 -0.206511 2.341805152028776e-38
1.218956 -0.560232 -0.197538 2.341805152028776e-38
1.221314 -0.569265 -0.198429 2.341805152028776e-38
1.219137 -0.576227 -0.198587 2.341805152028776e-38
1.215136 -0.582329 -0.198447 2.341805152028776e-38
1.214642 -0.590176 -0.198899 2.341805152028776e-38
1.210530 -0.596324 -0.198775 2.341805152028776e-38
1.208156 -0.603331 -0.198936 2.341805152028776e-38
1.203977 -0.609437 -0.198800 2.341805152028776e-38
1.201528 -0.616421 -0.198951 2.341805152028776e-38
1.196393 -0.622049 -0.198665 2.341805152028776e-38
1.196452 -0.630464 -0.199266 2.341805152028776e-38
1.191218 -0.636104 -0.198986 2.341805152028776e-38
1.188569 -0.643120 -0.199139 2.341805152028776e-38
1.185012 -0.649652 -0.199139 2.341805152028776e-38
1.183146 -0.657129 -0.199427 2.341805152028776e-38
1.182052 -0.665165 -0.199877 2.341805152028776e-38
1.176607 -0.670761 -0.199592 2.341805152028776e-38
1.172850 -0.677309 -0.199593 2.341805152028776e-38
1.169910 -0.684337 -0.199735 2.341805152028776e-38
1.165226 -0.690346 -0.199579 2.341805152028776e-38
1.163017 -0.697913 -0.199872 2.341805152028776e-38
1.156524 -0.702925 -0.199434 2.341805152028776e-38
1.152538 -0.709442 -0.199428 2.341805152028776e-38
1.151034 -0.717509 -0.199854 2.341805152028776e-38
1.146967 -0.723998 -0.199837 2.341805152028776e-38
1.141997 -0.729980 -0.199681 2.341805152028776e-38
1.138638 -0.737032 -0.199818 2.341805152028776e-38
1.135236 -0.744072 -0.199949 2.341805152028776e-38
1.130142 -0.750005 -0.199783 2.341805152028776e-38
1.125838 -0.756457 -0.199757 2.341805152028776e-38
1.122292 -0.763474 -0.199879 2.341805152028776e-38
1.126006 -0.775569 -0.201318 2.341805152028776e-38
1.124747 -0.784338 -0.201876 2.341805152028776e-38
1.117768 -0.789125 -0.201409 2.341805152028776e-38
1.111575 -0.794435 -0.201081 2.341805152028776e-38
1.105344 -0.799722 -0.200753 2.341805152028776e-38
1.095855 -0.802678 -0.199850 2.341805152028776e-38
1.088754 -0.807319 -0.199378 2.341805152028776e-38
1.084801 -0.814282 -0.199483 2.341805152028776e-38
1.081591 -0.821826 -0.199727 2.341805152028776e-38
1.078324 -0.829371 -0.199967 2.341805152028776e-38
1.072612 -0.835146 -0.199780 2.341805152028776e-38
1.069977 -0.843333 -0.200168 2.341805152028776e-38
1.062643 -0.847817 -0.199679 2.341805152028776e-38
1.056064 -0.852867 -0.199329 2.341805152028776e-38
1.050993 -0.859122 -0.199264 2.341805152028776e-38
1.045826 -0.865417 -0.199209 2.341805152028776e-38
1.051998 -0.881213 -0.201326 2.341805152028776e-38
1.054245 -0.893916 -0.202710 2.341805152028776e-38
1.042863 -0.895079 -0.201475 2.341805152028776e-38
1.030757 -0.895490 -0.200091 2.341805152028776e-38
1.031262 -0.906956 -0.201179 2.341805152028776e-38
1.027222 -0.914524 -0.201393 2.341805152028776e-38
1.019454 -0.918766 -0.200877 2.341805152028776e-38
1.008017 -0.919614 -0.199631 2.341805152028776e-38
1.011146 -0.933784 -0.201275 2.341805152028776e-38
1.011923 -0.946050 -0.202488 2.341805152028776e-38
1.000353 -0.946816 -0.201240 2.341805152028776e-38
0.988098 -0.946792 -0.199842 2.341805152028776e-38
0.997188 -0.967324 -0.202772 2.341805152028776e-38
1.001121 -0.983150 -0.204683 2.341805152028776e-38
0.984504 -0.978872 -0.202411 2.341805152028776e-38
0.966558 -0.973047 -0.199851 2.341805152028776e-38
0.970900 -0.989642 -0.201900 2.341805152028776e-38
0.979204 -1.010594 -0.204805 2.341805152028776e-38
0.961970 -1.005234 -0.202374 2.341805152028776e-38
0.933248 -0.987507 -0.197501 2.341805152028776e-38
0.952694 -1.020858 -0.202842 2.341805152028776e-38
1.001935 -1.087242 -0.214634 2.341805152028776e-38
1.216083 -0.559424 -0.203721 2.341805152028776e-38
1.215752 -0.567188 -0.204188 2.341805152028776e-38
1.215373 -0.574967 -0.204649 2.341805152028776e-38
1.214945 -0.582760 -0.205105 2.341805152028776e-38
1.211766 -0.589335 -0.205128 2.341805152028776e-38
1.206772 -0.595030 -0.204846 2.341805152028776e-38
1.204405 -0.602017 -0.205011 2.341805152028776e-38
1.201115 -0.608550 -0.205020 2.341805152028776e-38
1.197791 -0.615067 -0.205022 2.341805152028776e-38
1.197036 -0.622982 -0.205486 2.341805152028776e-38
1.197086 -0.631400 -0.206105 2.341805152028776e-38
1.190977 -0.636578 -0.205664 2.341805152028776e-38
1.188325 -0.643593 -0.205819 2.341805152028776e-38
1.183031 -0.649173 -0.205517 2.341805152028776e-38
1.182880 -0.657624 -0.206121 2.341805152028776e-38
1.179196 -0.664203 -0.206132 2.341805152028776e-38
1.175476 -0.670764 -0.206137 2.341805152028776e-38
1.169151 -0.675822 -0.205685 2.341805152028776e-38
1.167072 -0.683329 -0.205980 2.341805152028776e-38
1.163240 -0.689835 -0.205970 2.341805152028776e-38
1.160176 -0.696897 -0.206125 2.341805152028776e-38
1.154535 -0.702407 -0.205822 2.341805152028776e-38
1.153077 -0.710470 -0.206265 2.341805152028776e-38
1.149049 -0.716970 -0.206252 2.341805152028776e-38
1.144985 -0.723449 -0.206232 2.341805152028776e-38
1.140838 -0.729973 -0.206226 2.341805152028776e-38
1.139967 -0.738633 -0.206817 2.341805152028776e-38
1.135728 -0.745139 -0.206801 2.341805152028776e-38
1.128158 -0.749434 -0.206176 2.341805152028776e-38
1.123858 -0.755875 -0.206148 2.341805152028776e-38
1.121934 -0.764014 -0.206579 2.341805152028776e-38
1.122380 -0.773862 -0.207461 2.341805152028776e-38
1.118697 -0.780914 -0.207585 2.341805152028776e-38
1.110932 -0.785097 -0.206950 2.341805152028776e-38
1.109589 -0.793820 -0.207513 2.341805152028776e-38
1.100946 -0.797374 -0.206727 2.341805152028776e-38
1.095463 -0.803228 -0.206544 2.341805152028776e-38
1.089949 -0.809047 -0.206356 2.341805152028776e-38
1.085195 -0.815424 -0.206312 2.341805152028776e-38
1.080403 -0.821775 -0.206262 2.341805152028776e-38
1.074770 -0.827522 -0.206063 2.341805152028776e-38
1.070629 -0.834492 -0.206169 2.341805152028776e-38
1.066444 -0.841443 -0.206268 2.341805152028776e-38
1.062986 -0.848993 -0.206512 2.341805152028776e-38
1.058708 -0.855911 -0.206599 2.341805152028776e-38
1.054371 -0.862825 -0.206684 2.341805152028776e-38
1.046897 -0.867250 -0.206176 2.341805152028776e-38
1.047742 -0.878606 -0.207311 2.341805152028776e-38
1.049242 -0.890644 -0.208589 2.341805152028776e-38
1.039386 -0.893068 -0.207614 2.341805152028776e-38
1.030279 -0.896062 -0.206783 2.341805152028776e-38
1.027054 -0.904268 -0.207160 2.341805152028776e-38
1.025981 -0.914444 -0.207978 2.341805152028776e-38
1.016014 -0.916692 -0.206995 2.341805152028776e-38
1.006787 -0.919522 -0.206156 2.341805152028776e-38
1.012810 -0.936370 -0.208450 2.341805152028776e-38
1.014992 -0.950013 -0.210003 2.341805152028776e-38
1.004841 -0.952160 -0.209011 2.341805152028776e-38
0.993988 -0.953535 -0.207864 2.341805152028776e-38
0.996634 -0.967903 -0.209546 2.341805152028776e-38
1.001256 -0.984420 -0.211667 2.341805152028776e-38
0.986031 -0.981555 -0.209620 2.341805152028776e-38
0.965995 -0.973637 -0.206529 2.341805152028776e-38
0.965474 -0.985285 -0.207602 2.341805152028776e-38
0.970348 -1.002649 -0.209857 2.341805152028776e-38
0.951811 -0.995808 -0.207049 2.341805152028776e-38
0.929953 -0.985227 -0.203506 2.341805152028776e-38
0.948703 -1.017833 -0.208871 2.341805152028776e-38
1.003246 -1.090007 -0.222234 2.341805152028776e-38
1.213178 -0.558615 -0.209884 2.341805152028776e-38
1.216430 -0.568036 -0.210985 2.341805152028776e-38
1.216936 -0.576242 -0.211614 2.341805152028776e-38
1.212928 -0.582350 -0.211468 2.341805152028776e-38
1.209745 -0.588925 -0.211492 2.341805152028776e-38
1.207413 -0.595921 -0.211666 2.341805152028776e-38
1.205040 -0.602911 -0.211834 2.341805152028776e-38
1.199983 -0.608555 -0.211530 2.341805152028776e-38
1.197537 -0.615518 -0.211686 2.341805152028776e-38
1.195010 -0.622544 -0.211861 2.341805152028776e-38
1.194187 -0.630491 -0.212341 2.341805152028776e-38
1.191569 -0.637517 -0.212506 2.341805152028776e-38
1.183700 -0.641711 -0.211732 2.341805152028776e-38
1.181016 -0.648693 -0.211885 2.341805152028776e-38
1.181713 -0.657637 -0.212669 2.341805152028776e-38
1.176308 -0.663240 -0.212368 2.341805152028776e-38
1.172593 -0.669786 -0.212371 2.341805152028776e-38
1.167987 -0.675817 -0.212213 2.341805152028776e-38
1.166758 -0.683818 -0.212671 2.341805152028776e-38
1.162909 -0.690346 -0.212666 2.341805152028776e-38
1.158147 -0.696388 -0.212513 2.341805152028776e-38
1.154199 -0.702915 -0.212509 2.341805152028776e-38
1.151054 -0.709939 -0.212655 2.341805152028776e-38
1.147029 -0.716429 -0.212639 2.341805152028776e-38
1.142123 -0.722383 -0.212466 2.341805152028776e-38
1.140472 -0.730497 -0.212925 2.341805152028776e-38
1.138766 -0.738618 -0.213379 2.341805152028776e-38
1.133702 -0.744576 -0.213204 2.341805152028776e-38
1.126961 -0.749407 -0.212714 2.341805152028776e-38
1.121842 -0.755291 -0.212528 2.341805152028776e-38
1.122353 -0.765108 -0.213442 2.341805152028776e-38
1.117910 -0.771593 -0.213419 2.341805152028776e-38
1.112619 -0.777487 -0.213235 2.341805152028776e-38
1.105684 -0.782207 -0.212734 2.341805152028776e-38
1.105157 -0.791476 -0.213469 2.341805152028776e-38
1.099717 -0.797344 -0.213281 2.341805152028776e-38
1.091846 -0.801438 -0.212627 2.341805152028776e-38
1.087136 -0.807826 -0.212586 2.341805152028776e-38
1.080810 -0.813000 -0.212229 2.341805152028776e-38
1.076819 -0.819925 -0.212331 2.341805152028776e-38
1.070400 -0.825067 -0.211974 2.341805152028776e-38
1.070168 -0.835051 -0.212856 2.341805152028776e-38
1.064427 -0.840776 -0.212648 2.341805152028776e-38
1.064059 -0.850783 -0.213517 2.341805152028776e-38
1.063608 -0.860816 -0.214379 2.341805152028776e-38
1.055406 -0.864647 -0.213696 2.341805152028776e-38
1.046403 -0.867818 -0.212861 2.341805152028776e-38
1.045723 -0.877901 -0.213721 2.341805152028776e-38
1.042702 -0.886090 -0.214111 2.341805152028776e-38
1.033628 -0.889120 -0.213258 2.341805152028776e-38
1.023045 -0.890800 -0.212095 2.341805152028776e-38
1.022072 -0.900924 -0.212946 2.341805152028776e-38
1.018803 -0.909097 -0.213326 2.341805152028776e-38
1.013273 -0.915277 -0.213237 2.341805152028776e-38
1.007705 -0.921426 -0.213141 2.341805152028776e-38
1.015865 -0.940306 -0.215971 2.341805152028776e-38
1.019452 -0.955323 -0.217881 2.341805152028776e-38
1.008556 -0.956819 -0.216701 2.341805152028776e-38
0.990555 -0.951375 -0.213977 2.341805152028776e-38
0.998162 -0.970544 -0.216788 2.341805152028776e-38
1.004158 -0.988462 -0.219283 2.341805152028776e-38
0.988910 -0.985628 -0.217172 2.341805152028776e-38
0.962607 -0.971414 -0.212599 2.341805152028776e-38
0.960711 -0.981630 -0.213398 2.341805152028776e-38
0.962845 -0.996123 -0.215110 2.341805152028776e-38
0.948460 -0.993528 -0.213133 2.341805152028776e-38
0.925945 -0.982224 -0.209326 2.341805152028776e-38
0.944006 -1.014080 -0.214707 2.341805152028776e-38
1.003167 -1.091309 -0.229563 2.341805152028776e-38
1.210242 -0.557805 -0.216028 2.341805152028776e-38
1.213492 -0.567210 -0.217161 2.341805152028776e-38
1.212216 -0.574555 -0.217487 2.341805152028776e-38
1.209981 -0.581522 -0.217665 2.341805152028776e-38
1.209465 -0.589377 -0.218167 2.341805152028776e-38
1.206245 -0.595935 -0.218184 2.341805152028776e-38
1.202988 -0.602478 -0.218195 2.341805152028776e-38
1.195295 -0.606770 -0.217399 2.341805152028776e-38
1.191969 -0.613278 -0.217405 2.341805152028776e-38
1.188575 -0.619823 -0.217425 2.341805152028776e-38
1.189509 -0.628657 -0.218238 2.341805152028776e-38
1.181680 -0.632862 -0.217445 2.341805152028776e-38
1.177311 -0.638885 -0.217286 2.341805152028776e-38
1.177237 -0.647260 -0.217922 2.341805152028776e-38
1.176198 -0.655247 -0.218416 2.341805152028776e-38
1.171668 -0.661305 -0.218263 2.341805152028776e-38
1.171391 -0.669785 -0.218905 2.341805152028776e-38
1.170202 -0.677790 -0.219381 2.341805152028776e-38
1.166406 -0.684305 -0.219371 2.341805152028776e-38
1.159993 -0.689342 -0.218891 2.341805152028776e-38
1.154392 -0.694860 -0.218571 2.341805152028776e-38
1.152138 -0.702393 -0.218885 2.341805152028776e-38
1.149835 -0.709925 -0.219193 2.341805152028776e-38
1.144136 -0.715362 -0.218855 2.341805152028776e-38
1.140890 -0.722379 -0.219002 2.341805152028776e-38
1.139237 -0.730487 -0.219474 2.341805152028776e-38
1.135045 -0.736988 -0.219459 2.341805152028776e-38
1.129991 -0.742926 -0.219278 2.341805152028776e-38
1.124906 -0.748831 -0.219090 2.341805152028776e-38
1.121413 -0.755827 -0.219222 2.341805152028776e-38
1.118654 -0.763418 -0.219524 2.341805152028776e-38
1.113408 -0.769321 -0.219338 2.341805152028776e-38
1.108131 -0.775191 -0.219147 2.341805152028776e-38
1.105240 -0.782738 -0.219429 2.341805152028776e-38
1.100691 -0.789135 -0.219386 2.341805152028776e-38
1.096053 -0.795572 -0.219355 2.341805152028776e-38
1.091378 -0.801984 -0.219318 2.341805152028776e-38
1.085873 -0.807781 -0.219115 2.341805152028776e-38
1.082703 -0.815324 -0.219384 2.341805152028776e-38
1.076342 -0.820466 -0.219009 2.341805152028776e-38
1.069125 -0.825021 -0.218484 2.341805152028776e-38
1.065776 -0.832568 -0.218753 2.341805152028776e-38
1.060826 -0.838881 -0.218697 2.341805152028776e-38
1.067399 -0.854419 -0.221027 2.341805152028776e-38
1.067688 -0.865095 -0.222074 2.341805152028776e-38
1.057158 -0.867091 -0.220894 2.341805152028776e-38
1.044348 -0.867121 -0.219234 2.341805152028776e-38
1.039132 -0.873382 -0.219163 2.341805152028776e-38
1.036887 -0.882172 -0.219723 2.341805152028776e-38
1.031582 -0.888391 -0.219639 2.341805152028776e-38
1.023227 -0.892023 -0.218921 2.341805152028776e-38
1.020761 -0.900842 -0.219478 2.341805152028776e-38
1.019699 -0.910982 -0.220346 2.341805152028776e-38
1.014157 -0.917170 -0.220252 2.341805152028776e-38
1.002752 -0.917992 -0.218881 2.341805152028776e-38
1.006554 -0.932832 -0.220847 2.341805152028776e-38
1.013775 -0.951169 -0.223608 2.341805152028776e-38
1.002912 -0.952633 -0.222392 2.341805152028776e-38
0.988511 -0.950579 -0.220377 2.341805152028776e-38
1.000350 -0.973869 -0.224224 2.341805152028776e-38
1.008403 -0.993895 -0.227273 2.341805152028776e-38
0.988940 -0.986905 -0.224145 2.341805152028776e-38
0.961268 -0.971292 -0.219113 2.341805152028776e-38
0.955916 -0.977970 -0.219144 2.341805152028776e-38
0.955318 -0.989594 -0.220275 2.341805152028776e-38
0.939611 -0.985536 -0.217924 2.341805152028776e-38
0.917166 -0.974184 -0.214001 2.341805152028776e-38
0.939949 -1.011045 -0.220652 2.341805152028776e-38
0.995695 -1.084604 -0.235173 2.341805152028776e-38
1.208170 -0.557405 -0.222318 2.341805152028776e-38
1.212310 -0.567219 -0.223646 2.341805152028776e-38
1.210140 -0.574135 -0.223815 2.341805152028776e-38
1.208781 -0.581546 -0.224172 2.341805152028776e-38
1.206489 -0.588531 -0.224357 2.341805152028776e-38
1.202389 -0.594636 -0.224207 2.341805152028776e-38
1.200903 -0.602042 -0.224546 2.341805152028776e-38
1.194976 -0.607218 -0.224054 2.341805152028776e-38
1.189877 -0.612848 -0.223738 2.341805152028776e-38
1.187360 -0.619838 -0.223921 2.341805152028776e-38
1.186546 -0.627744 -0.224426 2.341805152028776e-38
1.183073 -0.634263 -0.224432 2.341805152028776e-38
1.183031 -0.642649 -0.225090 2.341805152028776e-38
1.182917 -0.651080 -0.225751 2.341805152028776e-38
1.179269 -0.657659 -0.225764 2.341805152028776e-38
1.176444 -0.664705 -0.225934 2.341805152028776e-38
1.174433 -0.672232 -0.226264 2.341805152028776e-38
1.169814 -0.678276 -0.226092 2.341805152028776e-38
1.166013 -0.684794 -0.226080 2.341805152028776e-38
1.157044 -0.688336 -0.225096 2.341805152028776e-38
1.150606 -0.693329 -0.224599 2.341805152028776e-38
1.150884 -0.702383 -0.225416 2.341805152028776e-38
1.147741 -0.709390 -0.225567 2.341805152028776e-38
1.143719 -0.715863 -0.225546 2.341805152028776e-38
1.139620 -0.722373 -0.225537 2.341805152028776e-38
1.136304 -0.729408 -0.225691 2.341805152028776e-38
1.129637 -0.734282 -0.225180 2.341805152028776e-38
1.127071 -0.741816 -0.225486 2.341805152028776e-38
1.122815 -0.748252 -0.225456 2.341805152028776e-38
1.118491 -0.754707 -0.225432 2.341805152028776e-38
1.115736 -0.762282 -0.225740 2.341805152028776e-38
1.113743 -0.770413 -0.226206 2.341805152028776e-38
1.109268 -0.776852 -0.226172 2.341805152028776e-38
1.103148 -0.782125 -0.225802 2.341805152028776e-38
1.098586 -0.788531 -0.225762 2.341805152028776e-38
1.096346 -0.796696 -0.226222 2.341805152028776e-38
1.092458 -0.803696 -0.226347 2.341805152028776e-38
1.087735 -0.810089 -0.226300 2.341805152028776e-38
1.083763 -0.817051 -0.226412 2.341805152028776e-38
1.078168 -0.822810 -0.226191 2.341805152028776e-38
1.068592 -0.825576 -0.225157 2.341805152028776e-38
1.065238 -0.833120 -0.225433 2.341805152028776e-38
1.058738 -0.838207 -0.225044 2.341805152028776e-38
1.065300 -0.853734 -0.227443 2.341805152028776e-38
1.068651 -0.866884 -0.229176 2.341805152028776e-38
1.060389 -0.870784 -0.228457 2.341805152028776e-38
1.045290 -0.868943 -0.226253 2.341805152028776e-38
1.043838 -0.878387 -0.226999 2.341805152028776e-38
1.040808 -0.886567 -0.227409 2.341805152028776e-38
1.033235 -0.890878 -0.226829 2.341805152028776e-38
1.021137 -0.891295 -0.225272 2.341805152028776e-38
1.025325 -0.905982 -0.227319 2.341805152028776e-38
1.024960 -0.916808 -0.228375 2.341805152028776e-38
1.012070 -0.916409 -0.226639 2.341805152028776e-38
0.997042 -0.913888 -0.224407 2.341805152028776e-38
1.005903 -0.933406 -0.227580 2.341805152028776e-38
1.008788 -0.947688 -0.229440 2.341805152028776e-38
1.000813 -0.951843 -0.228840 2.341805152028776e-38
0.992114 -0.955253 -0.228071 2.341805152028776e-38
1.001073 -0.975810 -0.231378 2.341805152028776e-38
1.007674 -0.994470 -0.234193 2.341805152028776e-38
0.986133 -0.985388 -0.230481 2.341805152028776e-38
0.957809 -0.969060 -0.225135 2.341805152028776e-38
0.954536 -0.977837 -0.225655 2.341805152028776e-38
0.951192 -0.986612 -0.226167 2.341805152028776e-38
0.936863 -0.983975 -0.224074 2.341805152028776e-38
0.915128 -0.973329 -0.220196 2.341805152028776e-38
0.945258 -1.018129 -0.228830 2.341805152028776e-38
0.991531 -1.081531 -0.241507 2.341805152028776e-38
1.206960 -0.557417 -0.228767 2.341805152028776e-38
1.208415 -0.565971 -0.229622 2.341805152028776e-38
1.206236 -0.572895 -0.229805 2.341805152028776e-38
1.202217 -0.579004 -0.229661 2.341805152028776e-38
1.200824 -0.586386 -0.230019 2.341805152028776e-38
1.201153 -0.594647 -0.230710 2.341805152028776e-38
1.198784 -0.601605 -0.230886 2.341805152028776e-38
1.193740 -0.607218 -0.230548 2.341805152028776e-38
1.190380 -0.613771 -0.230570 2.341805152028776e-38
1.187857 -0.620764 -0.230755 2.341805152028776e-38
1.185293 -0.627751 -0.230934 2.341805152028776e-38
1.183556 -0.635196 -0.231277 2.341805152028776e-38
1.183505 -0.643586 -0.231952 2.341805152028776e-38
1.180777 -0.650619 -0.232130 2.341805152028776e-38
1.178853 -0.658147 -0.232480 2.341805152028776e-38
1.173451 -0.663736 -0.232144 2.341805152028776e-38
1.172298 -0.671738 -0.232651 2.341805152028776e-38
1.168536 -0.678265 -0.232642 2.341805152028776e-38
1.160471 -0.682303 -0.231787 2.341805152028776e-38
1.152368 -0.686320 -0.230942 2.341805152028776e-38
1.151852 -0.694850 -0.231617 2.341805152028776e-38
1.150435 -0.702884 -0.232115 2.341805152028776e-38
1.145611 -0.708853 -0.231929 2.341805152028776e-38
1.139081 -0.713753 -0.231400 2.341805152028776e-38
1.136649 -0.721308 -0.231732 2.341805152028776e-38
1.128364 -0.725131 -0.230871 2.341805152028776e-38
1.123376 -0.731035 -0.230682 2.341805152028776e-38
1.121650 -0.739076 -0.231165 2.341805152028776e-38
1.119048 -0.746577 -0.231471 2.341805152028776e-38
1.116352 -0.754136 -0.231791 2.341805152028776e-38
1.113599 -0.761699 -0.232106 2.341805152028776e-38
1.110795 -0.769259 -0.232414 2.341805152028776e-38
1.106328 -0.775681 -0.232377 2.341805152028776e-38
1.100216 -0.780939 -0.231994 2.341805152028776e-38
1.094845 -0.786774 -0.231788 2.341805152028776e-38
1.091815 -0.794339 -0.232091 2.341805152028776e-38
1.092701 -0.804820 -0.233233 2.341805152028776e-38
1.085602 -0.809449 -0.232676 2.341805152028776e-38
1.081632 -0.816399 -0.232788 2.341805152028776e-38
1.072894 -0.819773 -0.231888 2.341805152028776e-38
1.067240 -0.825524 -0.231669 2.341805152028776e-38
1.060779 -0.830632 -0.231274 2.341805152028776e-38
1.054296 -0.835693 -0.230872 2.341805152028776e-38
1.060090 -0.850578 -0.233170 2.341805152028776e-38
1.062669 -0.863094 -0.234788 2.341805152028776e-38
1.051387 -0.864457 -0.233370 2.341805152028776e-38
1.042400 -0.867609 -0.232454 2.341805152028776e-38
1.039443 -0.875766 -0.232882 2.341805152028776e-38
1.035675 -0.883281 -0.233134 2.341805152028776e-38
1.027374 -0.886925 -0.232368 2.341805152028776e-38
1.019010 -0.890564 -0.231612 2.341805152028776e-38
1.023927 -0.905892 -0.233885 2.341805152028776e-38
1.027227 -0.919999 -0.235812 2.341805152028776e-38
1.012867 -0.918292 -0.233687 2.341805152028776e-38
1.001471 -0.919111 -0.232231 2.341805152028776e-38
0.999432 -0.928609 -0.232973 2.341805152028776e-38
1.000181 -0.940826 -0.234381 2.341805152028776e-38
0.992251 -0.944930 -0.233763 2.341805152028776e-38
0.987857 -0.952395 -0.233979 2.341805152028776e-38
0.997518 -0.973615 -0.237549 2.341805152028776e-38
1.003396 -0.991576 -0.240279 2.341805152028776e-38
0.979108 -0.979682 -0.235788 2.341805152028776e-38
0.953622 -0.966122 -0.230959 2.341805152028776e-38
0.953117 -0.977698 -0.232163 2.341805152028776e-38
0.956607 -0.993568 -0.234363 2.341805152028776e-38
0.945628 -0.994556 -0.233048 2.341805152028776e-38
0.923175 -0.983251 -0.228888 2.341805152028776e-38
0.947824 -1.022314 -0.236431 2.341805152028776e-38
0.984002 -1.074817 -0.246964 2.341805152028776e-38
1.203034 -0.556187 -0.234692 2.341805152028776e-38
1.204491 -0.564721 -0.235569 2.341805152028776e-38
1.204081 -0.572499 -0.236115 2.341805152028776e-38
1.202726 -0.579880 -0.236487 2.341805152028776e-38
1.203095 -0.588130 -0.237202 2.341805152028776e-38
1.199881 -0.594655 -0.237212 2.341805152028776e-38
1.198392 -0.602050 -0.237566 2.341805152028776e-38
1.193331 -0.607689 -0.237226 2.341805152028776e-38
1.189093 -0.613789 -0.237072 2.341805152028776e-38
1.184824 -0.619863 -0.236911 2.341805152028776e-38
1.184004 -0.627756 -0.237441 2.341805152028776e-38
1.180531 -0.634263 -0.237442 2.341805152028776e-38
1.178749 -0.641698 -0.237787 2.341805152028776e-38
1.173430 -0.647302 -0.237452 2.341805152028776e-38
1.173242 -0.655751 -0.238158 2.341805152028776e-38
1.172139 -0.663736 -0.238683 2.341805152028776e-38
1.168421 -0.670261 -0.238678 2.341805152028776e-38
1.161261 -0.674788 -0.237969 2.341805152028776e-38
1.158296 -0.681809 -0.238144 2.341805152028776e-38
1.157812 -0.690352 -0.238842 2.341805152028776e-38
1.153898 -0.696878 -0.238836 2.341805152028776e-38
1.147426 -0.701842 -0.238300 2.341805152028776e-38
1.142610 -0.707795 -0.238106 2.341805152028776e-38
1.136072 -0.712703 -0.237568 2.341805152028776e-38
1.133644 -0.720241 -0.237908 2.341805152028776e-38
1.127026 -0.725113 -0.237369 2.341805152028776e-38
1.122865 -0.731548 -0.237347 2.341805152028776e-38
1.117023 -0.736877 -0.236969 2.341805152028776e-38
1.115241 -0.744912 -0.237461 2.341805152028776e-38
1.114992 -0.754114 -0.238313 2.341805152028776e-38
1.113050 -0.762227 -0.238809 2.341805152028776e-38
1.106195 -0.766979 -0.238253 2.341805152028776e-38
1.101741 -0.773376 -0.238213 2.341805152028776e-38
1.095644 -0.778609 -0.237818 2.341805152028776e-38
1.093469 -0.786740 -0.238307 2.341805152028776e-38
1.092825 -0.796037 -0.239139 2.341805152028776e-38
1.092110 -0.805356 -0.239963 2.341805152028776e-38
1.084221 -0.809394 -0.239214 2.341805152028776e-38
1.075536 -0.812775 -0.238284 2.341805152028776e-38
1.071501 -0.819725 -0.238406 2.341805152028776e-38
1.068962 -0.827881 -0.238875 2.341805152028776e-38
1.062490 -0.833000 -0.238467 2.341805152028776e-38
1.055223 -0.837461 -0.237878 2.341805152028776e-38
1.054851 -0.847418 -0.238848 2.341805152028776e-38
1.055130 -0.858059 -0.239994 2.341805152028776e-38
1.046927 -0.861882 -0.239230 2.341805152028776e-38
1.037204 -0.864379 -0.238112 2.341805152028776e-38
1.036522 -0.874412 -0.239071 2.341805152028776e-38
1.036505 -0.885109 -0.240197 2.341805152028776e-38
1.028926 -0.889422 -0.239586 2.341805152028776e-38
1.020550 -0.893072 -0.238807 2.341805152028776e-38
1.027649 -0.910369 -0.241662 2.341805152028776e-38
1.034576 -0.927788 -0.244507 2.341805152028776e-38
1.020911 -0.926790 -0.242493 2.341805152028776e-38
1.006560 -0.925006 -0.240304 2.341805152028776e-38
1.000868 -0.931188 -0.240200 2.341805152028776e-38
0.997289 -0.939363 -0.240609 2.341805152028776e-38
0.990084 -0.944131 -0.240145 2.341805152028776e-38
0.989945 -0.955690 -0.241403 2.341805152028776e-38
0.998857 -0.976234 -0.244897 2.341805152028776e-38
0.999085 -0.988677 -0.246326 2.341805152028776e-38
0.979017 -0.980944 -0.242742 2.341805152028776e-38
0.954244 -0.968091 -0.237948 2.341805152028776e-38
0.957841 -0.983907 -0.240218 2.341805152028776e-38
0.969471 -1.008328 -0.244545 2.341805152028776e-38
0.952963 -1.003699 -0.241815 2.341805152028776e-38
0.925088 -0.986696 -0.236160 2.341805152028776e-38
0.945651 -1.021431 -0.242881 2.341805152028776e-38
0.978444 -1.070280 -0.252849 2.341805152028776e-38
1.200865 -0.555781 -0.240946 2.341805152028776e-38
1.204092 -0.565155 -0.242209 2.341805152028776e-38
1.203668 -0.572947 -0.242774 2.341805152028776e-38
1.202309 -0.580326 -0.243154 2.341805152028776e-38
1.202672 -0.588575 -0.243885 2.341805152028776e-38
1.199456 -0.595099 -0.243893 2.341805152028776e-38
1.194446 -0.600724 -0.243537 2.341805152028776e-38
1.188501 -0.605924 -0.243018 2.341805152028776e-38
1.186022 -0.612901 -0.243215 2.341805152028776e-38
1.181759 -0.618959 -0.243047 2.341805152028776e-38
1.180941 -0.626836 -0.243589 2.341805152028776e-38
1.174874 -0.631929 -0.243050 2.341805152028776e-38
1.173087 -0.639361 -0.243412 2.341805152028776e-38
1.171227 -0.646837 -0.243783 2.341805152028776e-38
1.168462 -0.653833 -0.243968 2.341805152028776e-38
1.163943 -0.659851 -0.243787 2.341805152028776e-38
1.161100 -0.666821 -0.243959 2.341805152028776e-38
1.159912 -0.674779 -0.244485 2.341805152028776e-38
1.157781 -0.682311 -0.244849 2.341805152028776e-38
1.153067 -0.688331 -0.244667 2.341805152028776e-38
1.150006 -0.695340 -0.244838 2.341805152028776e-38
1.143546 -0.700283 -0.244285 2.341805152028776e-38
1.139575 -0.706734 -0.244263 2.341805152028776e-38
1.133030 -0.711650 -0.243716 2.341805152028776e-38
1.133096 -0.720756 -0.244600 2.341805152028776e-38
1.129787 -0.727757 -0.244761 2.341805152028776e-38
1.122314 -0.732059 -0.244020 2.341805152028776e-38
1.118113 -0.738470 -0.243988 2.341805152028776e-38
1.114667 -0.745441 -0.244140 2.341805152028776e-38
1.111966 -0.752986 -0.244476 2.341805152028776e-38
1.107593 -0.759414 -0.244447 2.341805152028776e-38
1.104798 -0.766941 -0.244768 2.341805152028776e-38
1.099540 -0.772765 -0.244546 2.341805152028776e-38
1.094236 -0.778575 -0.244323 2.341805152028776e-38
1.091257 -0.786127 -0.244645 2.341805152028776e-38
1.092996 -0.797152 -0.246035 2.341805152028776e-38
1.087520 -0.802967 -0.245806 2.341805152028776e-38
1.075709 -0.804035 -0.244140 2.341805152028776e-38
1.068629 -0.808557 -0.243541 2.341805152028776e-38
1.071632 -0.820870 -0.245280 2.341805152028776e-38
1.070638 -0.830234 -0.246117 2.341805152028776e-38
1.061058 -0.832935 -0.244981 2.341805152028776e-38
1.052255 -0.836165 -0.244017 2.341805152028776e-38
1.049583 -0.844256 -0.244476 2.341805152028776e-38
1.050620 -0.855507 -0.245835 2.341805152028776e-38
1.042437 -0.859305 -0.245049 2.341805152028776e-38
1.035002 -0.863668 -0.244434 2.341805152028776e-38
1.037325 -0.876229 -0.246132 2.341805152028776e-38
1.041029 -0.890129 -0.248177 2.341805152028776e-38
1.032662 -0.893846 -0.247374 2.341805152028776e-38
1.019083 -0.892981 -0.245325 2.341805152028776e-38
1.021747 -0.906352 -0.247187 2.341805152028776e-38
1.029413 -0.924393 -0.250287 2.341805152028776e-38
1.015779 -0.923366 -0.248217 2.341805152028776e-38
0.999273 -0.919573 -0.245438 2.341805152028776e-38
0.994335 -0.926383 -0.245508 2.341805152028776e-38
0.997941 -0.941271 -0.247703 2.341805152028776e-38
0.994286 -0.949445 -0.248113 2.341805152028776e-38
0.983491 -0.950770 -0.246740 2.341805152028776e-38
0.989581 -0.968538 -0.249623 2.341805152028776e-38
0.998934 -0.989931 -0.253395 2.341805152028776e-38
0.983049 -0.986383 -0.250775 2.341805152028776e-38
0.957581 -0.972859 -0.245671 2.341805152028776e-38
0.963877 -0.991519 -0.248709 2.341805152028776e-38
0.973379 -1.013854 -0.252621 2.341805152028776e-38
0.953457 -1.005692 -0.248934 2.341805152028776e-38
0.930314 -0.993727 -0.244359 2.341805152028776e-38
0.952125 -1.029939 -0.251614 2.341805152028776e-38
0.984136 -1.078097 -0.261674 2.341805152028776e-38
1.197772 -0.554960 -0.247005 2.341805152028776e-38
1.200979 -0.564349 -0.248313 2.341805152028776e-38
1.202331 -0.572970 -0.249258 2.341805152028776e-38
1.201855 -0.580771 -0.249829 2.341805152028776e-38
1.199564 -0.587721 -0.250025 2.341805152028776e-38
1.194592 -0.593354 -0.249663 2.341805152028776e-38
1.191341 -0.599852 -0.249668 2.341805152028776e-38
1.189772 -0.607285 -0.250058 2.341805152028776e-38
1.184665 -0.612914 -0.249706 2.341805152028776e-38
1.180403 -0.618966 -0.249531 2.341805152028776e-38
1.178715 -0.626375 -0.249901 2.341805152028776e-38
1.176980 -0.633787 -0.250265 2.341805152028776e-38
1.173437 -0.640318 -0.250276 2.341805152028776e-38
1.166409 -0.644942 -0.249550 2.341805152028776e-38
1.164511 -0.652393 -0.249922 2.341805152028776e-38
1.162566 -0.659846 -0.250286 2.341805152028776e-38
1.158018 -0.665829 -0.250092 2.341805152028776e-38
1.155966 -0.673302 -0.250455 2.341805152028776e-38
1.153841 -0.680813 -0.250826 2.341805152028776e-38
1.150824 -0.687820 -0.251006 2.341805152028776e-38
1.146924 -0.694308 -0.250994 2.341805152028776e-38
1.141311 -0.699749 -0.250608 2.341805152028776e-38
1.136502 -0.705679 -0.250402 2.341805152028776e-38
1.135780 -0.714257 -0.251131 2.341805152028776e-38
1.134167 -0.722324 -0.251669 2.341805152028776e-38
1.129196 -0.728267 -0.251464 2.341805152028776e-38
1.125839 -0.735254 -0.251620 2.341805152028776e-38
1.119160 -0.740059 -0.251033 2.341805152028776e-38
1.113236 -0.745421 -0.250644 2.341805152028776e-38
1.110533 -0.752959 -0.250986 2.341805152028776e-38
1.110212 -0.762161 -0.251873 2.341805152028776e-38
1.106593 -0.769143 -0.252017 2.341805152028776e-38
1.098910 -0.773283 -0.251235 2.341805152028776e-38
1.095189 -0.780253 -0.251379 2.341805152028776e-38
1.092995 -0.788387 -0.251891 2.341805152028776e-38
1.087567 -0.794206 -0.251662 2.341805152028776e-38
1.079738 -0.798237 -0.250875 2.341805152028776e-38
1.071113 -0.801617 -0.249897 2.341805152028776e-38
1.060899 -0.803761 -0.248553 2.341805152028776e-38
1.066259 -0.817824 -0.250886 2.341805152028776e-38
1.064502 -0.826555 -0.251560 2.341805152028776e-38
1.054951 -0.829221 -0.250392 2.341805152028776e-38
1.050021 -0.835477 -0.250318 2.341805152028776e-38
1.049641 -0.845413 -0.251339 2.341805152028776e-38
1.047603 -0.854194 -0.252003 2.341805152028776e-38
1.037916 -0.856724 -0.250828 2.341805152028776e-38
1.030500 -0.861062 -0.250195 2.341805152028776e-38
1.038082 -0.878041 -0.253218 2.341805152028776e-38
1.041763 -0.891947 -0.255316 2.341805152028776e-38
1.028170 -0.891182 -0.253214 2.341805152028776e-38
1.014620 -0.890292 -0.251108 2.341805152028776e-38
1.018024 -0.904291 -0.253201 2.341805152028776e-38
1.021295 -0.918365 -0.255286 2.341805152028776e-38
1.009892 -0.919277 -0.253707 2.341805152028776e-38
0.992687 -0.914803 -0.250675 2.341805152028776e-38
0.994247 -0.927611 -0.252389 2.341805152028776e-38
0.999976 -0.944525 -0.255188 2.341805152028776e-38
0.987059 -0.943879 -0.253236 2.341805152028776e-38
0.974187 -0.943111 -0.251279 2.341805152028776e-38
0.985204 -0.965657 -0.255518 2.341805152028776e-38
0.995946 -0.988408 -0.259752 2.341805152028776e-38
0.982166 -0.986937 -0.257607 2.341805152028776e-38
0.958794 -0.975516 -0.252912 2.341805152028776e-38
0.959574 -0.988540 -0.254574 2.341805152028776e-38
0.966329 -1.008024 -0.257867 2.341805152028776e-38
0.951199 -1.004821 -0.255351 2.341805152028776e-38
0.928089 -0.992848 -0.250653 2.341805152028776e-38
0.949192 -1.028320 -0.257917 2.341805152028776e-38
0.989098 -1.085177 -0.270416 2.341805152028776e-38
1.196426 -0.554969 -0.253425 2.341805152028776e-38
1.197835 -0.563540 -0.254398 2.341805152028776e-38
1.200073 -0.572568 -0.255553 2.341805152028776e-38
1.194291 -0.577791 -0.255003 2.341805152028776e-38
1.191134 -0.584268 -0.255012 2.341805152028776e-38
1.187941 -0.590732 -0.255015 2.341805152028776e-38
1.185564 -0.597666 -0.255220 2.341805152028776e-38
1.182256 -0.604174 -0.255239 2.341805152028776e-38
1.181529 -0.612022 -0.255819 2.341805152028776e-38
1.178143 -0.618513 -0.255825 2.341805152028776e-38
1.176454 -0.625911 -0.256202 2.341805152028776e-38
1.172117 -0.631929 -0.256012 2.341805152028776e-38
1.167715 -0.637976 -0.255838 2.341805152028776e-38
1.162423 -0.643521 -0.255468 2.341805152028776e-38
1.161387 -0.651431 -0.256035 2.341805152028776e-38
1.157738 -0.657897 -0.256029 2.341805152028776e-38
1.160861 -0.668264 -0.257526 2.341805152028776e-38
1.157928 -0.675286 -0.257718 2.341805152028776e-38
1.154943 -0.682309 -0.257906 2.341805152028776e-38
1.151074 -0.688819 -0.257899 2.341805152028776e-38
1.146328 -0.694801 -0.257696 2.341805152028776e-38
1.139041 -0.699213 -0.256920 2.341805152028776e-38
1.134218 -0.705156 -0.256716 2.341805152028776e-38
1.129340 -0.711106 -0.256518 2.341805152028776e-38
1.126915 -0.718609 -0.256878 2.341805152028776e-38
1.121965 -0.724511 -0.256665 2.341805152028776e-38
1.117807 -0.730921 -0.256634 2.341805152028776e-38
1.111966 -0.736238 -0.256224 2.341805152028776e-38
1.114215 -0.747039 -0.257712 2.341805152028776e-38
1.109875 -0.753480 -0.257684 2.341805152028776e-38
1.107118 -0.761011 -0.258025 2.341805152028776e-38
1.101892 -0.766854 -0.257794 2.341805152028776e-38
1.098241 -0.773797 -0.257932 2.341805152028776e-38
1.092899 -0.779646 -0.257707 2.341805152028776e-38
1.088317 -0.786043 -0.257666 2.341805152028776e-38
1.082904 -0.791836 -0.257428 2.341805152028776e-38
1.079830 -0.799348 -0.257749 2.341805152028776e-38
1.071203 -0.802731 -0.256744 2.341805152028776e-38
1.061755 -0.805491 -0.255557 2.341805152028776e-38
1.063196 -0.816569 -0.257008 2.341805152028776e-38
1.059116 -0.823475 -0.257133 2.341805152028776e-38
1.051133 -0.827326 -0.256309 2.341805152028776e-38
1.048519 -0.835398 -0.256795 2.341805152028776e-38
1.048880 -0.845963 -0.258035 2.341805152028776e-38
1.048356 -0.855982 -0.259090 2.341805152028776e-38
1.039422 -0.859145 -0.258070 2.341805152028776e-38
1.031995 -0.863494 -0.257419 2.341805152028776e-38
1.034296 -0.876040 -0.259203 2.341805152028776e-38
1.035727 -0.888019 -0.260794 2.341805152028776e-38
1.022906 -0.887870 -0.258826 2.341805152028776e-38
1.011602 -0.888897 -0.257226 2.341805152028776e-38
1.006194 -0.895044 -0.257122 2.341805152028776e-38
1.006589 -0.906418 -0.258509 2.341805152028776e-38
0.990186 -0.902612 -0.255578 2.341805152028776e-38
0.982467 -0.906698 -0.254908 2.341805152028776e-38
0.989808 -0.924810 -0.258162 2.341805152028776e-38
0.996250 -0.942373 -0.261219 2.341805152028776e-38
0.982648 -0.941027 -0.259028 2.341805152028776e-38
0.967689 -0.938185 -0.256459 2.341805152028776e-38
0.975186 -0.957266 -0.259876 2.341805152028776e-38
0.988043 -0.982032 -0.264780 2.341805152028776e-38
0.972931 -0.979122 -0.262205 2.341805152028776e-38
0.950324 -0.968350 -0.257575 2.341805152028776e-38
0.954556 -0.984850 -0.260211 2.341805152028776e-38
0.970805 -1.014256 -0.266200 2.341805152028776e-38
0.957001 -1.012514 -0.263989 2.341805152028776e-38
0.925826 -0.991963 -0.256935 2.341805152028776e-38
0.934236 -1.013691 -0.260852 2.341805152028776e-38
0.973492 -1.069721 -0.273488 2.341805152028776e-38
1.193251 -0.554174 -0.259469 2.341805152028776e-38
1.196435 -0.563564 -0.260850 2.341805152028776e-38
1.195125 -0.570894 -0.261257 2.341805152028776e-38
1.192888 -0.577802 -0.261464 2.341805152028776e-38
1.187089 -0.582976 -0.260890 2.341805152028776e-38
1.183022 -0.588986 -0.260699 2.341805152028776e-38
1.181514 -0.596362 -0.261110 2.341805152028776e-38
1.180834 -0.604189 -0.261708 2.341805152028776e-38
1.177490 -0.610675 -0.261718 2.341805152028776e-38
1.173243 -0.616689 -0.261528 2.341805152028776e-38
1.173294 -0.624984 -0.262299 2.341805152028776e-38
1.169809 -0.631480 -0.262307 2.341805152028776e-38
1.166271 -0.637986 -0.262319 2.341805152028776e-38
1.160981 -0.643523 -0.261937 2.341805152028776e-38
1.157376 -0.649985 -0.261934 2.341805152028776e-38
1.160556 -0.660311 -0.263474 2.341805152028776e-38
1.158547 -0.667772 -0.263851 2.341805152028776e-38
1.153913 -0.673804 -0.263662 2.341805152028776e-38
1.154314 -0.682804 -0.264627 2.341805152028776e-38
1.149600 -0.688807 -0.264424 2.341805152028776e-38
1.141501 -0.692746 -0.263439 2.341805152028776e-38
1.133394 -0.696618 -0.262447 2.341805152028776e-38
1.128569 -0.702556 -0.262245 2.341805152028776e-38
1.125366 -0.709521 -0.262426 2.341805152028776e-38
1.122121 -0.716475 -0.262599 2.341805152028776e-38
1.117185 -0.722351 -0.262379 2.341805152028776e-38
1.113860 -0.729273 -0.262538 2.341805152028776e-38
1.117007 -0.740556 -0.264251 2.341805152028776e-38
1.114334 -0.748106 -0.264614 2.341805152028776e-38
1.106743 -0.752343 -0.263809 2.341805152028776e-38
1.100757 -0.757632 -0.263383 2.341805152028776e-38
1.098772 -0.765684 -0.263917 2.341805152028776e-38
1.095114 -0.772627 -0.264062 2.341805152028776e-38
1.088976 -0.777896 -0.263638 2.341805152028776e-38
1.078839 -0.780247 -0.262241 2.341805152028776e-38
1.080587 -0.791202 -0.263734 2.341805152028776e-38
1.081455 -0.801624 -0.265027 2.341805152028776e-38
1.074390 -0.806195 -0.264380 2.341805152028776e-38
1.064128 -0.808405 -0.262975 2.341805152028776e-38
1.060099 -0.815311 -0.263108 2.341805152028776e-38
1.055251 -0.821598 -0.263041 2.341805152028776e-38
1.049596 -0.827250 -0.262773 2.341805152028776e-38
1.046212 -0.834702 -0.263077 2.341805152028776e-38
1.049604 -0.847742 -0.265124 2.341805152028776e-38
1.049822 -0.858388 -0.266396 2.341805152028776e-38
1.041636 -0.862188 -0.265541 2.341805152028776e-38
1.031185 -0.864031 -0.264100 2.341805152028776e-38
1.031975 -0.875304 -0.265542 2.341805152028776e-38
1.029659 -0.884094 -0.266214 2.341805152028776e-38
1.021317 -0.887773 -0.265349 2.341805152028776e-38
1.006339 -0.885552 -0.262746 2.341805152028776e-38
0.995090 -0.886447 -0.261099 2.341805152028776e-38
0.983867 -0.887240 -0.259446 2.341805152028776e-38
0.978453 -0.893241 -0.259328 2.341805152028776e-38
0.975119 -0.901255 -0.259792 2.341805152028776e-38
0.986772 -0.923345 -0.264279 2.341805152028776e-38
0.989641 -0.937516 -0.266452 2.341805152028776e-38
0.976081 -0.936133 -0.264205 2.341805152028776e-38
0.956234 -0.928472 -0.260229 2.341805152028776e-38
0.965155 -0.948872 -0.264119 2.341805152028776e-38
0.982902 -0.978423 -0.270485 2.341805152028776e-38
0.969901 -0.977575 -0.268419 2.341805152028776e-38
0.950080 -0.969594 -0.264435 2.341805152028776e-38
0.964526 -0.996673 -0.270002 2.341805152028776e-38
0.981322 -1.026867 -0.276333 2.341805152028776e-38
0.954650 -1.011630 -0.270436 2.341805152028776e-38
0.921518 -0.988918 -0.262631 2.341805152028776e-38
0.923938 -1.004117 -0.264930 2.341805152028776e-38
0.946009 -1.041185 -0.272932 2.341805152028776e-38
1.192712 -0.554616 -0.266087 2.341805152028776e-38
1.195000 -0.563586 -0.267301 2.341805152028776e-38
1.193688 -0.570910 -0.267715 2.341805152028776e-38
1.190568 -0.577383 -0.267725 2.341805152028776e-38
1.185653 -0.582978 -0.267332 2.341805152028776e-38
1.184201 -0.590324 -0.267742 2.341805152028776e-38
1.182683 -0.597707 -0.268161 2.341805152028776e-38
1.180248 -0.604648 -0.268373 2.341805152028776e-38
1.179511 -0.612487 -0.268976 2.341805152028776e-38
1.174388 -0.618057 -0.268580 2.341805152028776e-38
1.170966 -0.624518 -0.268575 2.341805152028776e-38
1.168329 -0.631494 -0.268790 2.341805152028776e-38
