VERSION .7
FIELDS x y z rgb
SIZE 4 4 4 4
TYPE F F F F
COUNT 1 1 1 1
WIDTH 976
HEIGHT 1
VIEWPOINT 0 0 0 1 0 0 0
POINTS 976
DATA ascii
1.176358 0.712867 0.327716 2.341805152028776e-38
1.180412 0.706130 0.327726 2.341805152028776e-38
1.188577 0.701900 0.328910 2.341805152028776e-38
1.195041 0.696639 0.329629 2.341805152028776e-38
1.196424 0.688420 0.328950 2.341805152028776e-38
1.200290 0.681653 0.328957 2.341805152028776e-38
1.204967 0.675344 0.329188 2.341805152028776e-38
1.209600 0.669024 0.329418 2.341805152028776e-38
1.215018 0.663196 0.329897 2.341805152028776e-38
1.222121 0.658254 0.330832 2.341805152028776e-38
1.226630 0.651889 0.331064 2.341805152028776e-38
1.230245 0.645046 0.331055 2.341805152028776e-38
1.234685 0.638634 0.331270 2.341805152028776e-38
1.239065 0.632240 0.331499 2.341805152028776e-38
1.243395 0.625847 0.331733 2.341805152028776e-38
1.252048 0.621592 0.333118 2.341805152028776e-38
1.255451 0.614698 0.333105 2.341805152028776e-38
1.264071 0.610328 0.334474 2.341805152028776e-38
0.942629 1.120740 0.333763 2.341805152028776e-38
0.899207 1.055228 0.316236 2.341805152028776e-38
0.888078 1.028735 0.310254 2.341805152028776e-38
0.893300 1.021541 0.310052 2.341805152028776e-38
0.901053 1.017243 0.310733 2.341805152028776e-38
0.904231 1.007811 0.309845 2.341805152028776e-38
0.910604 1.001989 0.310062 2.341805152028776e-38
0.915600 0.994712 0.309828 2.341805152028776e-38
0.925809 0.993159 0.311387 2.341805152028776e-38
0.931350 0.986559 0.311372 2.341805152028776e-38
0.942908 0.986270 0.313363 2.341805152028776e-38
0.946363 0.977474 0.312660 2.341805152028776e-38
0.951790 0.970767 0.312620 2.341805152028776e-38
0.954360 0.961325 0.311692 2.341805152028776e-38
0.961685 0.956702 0.312325 2.341805152028776e-38
0.966905 0.949978 0.312277 2.341805152028776e-38
0.974876 0.945944 0.313117 2.341805152028776e-38
0.980021 0.939152 0.313051 2.341805152028776e-38
0.985068 0.932385 0.312991 2.341805152028776e-38
0.991479 0.926937 0.313377 2.341805152028776e-38
0.998576 0.922110 0.313980 2.341805152028776e-38
1.002772 0.914607 0.313674 2.341805152028776e-38
1.009086 0.909046 0.314034 2.341805152028776e-38
1.015338 0.903476 0.314396 2.341805152028776e-38
1.022260 0.898541 0.314987 2.341805152028776e-38
1.026218 0.891004 0.314667 2.341805152028776e-38
1.032340 0.885357 0.315015 2.341805152028776e-38
1.039175 0.880300 0.315579 2.341805152028776e-38
1.044481 0.873959 0.315689 2.341805152028776e-38
1.049699 0.867641 0.315808 2.341805152028776e-38
1.056389 0.862526 0.316371 2.341805152028776e-38
1.059264 0.854308 0.315795 2.341805152028776e-38
1.062841 0.846696 0.315436 2.341805152028776e-38
1.066365 0.839075 0.315068 2.341805152028776e-38
1.074400 0.835089 0.316069 2.341805152028776e-38
1.079327 0.828676 0.316161 2.341805152028776e-38
1.084993 0.822825 0.316471 2.341805152028776e-38
1.089068 0.815771 0.316319 2.341805152028776e-38
1.095446 0.810439 0.316838 2.341805152028776e-38
1.100199 0.803948 0.316909 2.341805152028776e-38
1.108045 0.799745 0.317890 2.341805152028776e-38
1.113500 0.793785 0.318184 2.341805152028776e-38
1.121312 0.789473 0.319149 2.341805152028776e-38
1.125914 0.782876 0.319198 2.341805152028776e-38
1.132076 0.777366 0.319696 2.341805152028776e-38
1.136553 0.770781 0.319756 2.341805152028776e-38
1.139373 0.763090 0.319355 2.341805152028776e-38
1.145392 0.757544 0.319852 2.341805152028776e-38
1.149754 0.750892 0.319887 2.341805152028776e-38
1.154077 0.744219 0.319913 2.341805152028776e-38
1.159148 0.738095 0.320178 2.341805152028776e-38
1.164995 0.732480 0.320671 2.341805152028776e-38
1.171643 0.727339 0.321382 2.341805152028776e-38
1.173288 0.719096 0.320724 2.341805152028776e-38
1.178211 0.712879 0.320964 2.341805152028776e-38
1.183090 0.706648 0.321204 2.341805152028776e-38
1.189576 0.701431 0.321913 2.341805152028776e-38
1.190990 0.693227 0.321252 2.341805152028776e-38
1.199950 0.689400 0.322626 2.341805152028776e-38
1.202128 0.681655 0.322175 2.341805152028776e-38
1.206806 0.675337 0.322397 2.341805152028776e-38
1.208859 0.667629 0.321953 2.341805152028776e-38
1.216838 0.663206 0.323100 2.341805152028776e-38
1.222231 0.657333 0.323558 2.341805152028776e-38
1.226736 0.650969 0.323781 2.341805152028776e-38
1.231208 0.644579 0.323995 2.341805152028776e-38
1.233910 0.637280 0.323752 2.341805152028776e-38
1.239135 0.631360 0.324212 2.341805152028776e-38
1.245202 0.625843 0.324891 2.341805152028776e-38
1.247755 0.618552 0.324654 2.341805152028776e-38
1.256390 0.614251 0.325999 2.341805152028776e-38
1.265016 0.609877 0.327335 2.341805152028776e-38
0.914555 1.085180 0.316369 2.341805152028776e-38
0.884101 1.035429 0.303769 2.341805152028776e-38
0.885556 1.023813 0.302269 2.341805152028776e-38
0.894603 1.021043 0.303377 2.341805152028776e-38
0.901708 1.016011 0.303823 2.341805152028776e-38
0.908133 1.010206 0.304043 2.341805152028776e-38
0.912550 1.002198 0.303598 2.341805152028776e-38
0.918185 0.995647 0.303591 2.341805152028776e-38
0.927075 0.992657 0.304677 2.341805152028776e-38
0.934624 0.988178 0.305317 2.341805152028776e-38
0.941478 0.982941 0.305731 2.341805152028776e-38
0.946266 0.975558 0.305478 2.341805152028776e-38
0.952341 0.969570 0.305661 2.341805152028776e-38
0.956273 0.961510 0.305189 2.341805152028776e-38
0.962910 0.956192 0.305587 2.341805152028776e-38
0.968125 0.949464 0.305537 2.341805152028776e-38
0.976097 0.945425 0.306357 2.341805152028776e-38
0.981230 0.938636 0.306292 2.341805152028776e-38
0.986968 0.932547 0.306455 2.341805152028776e-38
0.991241 0.925095 0.306170 2.341805152028776e-38
0.999047 0.920933 0.306978 2.341805152028776e-38
1.003233 0.913430 0.306675 2.341805152028776e-38
1.010267 0.908521 0.307245 2.341805152028776e-38
1.016495 0.902969 0.307605 2.341805152028776e-38
1.021951 0.896744 0.307739 2.341805152028776e-38
1.025894 0.889211 0.307422 2.341805152028776e-38
1.033489 0.884837 0.308202 2.341805152028776e-38
1.038090 0.877888 0.308089 2.341805152028776e-38
1.044108 0.872204 0.308422 2.341805152028776e-38
1.050820 0.867132 0.308978 2.341805152028776e-38
1.055242 0.860166 0.308863 2.341805152028776e-38
1.060377 0.853791 0.308959 2.341805152028776e-38
1.063949 0.846175 0.308605 2.341805152028776e-38
1.071287 0.841578 0.309355 2.341805152028776e-38
1.076253 0.835183 0.309450 2.341805152028776e-38
1.079633 0.827574 0.309094 2.341805152028776e-38
1.084515 0.821136 0.309173 2.341805152028776e-38
1.090141 0.815255 0.309464 2.341805152028776e-38
1.095735 0.809340 0.309747 2.341805152028776e-38
1.104397 0.805749 0.310932 2.341805152028776e-38
1.111468 0.800954 0.311668 2.341805152028776e-38
1.114548 0.793279 0.311287 2.341805152028776e-38
1.119172 0.786721 0.311341 2.341805152028776e-38
1.125360 0.781251 0.311830 2.341805152028776e-38
1.129884 0.774672 0.311881 2.341805152028776e-38
1.135153 0.768648 0.312159 2.341805152028776e-38
1.140390 0.762593 0.312428 2.341805152028776e-38
1.143968 0.755432 0.312245 2.341805152028776e-38
1.147501 0.748258 0.312054 2.341805152028776e-38
1.152622 0.742136 0.312301 2.341805152028776e-38
1.158489 0.736566 0.312788 2.341805152028776e-38
1.166808 0.732512 0.313934 2.341805152028776e-38
1.170974 0.725822 0.313960 2.341805152028776e-38
1.172607 0.717586 0.313312 2.341805152028776e-38
1.178357 0.711878 0.313766 2.341805152028776e-38
1.184046 0.706179 0.314233 2.341805152028776e-38
1.188853 0.699969 0.314479 2.341805152028776e-38
1.193627 0.693731 0.314717 2.341805152028776e-38
1.199215 0.687950 0.315169 2.341805152028776e-38
1.202230 0.680691 0.314947 2.341805152028776e-38
1.207746 0.674863 0.315388 2.341805152028776e-38
1.211489 0.668114 0.315404 2.341805152028776e-38
1.215194 0.661347 0.315412 2.341805152028776e-38
1.221438 0.655947 0.316078 2.341805152028776e-38
1.228522 0.650959 0.316959 2.341805152028776e-38
1.231267 0.643657 0.316720 2.341805152028776e-38
1.234807 0.636841 0.316718 2.341805152028776e-38
1.239163 0.630476 0.316942 2.341805152028776e-38
1.244357 0.624523 0.317381 2.341805152028776e-38
1.251271 0.619402 0.318256 2.341805152028776e-38
1.256413 0.613372 0.318679 2.341805152028776e-38
1.265919 0.609425 0.320206 2.341805152028776e-38
0.889456 1.053329 0.300479 2.341805152028776e-38
0.886656 1.036407 0.297518 2.341805152028776e-38
0.886173 1.022573 0.295410 2.341805152028776e-38
0.895862 1.020537 0.296706 2.341805152028776e-38
0.902965 1.015501 0.297140 2.341805152028776e-38
0.908080 1.008240 0.296925 2.341805152028776e-38
0.913139 1.000957 0.296701 2.341805152028776e-38
0.918080 0.993706 0.296483 2.341805152028776e-38
0.926296 0.990007 0.297329 2.341805152028776e-38
0.931144 0.982701 0.297096 2.341805152028776e-38
0.940670 0.980309 0.298355 2.341805152028776e-38
0.947481 0.975035 0.298748 2.341805152028776e-38
0.952847 0.968366 0.298716 2.341805152028776e-38
0.956767 0.960306 0.298252 2.341805152028776e-38
0.964091 0.955675 0.298854 2.341805152028776e-38
0.969302 0.948942 0.298802 2.341805152028776e-38
0.976573 0.944221 0.299387 2.341805152028776e-38
0.982382 0.938126 0.299542 2.341805152028776e-38
0.987406 0.931364 0.299484 2.341805152028776e-38
0.993813 0.925908 0.299849 2.341805152028776e-38
1.000191 0.920412 0.300206 2.341805152028776e-38
1.004372 0.912904 0.299907 2.341805152028776e-38
1.009940 0.906698 0.300035 2.341805152028776e-38
1.015418 0.900513 0.300171 2.341805152028776e-38
1.021593 0.894941 0.300515 2.341805152028776e-38
1.027738 0.889329 0.300851 2.341805152028776e-38
1.035337 0.884947 0.301611 2.341805152028776e-38
1.039937 0.877989 0.301498 2.341805152028776e-38
1.044437 0.871069 0.301397 2.341805152028776e-38
1.048884 0.864136 0.301289 2.341805152028776e-38
1.054801 0.858416 0.301605 2.341805152028776e-38
1.059927 0.852047 0.301697 2.341805152028776e-38
1.067307 0.847471 0.302431 2.341805152028776e-38
1.073868 0.842277 0.302954 2.341805152028776e-38
1.075751 0.833478 0.302177 2.341805152028776e-38
1.079893 0.826468 0.302043 2.341805152028776e-38
1.085548 0.820619 0.302333 2.341805152028776e-38
1.091172 0.814735 0.302616 2.341805152028776e-38
1.099891 0.811152 0.303765 2.341805152028776e-38
1.105409 0.805247 0.304056 2.341805152028776e-38
1.110103 0.798738 0.304122 2.341805152028776e-38
1.112372 0.790508 0.303528 2.341805152028776e-38
1.117779 0.784525 0.303795 2.341805152028776e-38
1.125561 0.780178 0.304705 2.341805152028776e-38
1.130058 0.773627 0.304762 2.341805152028776e-38
1.132896 0.765964 0.304379 2.341805152028776e-38
1.138930 0.760466 0.304857 2.341805152028776e-38
1.144124 0.754390 0.305109 2.341805152028776e-38
1.147650 0.747217 0.304918 2.341805152028776e-38
1.153566 0.741653 0.305386 2.341805152028776e-38
1.160257 0.736603 0.306077 2.341805152028776e-38
1.165274 0.730467 0.306325 2.341805152028776e-38
1.167769 0.722761 0.305913 2.341805152028776e-38
1.172712 0.716580 0.306144 2.341805152028776e-38
1.178453 0.710881 0.306589 2.341805152028776e-38
1.183285 0.704707 0.306834 2.341805152028776e-38
1.188926 0.698998 0.307289 2.341805152028776e-38
1.192008 0.691781 0.307083 2.341805152028776e-38
1.195893 0.685041 0.307087 2.341805152028776e-38
1.203989 0.680685 0.308171 2.341805152028776e-38
1.210338 0.675357 0.308831 2.341805152028776e-38
1.213228 0.668123 0.308626 2.341805152028776e-38
1.217791 0.661815 0.308847 2.341805152028776e-38
1.223181 0.655941 0.309278 2.341805152028776e-38
1.229407 0.650488 0.309918 2.341805152028776e-38
1.232142 0.643192 0.309685 2.341805152028776e-38
1.234796 0.635951 0.309473 2.341805152028776e-38
1.238278 0.629146 0.309472 2.341805152028776e-38
1.244340 0.623637 0.310115 2.341805152028776e-38
1.253004 0.619382 0.311402 2.341805152028776e-38
1.257271 0.612917 0.311595 2.341805152028776e-38
1.263242 0.607311 0.312233 2.341805152028776e-38
0.915998 1.082683 0.302065 2.341805152028776e-38
0.892978 1.041845 0.292505 2.341805152028776e-38
0.885461 1.019848 0.288148 2.341805152028776e-38
0.895140 1.017822 0.289413 2.341805152028776e-38
0.903528 1.014254 0.290253 2.341805152028776e-38
0.909942 1.008445 0.290458 2.341805152028776e-38
0.913667 0.999720 0.289821 2.341805152028776e-38
0.921248 0.995346 0.290445 2.341805152028776e-38
0.928810 0.990917 0.291061 2.341805152028776e-38
0.935680 0.985725 0.291460 2.341805152028776e-38
0.943199 0.981193 0.292061 2.341805152028776e-38
0.947970 0.973806 0.291814 2.341805152028776e-38
0.953307 0.967155 0.291786 2.341805152028776e-38
0.960668 0.962555 0.292380 2.341805152028776e-38
0.965925 0.955840 0.292336 2.341805152028776e-38
0.972534 0.950465 0.292704 2.341805152028776e-38
0.977706 0.943690 0.292643 2.341805152028776e-38
0.983491 0.937611 0.292798 2.341805152028776e-38
0.992069 0.934195 0.293793 2.341805152028776e-38
0.995632 0.926051 0.293304 2.341805152028776e-38
1.002012 0.920546 0.293651 2.341805152028776e-38
1.006914 0.913686 0.293567 2.341805152028776e-38
1.012467 0.907488 0.293696 2.341805152028776e-38
1.018682 0.901939 0.294039 2.341805152028776e-38
1.024867 0.896349 0.294373 2.341805152028776e-38
1.031761 0.891359 0.294911 2.341805152028776e-38
1.037889 0.885687 0.295229 2.341805152028776e-38
1.041731 0.878101 0.294909 2.341805152028776e-38
1.045472 0.870554 0.294598 2.341805152028776e-38
1.049915 0.863617 0.294490 2.341805152028776e-38
1.056589 0.858509 0.295009 2.341805152028776e-38
1.063239 0.853355 0.295520 2.341805152028776e-38
1.069866 0.848155 0.296023 2.341805152028776e-38
1.074104 0.841165 0.295904 2.341805152028776e-38
1.076748 0.832964 0.295354 2.341805152028776e-38
1.080886 0.825951 0.295219 2.341805152028776e-38
1.087319 0.820687 0.295713 2.341805152028776e-38
1.093728 0.815378 0.296199 2.341805152028776e-38
1.099289 0.809489 0.296480 2.341805152028776e-38
1.107169 0.805315 0.297398 2.341805152028776e-38
1.110276 0.797657 0.297036 2.341805152028776e-38
1.114129 0.790559 0.296877 2.341805152028776e-38
1.120338 0.785129 0.297347 2.341805152028776e-38
1.125701 0.779122 0.297604 2.341805152028776e-38
1.129381 0.772026 0.297447 2.341805152028776e-38
1.135447 0.766556 0.297919 2.341805152028776e-38
1.139861 0.759961 0.297958 2.341805152028776e-38
1.145053 0.753882 0.298202 2.341805152028776e-38
1.151033 0.748303 0.298650 2.341805152028776e-38
1.156114 0.742221 0.298903 2.341805152028776e-38
1.161162 0.736112 0.299151 2.341805152028776e-38
1.162864 0.727900 0.298540 2.341805152028776e-38
1.166172 0.720722 0.298346 2.341805152028776e-38
1.169437 0.713534 0.298143 2.341805152028776e-38
1.177653 0.709399 0.299225 2.341805152028776e-38
1.181638 0.702731 0.299249 2.341805152028776e-38
1.186428 0.696538 0.299478 2.341805152028776e-38
1.192031 0.690808 0.299912 2.341805152028776e-38
1.198455 0.685524 0.300550 2.341805152028776e-38
1.203151 0.679240 0.300758 2.341805152028776e-38
1.210333 0.674419 0.301625 2.341805152028776e-38
1.214929 0.668129 0.301845 2.341805152028776e-38
1.220352 0.662279 0.302271 2.341805152028776e-38
1.220579 0.653625 0.301413 2.341805152028776e-38
1.223340 0.646362 0.301184 2.341805152028776e-38
1.226030 0.639135 0.300968 2.341805152028776e-38
1.231267 0.633270 0.301396 2.341805152028776e-38
1.238220 0.628254 0.302241 2.341805152028776e-38
1.245154 0.623185 0.303079 2.341805152028776e-38
1.251194 0.617629 0.303696 2.341805152028776e-38
1.258087 0.612462 0.304520 2.341805152028776e-38
1.263158 0.606462 0.304944 2.341805152028776e-38
0.927409 1.094119 0.298396 2.341805152028776e-38
0.894174 1.041335 0.285792 2.341805152028776e-38
0.887268 1.020070 0.281734 2.341805152028776e-38
0.896308 1.017301 0.282764 2.341805152028776e-38
0.904697 1.013730 0.283584 2.341805152028776e-38
0.909138 1.005738 0.283169 2.341805152028776e-38
0.916787 1.001370 0.283776 2.341805152028776e-38
0.924380 0.996979 0.284384 2.341805152028776e-38
0.929275 0.989680 0.284166 2.341805152028776e-38
0.936813 0.985198 0.284758 2.341805152028776e-38
0.942295 0.978547 0.284728 2.341805152028776e-38
0.947712 0.971885 0.284694 2.341805152028776e-38
0.954409 0.966633 0.285075 2.341805152028776e-38
0.959694 0.959953 0.285037 2.341805152028776e-38
0.967021 0.955311 0.285608 2.341805152028776e-38
0.972227 0.948566 0.285554 2.341805152028776e-38
0.978793 0.943156 0.285905 2.341805152028776e-38
0.985267 0.937764 0.286265 2.341805152028776e-38
0.990999 0.931659 0.286411 2.341805152028776e-38
0.995260 0.924190 0.286137 2.341805152028776e-38
1.000187 0.917368 0.286061 2.341805152028776e-38
1.006519 0.911836 0.286389 2.341805152028776e-38
1.014957 0.908273 0.287345 2.341805152028776e-38
1.019711 0.901415 0.287264 2.341805152028776e-38
1.025157 0.895179 0.287382 2.341805152028776e-38
1.031306 0.889551 0.287699 2.341805152028776e-38
1.039659 0.885787 0.288627 2.341805152028776e-38
1.042730 0.877585 0.288113 2.341805152028776e-38
1.047218 0.870659 0.288013 2.341805152028776e-38
1.050905 0.863093 0.287698 2.341805152028776e-38
1.057577 0.857982 0.288202 2.341805152028776e-38
1.062700 0.851601 0.288285 2.341805152028776e-38
1.071602 0.848248 0.289402 2.341805152028776e-38
1.074295 0.840047 0.288870 2.341805152028776e-38
1.078478 0.833043 0.288744 2.341805152028776e-38
1.084171 0.827209 0.289025 2.341805152028776e-38
1.091395 0.822516 0.289712 2.341805152028776e-38
1.094678 0.814849 0.289355 2.341805152028776e-38
1.102581 0.810720 0.290258 2.341805152028776e-38
1.107307 0.804229 0.290323 2.341805152028776e-38
1.112790 0.798283 0.290588 2.341805152028776e-38
1.116646 0.791172 0.290430 2.341805152028776e-38
1.120456 0.784047 0.290264 2.341805152028776e-38
1.126598 0.778622 0.290730 2.341805152028776e-38
1.133506 0.773729 0.291404 2.341805152028776e-38
1.138773 0.767691 0.291656 2.341805152028776e-38
1.143194 0.761079 0.291691 2.341805152028776e-38
1.148393 0.754981 0.291926 2.341805152028776e-38
1.154364 0.749408 0.292370 2.341805152028776e-38
1.156980 0.741730 0.291993 2.341805152028776e-38
1.161199 0.735095 0.292024 2.341805152028776e-38
1.159574 0.724810 0.290592 2.341805152028776e-38
1.168690 0.721249 0.291854 2.341805152028776e-38
1.181145 0.719646 0.293940 2.341805152028776e-38
1.188543 0.714971 0.294798 2.341805152028776e-38
1.184990 0.703748 0.292948 2.341805152028776e-38
1.187255 0.696054 0.292545 2.341805152028776e-38
1.193705 0.690810 0.293173 2.341805152028776e-38
1.199283 0.685034 0.293586 2.341805152028776e-38
1.203957 0.678777 0.293799 2.341805152028776e-38
1.211995 0.674429 0.294851 2.341805152028776e-38
1.214878 0.667190 0.294647 2.341805152028776e-38
1.222878 0.662740 0.295684 2.341805152028776e-38
1.230003 0.657763 0.296505 2.341805152028776e-38
1.232783 0.650454 0.296280 2.341805152028776e-38
1.229403 0.640042 0.294623 2.341805152028776e-38
1.231167 0.632372 0.294205 2.341805152028776e-38
1.238992 0.627801 0.295236 2.341805152028776e-38
1.248554 0.624041 0.296675 2.341805152028776e-38
1.254601 0.618468 0.297275 2.341805152028776e-38
1.257963 0.611607 0.297262 2.341805152028776e-38
1.263915 0.606033 0.297881 2.341805152028776e-38
0.941353 1.108540 0.295379 2.341805152028776e-38
0.904274 1.051219 0.281873 2.341805152028776e-38
0.892253 1.023978 0.276312 2.341805152028776e-38
0.899378 1.018978 0.276719 2.341805152028776e-38
0.907128 1.014660 0.277319 2.341805152028776e-38
0.912229 1.007381 0.277111 2.341805152028776e-38
0.918546 1.001570 0.277308 2.341805152028776e-38
0.926144 0.997171 0.277900 2.341805152028776e-38
0.932380 0.991291 0.278085 2.341805152028776e-38
0.938578 0.985374 0.278262 2.341805152028776e-38
0.944060 0.978715 0.278230 2.341805152028776e-38
0.949457 0.972062 0.278200 2.341805152028776e-38
0.952024 0.962623 0.277366 2.341805152028776e-38
0.955203 0.953884 0.276724 2.341805152028776e-38
0.963193 0.949961 0.277480 2.341805152028776e-38
0.975382 0.950077 0.279435 2.341805152028776e-38
0.980526 0.943312 0.279378 2.341805152028776e-38
0.987002 0.937912 0.279728 2.341805152028776e-38
0.992021 0.931129 0.279668 2.341805152028776e-38
0.996276 0.923656 0.279398 2.341805152028776e-38
1.003366 0.918814 0.279925 2.341805152028776e-38
1.011153 0.914587 0.280650 2.341805152028776e-38
1.016679 0.908401 0.280778 2.341805152028776e-38
1.017761 0.898294 0.279689 2.341805152028776e-38
1.021712 0.890785 0.279397 2.341805152028776e-38
1.028578 0.885819 0.279906 2.341805152028776e-38
1.035421 0.880806 0.280406 2.341805152028776e-38
1.044437 0.877693 0.281524 2.341805152028776e-38
1.048171 0.870134 0.281222 2.341805152028776e-38
1.054123 0.864428 0.281519 2.341805152028776e-38
1.059285 0.858067 0.281605 2.341805152028776e-38
1.066702 0.853513 0.282290 2.341805152028776e-38
1.070223 0.845910 0.281970 2.341805152028776e-38
1.075215 0.839528 0.282055 2.341805152028776e-38
1.081719 0.834315 0.282537 2.341805152028776e-38
1.088200 0.829056 0.283011 2.341805152028776e-38
1.091526 0.821398 0.282667 2.341805152028776e-38
1.097924 0.816093 0.283134 2.341805152028776e-38
1.101892 0.809049 0.283001 2.341805152028776e-38
1.110573 0.805438 0.284076 2.341805152028776e-38
1.111288 0.796054 0.283115 2.341805152028776e-38
1.116727 0.790085 0.283364 2.341805152028776e-38
1.121330 0.783525 0.283403 2.341805152028776e-38
1.129066 0.779232 0.284269 2.341805152028776e-38
1.134363 0.773223 0.284519 2.341805152028776e-38
1.140440 0.767729 0.284965 2.341805152028776e-38
1.144861 0.761108 0.284997 2.341805152028776e-38
1.148425 0.753928 0.284817 2.341805152028776e-38
1.152729 0.747318 0.284852 2.341805152028776e-38
1.157804 0.741235 0.285090 2.341805152028776e-38
1.162848 0.735120 0.285321 2.341805152028776e-38
1.163707 0.726382 0.284528 2.341805152028776e-38
1.180342 0.727423 0.287586 2.341805152028776e-38
1.195335 0.727308 0.290240 2.341805152028776e-38
1.190188 0.714993 0.288031 2.341805152028776e-38
1.189151 0.705261 0.286829 2.341805152028776e-38
1.192267 0.698040 0.286635 2.341805152028776e-38
1.197883 0.692279 0.287043 2.341805152028776e-38
1.200921 0.685025 0.286833 2.341805152028776e-38
1.206429 0.679272 0.287254 2.341805152028776e-38
1.211052 0.673009 0.287466 2.341805152028776e-38
1.216502 0.667189 0.287873 2.341805152028776e-38
1.230535 0.665993 0.290305 2.341805152028776e-38
1.241138 0.662820 0.291916 2.341805152028776e-38
1.233528 0.650005 0.289269 2.341805152028776e-38
1.234481 0.641850 0.288662 2.341805152028776e-38
1.237124 0.634600 0.288455 2.341805152028776e-38
1.245840 0.630440 0.289661 2.341805152028776e-38
1.251920 0.624894 0.290251 2.341805152028776e-38
1.256218 0.618440 0.290428 2.341805152028776e-38
1.257799 0.610749 0.290021 2.341805152028776e-38
1.269047 0.607715 0.291840 2.341805152028776e-38
0.940032 1.105040 0.287518 2.341805152028776e-38
0.903480 1.048468 0.274520 2.341805152028776e-38
0.897855 1.028621 0.271033 2.341805152028776e-38
0.903711 1.022118 0.271041 2.341805152028776e-38
0.910175 1.016314 0.271235 2.341805152028776e-38
0.914623 1.008294 0.270836 2.341805152028776e-38
0.921592 1.003208 0.271225 2.341805152028776e-38
0.926530 0.995921 0.271021 2.341805152028776e-38
0.932758 0.990041 0.271199 2.341805152028776e-38
0.938272 0.983415 0.271174 2.341805152028776e-38
0.945103 0.978171 0.271532 2.341805152028776e-38
0.945677 0.966625 0.270134 2.341805152028776e-38
0.944062 0.953032 0.268141 2.341805152028776e-38
0.950649 0.947807 0.268492 2.341805152028776e-38
0.961400 0.946667 0.270012 2.341805152028776e-38
0.973580 0.946799 0.271918 2.341805152028776e-38
0.982927 0.944141 0.273044 2.341805152028776e-38
0.989409 0.938729 0.273384 2.341805152028776e-38
0.995863 0.933274 0.273717 2.341805152028776e-38
1.000128 0.925780 0.273451 2.341805152028776e-38
1.007957 0.921579 0.274161 2.341805152028776e-38
1.010651 0.912746 0.273494 2.341805152028776e-38
1.015435 0.905912 0.273421 2.341805152028776e-38
1.014289 0.893871 0.271763 2.341805152028776e-38
1.016731 0.885097 0.271082 2.341805152028776e-38
1.023565 0.880165 0.271575 2.341805152028776e-38
1.035594 0.879641 0.273446 2.341805152028776e-38
1.044602 0.876537 0.274538 2.341805152028776e-38
1.052855 0.872733 0.275425 2.341805152028776e-38
1.057308 0.865758 0.275318 2.341805152028776e-38
1.062477 0.859380 0.275400 2.341805152028776e-38
1.068374 0.853585 0.275671 2.341805152028776e-38
1.074183 0.847818 0.275957 2.341805152028776e-38
1.077639 0.840209 0.275642 2.341805152028776e-38
1.081820 0.833190 0.275517 2.341805152028776e-38
1.086736 0.826746 0.275582 2.341805152028776e-38
1.093181 0.821453 0.276035 2.341805152028776e-38
1.094052 0.812074 0.275111 2.341805152028776e-38
1.096415 0.803895 0.274582 2.341805152028776e-38
1.100308 0.796870 0.274441 2.341805152028776e-38
1.111331 0.794961 0.276074 2.341805152028776e-38
1.119167 0.790690 0.276908 2.341805152028776e-38
1.123753 0.784143 0.276952 2.341805152028776e-38
1.126655 0.776500 0.276607 2.341805152028776e-38
1.133558 0.771610 0.277245 2.341805152028776e-38
1.140442 0.766669 0.277876 2.341805152028776e-38
1.144857 0.760050 0.277904 2.341805152028776e-38
1.150048 0.753953 0.278125 2.341805152028776e-38
1.155160 0.747888 0.278362 2.341805152028776e-38
1.159414 0.741264 0.278393 2.341805152028776e-38
1.166117 0.736188 0.279012 2.341805152028776e-38
1.166977 0.727433 0.278235 2.341805152028776e-38
1.180296 0.726402 0.280425 2.341805152028776e-38
1.185227 0.720209 0.280645 2.341805152028776e-38
1.189273 0.713500 0.280666 2.341805152028776e-38
1.193281 0.706771 0.280679 2.341805152028776e-38
1.196404 0.699528 0.280487 2.341805152028776e-38
1.196938 0.690806 0.279692 2.341805152028776e-38
1.202503 0.685040 0.280090 2.341805152028776e-38
1.205448 0.677841 0.279905 2.341805152028776e-38
1.211779 0.672536 0.280505 2.341805152028776e-38
1.218947 0.667656 0.281297 2.341805152028776e-38
1.229548 0.664583 0.282874 2.341805152028776e-38
1.235827 0.659111 0.283452 2.341805152028776e-38
1.235102 0.650010 0.282465 2.341805152028776e-38
1.236051 0.641847 0.281869 2.341805152028776e-38
1.242182 0.636378 0.282457 2.341805152028776e-38
1.247416 0.630422 0.282838 2.341805152028776e-38
1.252621 0.624431 0.283212 2.341805152028776e-38
1.256019 0.617576 0.283198 2.341805152028776e-38
1.262002 0.612026 0.283789 2.341805152028776e-38
1.266194 0.605587 0.283976 2.341805152028776e-38
0.913177 1.071643 0.272110 2.341805152028776e-38
0.900067 1.042735 0.266440 2.341805152028776e-38
0.897615 1.026606 0.263985 2.341805152028776e-38
0.901504 1.017903 0.263419 2.341805152028776e-38
0.907941 1.012117 0.263606 2.341805152028776e-38
0.911680 1.003402 0.263028 2.341805152028776e-38
0.919950 0.999783 0.263786 2.341805152028776e-38
0.924864 0.992509 0.263584 2.341805152028776e-38
0.933765 0.989499 0.264519 2.341805152028776e-38
0.939275 0.982869 0.264493 2.341805152028776e-38
0.944048 0.975513 0.264269 2.341805152028776e-38
0.945271 0.964686 0.263096 2.341805152028776e-38
0.947088 0.954581 0.262105 2.341805152028776e-38
0.955773 0.951417 0.263020 2.341805152028776e-38
0.963755 0.947496 0.263736 2.341805152028776e-38
0.973134 0.944881 0.264828 2.341805152028776e-38
0.983164 0.942927 0.266122 2.341805152028776e-38
0.987503 0.935491 0.265876 2.341805152028776e-38
0.993221 0.929380 0.266006 2.341805152028776e-38
0.998902 0.923237 0.266129 2.341805152028776e-38
1.006719 0.919046 0.266820 2.341805152028776e-38
1.010832 0.911557 0.266556 2.341805152028776e-38
1.017805 0.906682 0.267059 2.341805152028776e-38
1.015916 0.893979 0.265247 2.341805152028776e-38
1.019096 0.885842 0.264772 2.341805152028776e-38
1.027425 0.882176 0.265637 2.341805152028776e-38
1.038710 0.881016 0.267275 2.341805152028776e-38
1.043971 0.874745 0.267375 2.341805152028776e-38
1.053730 0.872199 0.268624 2.341805152028776e-38
1.056659 0.863978 0.268131 2.341805152028776e-38
1.061818 0.857606 0.268209 2.341805152028776e-38
1.068455 0.852449 0.268671 2.341805152028776e-38
1.072715 0.845471 0.268561 2.341805152028776e-38
1.075381 0.837270 0.268059 2.341805152028776e-38
1.083432 0.833256 0.268900 2.341805152028776e-38
1.087567 0.826211 0.268768 2.341805152028776e-38
1.094010 0.820918 0.269208 2.341805152028776e-38
1.093278 0.810388 0.267924 2.341805152028776e-38
1.095628 0.802216 0.267405 2.341805152028776e-38
1.106665 0.800371 0.269004 2.341805152028776e-38
1.113726 0.795575 0.269630 2.341805152028776e-38
1.117562 0.788464 0.269475 2.341805152028776e-38
1.123726 0.783074 0.269910 2.341805152028776e-38
1.129044 0.777101 0.270151 2.341805152028776e-38
1.135142 0.771648 0.270578 2.341805152028776e-38
1.142844 0.767246 0.271384 2.341805152028776e-38
1.147262 0.760615 0.271409 2.341805152028776e-38
1.147514 0.751307 0.270470 2.341805152028776e-38
1.155907 0.747389 0.271473 2.341805152028776e-38
1.160159 0.740762 0.271501 2.341805152028776e-38
1.168522 0.736730 0.272489 2.341805152028776e-38
1.171046 0.729000 0.272115 2.341805152028776e-38
1.176857 0.723332 0.272511 2.341805152028776e-38
1.184276 0.718705 0.273310 2.341805152028776e-38
1.188313 0.712003 0.273328 2.341805152028776e-38
1.190624 0.704282 0.272951 2.341805152028776e-38
1.194579 0.697550 0.272954 2.341805152028776e-38
1.199347 0.691289 0.273143 2.341805152028776e-38
1.204898 0.685540 0.273541 2.341805152028776e-38
1.207845 0.678329 0.273356 2.341805152028776e-38
1.213323 0.672536 0.273746 2.341805152028776e-38
1.220496 0.667648 0.274515 2.341805152028776e-38
1.226789 0.662238 0.275084 2.341805152028776e-38
1.231310 0.655887 0.275269 2.341805152028776e-38
1.236638 0.650011 0.275659 2.341805152028776e-38
1.238455 0.642293 0.275268 2.341805152028776e-38
1.241972 0.635471 0.275258 2.341805152028776e-38
1.246326 0.629076 0.275433 2.341805152028776e-38
1.249770 0.622217 0.275408 2.341805152028776e-38
1.254897 0.616276 0.275792 2.341805152028776e-38
1.259994 0.610306 0.276172 2.341805152028776e-38
1.265062 0.604302 0.276545 2.341805152028776e-38
1.311818 0.617914 0.286006 2.341805152028776e-38
0.908502 1.064386 0.263594 2.341805152028776e-38
0.898523 1.039224 0.258986 2.341805152028776e-38
0.894737 1.021628 0.256218 2.341805152028776e-38
0.901850 1.016621 0.256591 2.341805152028776e-38
0.906965 1.009373 0.256400 2.341805152028776e-38
0.911987 1.002136 0.256210 2.341805152028776e-38
0.918254 0.996350 0.256390 2.341805152028776e-38
0.925826 0.991963 0.256935 2.341805152028776e-38
0.932704 0.986808 0.257287 2.341805152028776e-38
0.939555 0.981607 0.257631 2.341805152028776e-38
0.944983 0.974973 0.257602 2.341805152028776e-38
0.948259 0.966246 0.257015 2.341805152028776e-38
0.952849 0.958912 0.256793 2.341805152028776e-38
0.956687 0.950868 0.256377 2.341805152028776e-38
0.965371 0.947631 0.257261 2.341805152028776e-38
0.974037 0.944339 0.258141 2.341805152028776e-38
0.983357 0.941707 0.259215 2.341805152028776e-38
0.987686 0.934272 0.258974 2.341805152028776e-38
0.993397 0.928163 0.259098 2.341805152028776e-38
0.999070 0.922021 0.259216 2.341805152028776e-38
1.006156 0.917170 0.259700 2.341805152028776e-38
1.013158 0.912333 0.260196 2.341805152028776e-38
1.017937 0.905489 0.260122 2.341805152028776e-38
1.020456 0.896677 0.259478 2.341805152028776e-38
1.025132 0.889801 0.259389 2.341805152028776e-38
1.031253 0.884183 0.259667 2.341805152028776e-38
1.038793 0.879848 0.260330 2.341805152028776e-38
1.047060 0.876100 0.261177 2.341805152028776e-38
1.053049 0.870409 0.261454 2.341805152028776e-38
1.055203 0.861573 0.260783 2.341805152028776e-38
1.059583 0.854595 0.260668 2.341805152028776e-38
1.065418 0.848862 0.260934 2.341805152028776e-38
1.071199 0.843120 0.261202 2.341805152028776e-38
1.075399 0.836135 0.261086 2.341805152028776e-38
1.083448 0.832123 0.261903 2.341805152028776e-38
1.088357 0.825673 0.261961 2.341805152028776e-38
1.094780 0.820399 0.262395 2.341805152028776e-38
1.097195 0.812203 0.261894 2.341805152028776e-38
1.101930 0.805749 0.261951 2.341805152028776e-38
1.107424 0.799844 0.262189 2.341805152028776e-38
1.112886 0.793904 0.262420 2.341805152028776e-38
1.119917 0.789069 0.263023 2.341805152028776e-38
1.125268 0.783123 0.263263 2.341805152028776e-38
1.128969 0.776031 0.263118 2.341805152028776e-38
1.136688 0.771682 0.263909 2.341805152028776e-38
1.142763 0.766179 0.264315 2.341805152028776e-38
1.143900 0.757381 0.263582 2.341805152028776e-38
1.148218 0.750806 0.263616 2.341805152028776e-38
1.154139 0.745288 0.264026 2.341805152028776e-38
1.160035 0.739729 0.264428 2.341805152028776e-38
1.165904 0.734129 0.264823 2.341805152028776e-38
1.170080 0.727452 0.264833 2.341805152028776e-38
1.174192 0.720790 0.264848 2.341805152028776e-38
1.181600 0.716180 0.265625 2.341805152028776e-38
1.185623 0.709494 0.265640 2.341805152028776e-38
1.189609 0.702789 0.265647 2.341805152028776e-38
1.196949 0.698042 0.266403 2.341805152028776e-38
1.201713 0.691781 0.266589 2.341805152028776e-38
1.203843 0.684096 0.266225 2.341805152028776e-38
1.207637 0.677373 0.266231 2.341805152028776e-38
1.213112 0.671582 0.266608 2.341805152028776e-38
1.217699 0.665284 0.266789 2.341805152028776e-38
1.226574 0.661289 0.267907 2.341805152028776e-38
1.232806 0.655892 0.268474 2.341805152028776e-38
1.236398 0.649097 0.268475 2.341805152028776e-38
1.238208 0.641381 0.268090 2.341805152028776e-38
1.241719 0.634562 0.268077 2.341805152028776e-38
1.246070 0.628168 0.268245 2.341805152028776e-38
1.250372 0.621777 0.268417 2.341805152028776e-38
1.253732 0.614974 0.268414 2.341805152028776e-38
1.260592 0.609867 0.269159 2.341805152028776e-38
1.263888 0.603015 0.269142 2.341805152028776e-38
0.924214 1.081043 0.260941 2.341805152028776e-38
0.903364 1.043140 0.253381 2.341805152028776e-38
0.895044 1.020337 0.249416 2.341805152028776e-38
0.900190 1.013126 0.249235 2.341805152028776e-38
0.907255 1.008084 0.249590 2.341805152028776e-38
0.913574 1.002317 0.249768 2.341805152028776e-38
0.920509 0.997247 0.250124 2.341805152028776e-38
0.928089 0.992848 0.250653 2.341805152028776e-38
0.935650 0.988395 0.251176 2.341805152028776e-38
0.941831 0.982469 0.251329 2.341805152028776e-38
0.945876 0.974428 0.250940 2.341805152028776e-38
0.951212 0.967801 0.250912 2.341805152028776e-38
0.956502 0.961148 0.250876 2.341805152028776e-38
0.962445 0.955161 0.251015 2.341805152028776e-38
0.969755 0.950515 0.251511 2.341805152028776e-38
0.976307 0.945163 0.251825 2.341805152028776e-38
0.982795 0.939802 0.252142 2.341805152028776e-38
0.989255 0.934398 0.252451 2.341805152028776e-38
0.993528 0.926940 0.252206 2.341805152028776e-38
0.997748 0.919467 0.251953 2.341805152028776e-38
1.004076 0.913983 0.252246 2.341805152028776e-38
1.010329 0.908504 0.252544 2.341805152028776e-38
1.018759 0.904944 0.253384 2.341805152028776e-38
1.023487 0.898074 0.253303 2.341805152028776e-38
1.028170 0.891182 0.253214 2.341805152028776e-38
1.034295 0.885553 0.253486 2.341805152028776e-38
1.042585 0.881850 0.254316 2.341805152028776e-38
1.047851 0.875560 0.254408 2.341805152028776e-38
1.050047 0.866737 0.253759 2.341805152028776e-38
1.052937 0.858542 0.253286 2.341805152028776e-38
1.060359 0.854046 0.253906 2.341805152028776e-38
1.069252 0.850779 0.254903 2.341805152028776e-38
1.074272 0.844408 0.254978 2.341805152028776e-38
1.076926 0.836201 0.254496 2.341805152028776e-38
1.081859 0.829789 0.254557 2.341805152028776e-38
1.087539 0.823944 0.254794 2.341805152028776e-38
1.093936 0.818698 0.255222 2.341805152028776e-38
1.100290 0.813431 0.255650 2.341805152028776e-38
1.102651 0.805221 0.255152 2.341805152028776e-38
1.110534 0.801038 0.255933 2.341805152028776e-38
1.116804 0.795653 0.256340 2.341805152028776e-38
1.122223 0.789687 0.256565 2.341805152028776e-38
1.126771 0.783168 0.256613 2.341805152028776e-38
1.131282 0.776625 0.256653 2.341805152028776e-38
1.136568 0.770610 0.256870 2.341805152028776e-38
1.140189 0.763469 0.256712 2.341805152028776e-38
1.143757 0.756325 0.256551 2.341805152028776e-38
1.149706 0.750840 0.256954 2.341805152028776e-38
1.154803 0.744782 0.257167 2.341805152028776e-38
1.160697 0.739220 0.257556 2.341805152028776e-38
1.164902 0.732571 0.257571 2.341805152028776e-38
1.170739 0.726938 0.257946 2.341805152028776e-38
1.176505 0.721328 0.258336 2.341805152028776e-38
1.181399 0.715178 0.258539 2.341805152028776e-38
1.184572 0.707991 0.258366 2.341805152028776e-38
1.193629 0.704289 0.259475 2.341805152028776e-38
1.196735 0.697048 0.259288 2.341805152028776e-38
1.198920 0.689346 0.258925 2.341805152028776e-38
1.202743 0.682649 0.258936 2.341805152028776e-38
1.207387 0.676413 0.259124 2.341805152028776e-38
1.212859 0.670626 0.259488 2.341805152028776e-38
1.219167 0.665271 0.260030 2.341805152028776e-38
1.224578 0.659418 0.260386 2.341805152028776e-38
1.232529 0.654972 0.261310 2.341805152028776e-38
1.236986 0.648636 0.261492 2.341805152028776e-38
1.239665 0.641370 0.261299 2.341805152028776e-38
1.243176 0.634543 0.261282 2.341805152028776e-38
1.245772 0.627259 0.261075 2.341805152028776e-38
1.250051 0.620901 0.261253 2.341805152028776e-38
1.256055 0.615398 0.261799 2.341805152028776e-38
1.259381 0.608569 0.261787 2.341805152028776e-38
1.262670 0.601724 0.261767 2.341805152028776e-38
0.929689 1.085735 0.255267 2.341805152028776e-38
0.903015 1.041101 0.246317 2.341805152028776e-38
0.894006 1.017561 0.242276 2.341805152028776e-38
0.901096 1.012565 0.242627 2.341805152028776e-38
0.910132 1.009717 0.243501 2.341805152028776e-38
0.915120 1.002492 0.243323 2.341805152028776e-38
0.922058 0.997414 0.243668 2.341805152028776e-38
0.930314 0.993727 0.244359 2.341805152028776e-38
0.937882 0.989263 0.244867 2.341805152028776e-38
0.944068 0.983325 0.245015 2.341805152028776e-38
0.950156 0.977405 0.245169 2.341805152028776e-38
0.954129 0.969352 0.244786 2.341805152028776e-38
0.958038 0.961288 0.244395 2.341805152028776e-38
0.963283 0.954601 0.244352 2.341805152028776e-38
0.967778 0.947199 0.244123 2.341805152028776e-38
0.975708 0.943246 0.244787 2.341805152028776e-38
0.983610 0.939250 0.245449 2.341805152028776e-38
0.990067 0.933844 0.245748 2.341805152028776e-38
0.995055 0.927054 0.245686 2.341805152028776e-38
0.998549 0.918906 0.245260 2.341805152028776e-38
1.004129 0.912776 0.245370 2.341805152028776e-38
1.011109 0.907956 0.245837 2.341805152028776e-38
1.018803 0.903740 0.246475 2.341805152028776e-38
1.022783 0.896224 0.246215 2.341805152028776e-38
1.030430 0.891914 0.246840 2.341805152028776e-38
1.036542 0.886293 0.247108 2.341805152028776e-38
1.041083 0.879403 0.247023 2.341805152028776e-38
1.044068 0.871233 0.246575 2.341805152028776e-38
1.049270 0.864938 0.246655 2.341805152028776e-38
1.054435 0.858613 0.246728 2.341805152028776e-38
1.061850 0.854123 0.247333 2.341805152028776e-38
1.071512 0.851468 0.248483 2.341805152028776e-38
1.074989 0.843871 0.248197 2.341805152028776e-38
1.077636 0.835661 0.247726 2.341805152028776e-38
1.082566 0.829246 0.247783 2.341805152028776e-38
1.087459 0.822805 0.247833 2.341805152028776e-38
1.096198 0.819350 0.248790 2.341805152028776e-38
1.101767 0.813486 0.249026 2.341805152028776e-38
1.106509 0.807008 0.249077 2.341805152028776e-38
1.113609 0.802229 0.249656 2.341805152028776e-38
1.118285 0.795686 0.249692 2.341805152028776e-38
1.122883 0.789171 0.249738 2.341805152028776e-38
1.125811 0.781528 0.249424 2.341805152028776e-38
1.131124 0.775548 0.249640 2.341805152028776e-38
1.135590 0.768984 0.249670 2.341805152028776e-38
1.141654 0.763489 0.250051 2.341805152028776e-38
1.147667 0.757989 0.250437 2.341805152028776e-38
1.153627 0.752483 0.250828 2.341805152028776e-38
1.157080 0.745338 0.250674 2.341805152028776e-38
1.162150 0.739237 0.250872 2.341805152028776e-38
1.165522 0.732057 0.250705 2.341805152028776e-38
1.172183 0.726956 0.251252 2.341805152028776e-38
1.177106 0.720834 0.251454 2.341805152028776e-38
1.181155 0.714174 0.251470 2.341805152028776e-38
1.186856 0.708502 0.251837 2.341805152028776e-38
1.191684 0.702291 0.252018 2.341805152028776e-38
1.196479 0.696051 0.252192 2.341805152028776e-38
1.199491 0.688869 0.252025 2.341805152028776e-38
1.205024 0.683140 0.252392 2.341805152028776e-38
1.210530 0.677373 0.252751 2.341805152028776e-38
1.216009 0.671569 0.253104 2.341805152028776e-38
1.219733 0.664785 0.253091 2.341805152028776e-38
1.226859 0.659891 0.253804 2.341805152028776e-38
1.232211 0.654050 0.254164 2.341805152028776e-38
1.237535 0.648172 0.254518 2.341805152028776e-38
1.241084 0.641356 0.254506 2.341805152028776e-38
1.242842 0.633628 0.254129 2.341805152028776e-38
1.247181 0.627246 0.254289 2.341805152028776e-38
1.252334 0.621334 0.254645 2.341805152028776e-38
1.257460 0.615388 0.254995 2.341805152028776e-38
1.262557 0.609407 0.255338 2.341805152028776e-38
1.264962 0.602123 0.255137 2.341805152028776e-38
0.919100 1.071725 0.245254 2.341805152028776e-38
0.899388 1.035336 0.238421 2.341805152028776e-38
0.896173 1.018476 0.236028 2.341805152028776e-38
0.904581 1.014939 0.236711 2.341805152028776e-38
0.912300 1.010624 0.237220 2.341805152028776e-38
0.916626 1.002661 0.236874 2.341805152028776e-38
0.922897 0.996853 0.237037 2.341805152028776e-38
0.931826 0.993883 0.237880 2.341805152028776e-38
0.939398 0.989412 0.238373 2.341805152028776e-38
0.942844 0.980634 0.237828 2.341805152028776e-38
0.947534 0.973320 0.237633 2.341805152028776e-38
0.953552 0.967389 0.237776 2.341805152028776e-38
0.958838 0.960726 0.237739 2.341805152028776e-38
0.964078 0.954035 0.237695 2.341805152028776e-38
0.971385 0.949384 0.238162 2.341805152028776e-38
0.978607 0.944744 0.238638 2.341805152028776e-38
0.985808 0.940053 0.239108 2.341805152028776e-38
0.992271 0.934635 0.239398 2.341805152028776e-38
0.997984 0.928504 0.239508 2.341805152028776e-38
1.001483 0.920341 0.239092 2.341805152028776e-38
1.007055 0.914212 0.239202 2.341805152028776e-38
1.012579 0.908062 0.239309 2.341805152028776e-38
1.019540 0.903186 0.239755 2.341805152028776e-38
1.024997 0.896963 0.239847 2.341805152028776e-38
1.030416 0.890710 0.239933 2.341805152028776e-38
1.037254 0.885749 0.240370 2.341805152028776e-38
1.041038 0.878222 0.240113 2.341805152028776e-38
1.046283 0.871945 0.240196 2.341805152028776e-38
1.051489 0.865638 0.240272 2.341805152028776e-38
1.055894 0.858680 0.240167 2.341805152028776e-38
1.064064 0.854819 0.240934 2.341805152028776e-38
1.069108 0.848481 0.241008 2.341805152028776e-38
1.074890 0.842722 0.241250 2.341805152028776e-38
1.078305 0.835117 0.240963 2.341805152028776e-38
1.083233 0.828700 0.241016 2.341805152028776e-38
1.089678 0.823462 0.241417 2.341805152028776e-38
1.096846 0.818819 0.241999 2.341805152028776e-38
1.101620 0.812369 0.242053 2.341805152028776e-38
1.107152 0.806473 0.242274 2.341805152028776e-38
1.113452 0.801117 0.242662 2.341805152028776e-38
1.118922 0.795150 0.242870 2.341805152028776e-38
1.122696 0.788086 0.242744 2.341805152028776e-38
1.128044 0.782128 0.242959 2.341805152028776e-38
1.131736 0.775024 0.242819 2.341805152028776e-38
1.136199 0.768457 0.242846 2.341805152028776e-38
1.143081 0.763507 0.243389 2.341805152028776e-38
1.149900 0.758565 0.243944 2.341805152028776e-38
1.155041 0.752511 0.244148 2.341805152028776e-38
1.158493 0.745359 0.243996 2.341805152028776e-38
1.161902 0.738194 0.243838 2.341805152028776e-38
1.166935 0.732064 0.244021 2.341805152028776e-38
1.171908 0.725943 0.244211 2.341805152028776e-38
1.177666 0.720339 0.244580 2.341805152028776e-38
1.182555 0.714185 0.244768 2.341805152028776e-38
1.186567 0.707498 0.244774 2.341805152028776e-38
1.191390 0.701289 0.244948 2.341805152028776e-38
1.197870 0.696061 0.245471 2.341805152028776e-38
1.200877 0.688879 0.245308 2.341805152028776e-38
1.206412 0.683143 0.245662 2.341805152028776e-38
1.212779 0.677850 0.246184 2.341805152028776e-38
1.217401 0.671558 0.246350 2.341805152028776e-38
1.224585 0.666651 0.247033 2.341805152028776e-38
1.227370 0.659428 0.246863 2.341805152028776e-38
1.231851 0.653124 0.247037 2.341805152028776e-38
1.237172 0.647250 0.247378 2.341805152028776e-38
1.241591 0.640888 0.247539 2.341805152028776e-38
1.245100 0.634052 0.247518 2.341805152028776e-38
1.248545 0.627245 0.247508 2.341805152028776e-38
1.255464 0.622202 0.248201 2.341805152028776e-38
1.258827 0.615375 0.248190 2.341805152028776e-38
1.261265 0.608104 0.247998 2.341805152028776e-38
1.266330 0.602097 0.248322 2.341805152028776e-38
0.907143 1.056207 0.235080 2.341805152028776e-38
0.898291 1.032538 0.231263 2.341805152028776e-38
0.897650 1.018645 0.229599 2.341805152028776e-38
0.906062 1.015102 0.230263 2.341805152028776e-38
0.912445 1.009331 0.230426 2.341805152028776e-38
0.917426 1.002096 0.230255 2.341805152028776e-38
0.923693 0.996286 0.230411 2.341805152028776e-38
0.931273 0.991876 0.230896 2.341805152028776e-38
0.938155 0.986696 0.231206 2.341805152028776e-38
0.941564 0.977944 0.230678 2.341805152028776e-38
0.947611 0.972051 0.230821 2.341805152028776e-38
0.955700 0.968227 0.231462 2.341805152028776e-38
0.960989 0.961553 0.231424 2.341805152028776e-38
0.966935 0.955544 0.231548 2.341805152028776e-38
0.973532 0.950204 0.231837 2.341805152028776e-38
0.981470 0.946238 0.232467 2.341805152028776e-38
0.986540 0.939492 0.232418 2.341805152028776e-38
0.993719 0.934747 0.232867 2.341805152028776e-38
0.999432 0.928609 0.232973 2.341805152028776e-38
1.002924 0.920444 0.232568 2.341805152028776e-38
1.009216 0.914981 0.232845 2.341805152028776e-38
1.015479 0.909477 0.233115 2.341805152028776e-38
1.020236 0.902627 0.233042 2.341805152028776e-38
1.027174 0.897699 0.233468 2.341805152028776e-38
1.033343 0.892078 0.233718 2.341805152028776e-38
1.037175 0.884561 0.233471 2.341805152028776e-38
1.043211 0.878941 0.233726 2.341805152028776e-38
1.049975 0.873914 0.234143 2.341805152028776e-38
1.053671 0.866334 0.233877 2.341805152028776e-38
1.058079 0.859365 0.233774 2.341805152028776e-38
1.062396 0.852428 0.233677 2.341805152028776e-38
1.068199 0.846713 0.233917 2.341805152028776e-38
1.076299 0.842784 0.234658 2.341805152028776e-38
1.080492 0.835775 0.234546 2.341805152028776e-38
1.086207 0.829945 0.234765 2.341805152028776e-38
1.091858 0.824118 0.234989 2.341805152028776e-38
1.096663 0.817696 0.235046 2.341805152028776e-38
1.101430 0.811249 0.235097 2.341805152028776e-38
1.107754 0.805935 0.235479 2.341805152028776e-38
1.114853 0.801152 0.236024 2.341805152028776e-38
1.121111 0.795770 0.236400 2.341805152028776e-38
1.126501 0.789826 0.236614 2.341805152028776e-38
1.130240 0.782725 0.236483 2.341805152028776e-38
1.132308 0.774496 0.236005 2.341805152028776e-38
1.137585 0.768479 0.236199 2.341805152028776e-38
1.144463 0.763532 0.236728 2.341805152028776e-38
1.149629 0.757513 0.236931 2.341805152028776e-38
1.153939 0.750923 0.236958 2.341805152028776e-38
1.157381 0.743779 0.236808 2.341805152028776e-38
1.161612 0.737149 0.236822 2.341805152028776e-38
1.167475 0.731545 0.237168 2.341805152028776e-38
1.173267 0.725965 0.237528 2.341805152028776e-38
1.180709 0.721381 0.238224 2.341805152028776e-38
1.183918 0.714194 0.238065 2.341805152028776e-38
1.186236 0.706491 0.237729 2.341805152028776e-38
1.191904 0.700785 0.238066 2.341805152028776e-38
1.195810 0.694096 0.238072 2.341805152028776e-38
1.202226 0.688886 0.238590 2.341805152028776e-38
1.206905 0.682659 0.238762 2.341805152028776e-38
1.211551 0.676403 0.238928 2.341805152028776e-38
1.218755 0.671545 0.239596 2.341805152028776e-38
1.223331 0.665242 0.239757 2.341805152028776e-38
1.226974 0.658498 0.239761 2.341805152028776e-38
1.231451 0.652197 0.239927 2.341805152028776e-38
1.237642 0.646782 0.240427 2.341805152028776e-38
1.242059 0.640417 0.240580 2.341805152028776e-38
1.244687 0.633133 0.240387 2.341805152028776e-38
1.250752 0.627685 0.240895 2.341805152028776e-38
1.255028 0.621319 0.241058 2.341805152028776e-38
1.257500 0.614062 0.240875 2.341805152028776e-38
1.262595 0.608082 0.241195 2.341805152028776e-38
1.268551 0.602491 0.241677 2.341805152028776e-38
0.906683 1.054143 0.228012 2.341805152028776e-38
0.901033 1.034198 0.225109 2.341805152028776e-38
0.899739 1.019548 0.223330 2.341805152028776e-38
0.906844 1.014523 0.223649 2.341805152028776e-38
0.912545 1.008031 0.223647 2.341805152028776e-38
0.916849 1.000071 0.223317 2.341805152028776e-38
0.923775 0.994990 0.223630 2.341805152028776e-38
0.932701 0.992020 0.224424 2.341805152028776e-38
0.938224 0.985404 0.224399 2.341805152028776e-38
0.942975 0.978088 0.224213 2.341805152028776e-38
0.949712 0.972895 0.224514 2.341805152028776e-38
0.955728 0.966955 0.224646 2.341805152028776e-38
0.961707 0.960980 0.224772 2.341805152028776e-38
0.968351 0.955662 0.225053 2.341805152028776e-38
0.976347 0.951708 0.225663 2.341805152028776e-38
0.980033 0.943621 0.225294 2.341805152028776e-38
0.985086 0.936886 0.225244 2.341805152028776e-38
0.991532 0.931477 0.225515 2.341805152028776e-38
0.997225 0.925354 0.225616 2.341805152028776e-38
1.004314 0.920553 0.226043 2.341805152028776e-38
1.009876 0.914422 0.226147 2.341805152028776e-38
