VERSION .7
FIELDS x y z rgb
SIZE 4 4 4 4
TYPE F F F F
COUNT 1 1 1 1
WIDTH 965
HEIGHT 1
VIEWPOINT 0 0 0 1 0 0 0
POINTS 965
DATA ascii
1.697859 0.045776 0.328755 2.341805152028776e-38
1.699042 0.037476 0.328958 2.341805152028776e-38
1.703130 0.029216 0.329729 2.341805152028776e-38
1.705214 0.020893 0.330116 2.341805152028776e-38
1.706277 0.012543 0.330312 2.341805152028776e-38
1.708281 0.004186 0.330694 2.341805152028776e-38
1.709263 -0.004188 0.330884 2.341805152028776e-38
1.705295 -0.012536 0.330122 2.341805152028776e-38
1.707178 -0.020917 0.330496 2.341805152028776e-38
1.707056 -0.029284 0.330489 2.341805152028776e-38
1.709839 -0.037714 0.331048 2.341805152028776e-38
1.707673 -0.046041 0.330655 2.341805152028776e-38
1.707430 -0.054409 0.330640 2.341805152028776e-38
1.707146 -0.062776 0.330622 2.341805152028776e-38
1.711727 -0.071346 0.331551 2.341805152028776e-38
1.711361 -0.079735 0.331528 2.341805152028776e-38
1.710955 -0.088121 0.331502 2.341805152028776e-38
1.709528 -0.096450 0.331283 2.341805152028776e-38
1.707081 -0.104706 0.330872 2.341805152028776e-38
1.704594 -0.112942 0.330459 2.341805152028776e-38
1.703048 -0.121225 0.330233 2.341805152028776e-38
1.707336 -0.129942 0.331143 2.341805152028776e-38
1.709622 -0.138546 0.331671 2.341805152028776e-38
1.703062 -0.146419 0.330488 2.341805152028776e-38
1.705266 -0.155030 0.331011 2.341805152028776e-38
1.704496 -0.163386 0.330962 2.341805152028776e-38
1.704661 -0.171836 0.331099 2.341805152028776e-38
1.700880 -0.179879 0.330476 2.341805152028776e-38
1.701941 -0.188429 0.330798 2.341805152028776e-38
1.700033 -0.196656 0.330549 2.341805152028776e-38
1.699061 -0.204985 0.330487 2.341805152028776e-38
1.699023 -0.213433 0.330612 2.341805152028776e-38
1.698943 -0.221885 0.330734 2.341805152028776e-38
1.697849 -0.230209 0.330664 2.341805152028776e-38
1.699631 -0.238938 0.331160 2.341805152028776e-38
1.699426 -0.247407 0.331274 2.341805152028776e-38
1.699179 -0.255880 0.331385 2.341805152028776e-38
1.697920 -0.264205 0.331305 2.341805152028776e-38
1.698560 -0.272835 0.331600 2.341805152028776e-38
1.701094 -0.281799 0.332271 2.341805152028776e-38
1.707453 -0.291456 0.333696 2.341805152028776e-38
1.705055 -0.299651 0.333415 2.341805152028776e-38
1.720989 0.224624 0.326340 2.341805152028776e-38
1.702554 0.213743 0.322710 2.341805152028776e-38
1.699665 0.204931 0.322034 2.341805152028776e-38
1.700637 0.196603 0.322094 2.341805152028776e-38
1.705476 0.188703 0.322892 2.341805152028776e-38
1.703437 0.180038 0.322393 2.341805152028776e-38
1.702333 0.171495 0.322076 2.341805152028776e-38
1.705099 0.163342 0.322496 2.341805152028776e-38
1.705870 0.154989 0.322544 2.341805152028776e-38
1.706600 0.146632 0.322590 2.341805152028776e-38
1.706310 0.138192 0.322448 2.341805152028776e-38
1.709899 0.130056 0.323044 2.341805152028776e-38
1.707567 0.121471 0.322526 2.341805152028776e-38
1.706174 0.112976 0.322191 2.341805152028776e-38
1.707681 0.104678 0.322409 2.341805152028776e-38
1.706206 0.096202 0.322069 2.341805152028776e-38
1.706651 0.087845 0.322097 2.341805152028776e-38
1.707056 0.079485 0.322122 2.341805152028776e-38
1.704475 0.071000 0.321589 2.341805152028776e-38
1.702835 0.062579 0.321239 2.341805152028776e-38
1.701153 0.054175 0.320886 2.341805152028776e-38
1.701395 0.045843 0.320901 2.341805152028776e-38
1.703562 0.037553 0.321284 2.341805152028776e-38
1.705688 0.029242 0.321664 2.341805152028776e-38
1.706792 0.020900 0.321857 2.341805152028776e-38
1.707856 0.012547 0.322048 2.341805152028776e-38
1.710845 0.004190 0.322606 2.341805152028776e-38
1.708879 -0.004185 0.322235 2.341805152028776e-38
1.708839 -0.012555 0.322233 2.341805152028776e-38
1.711705 -0.020960 0.322784 2.341805152028776e-38
1.710601 -0.029326 0.322591 2.341805152028776e-38
1.708474 -0.037661 0.322210 2.341805152028776e-38
1.707289 -0.046002 0.322012 2.341805152028776e-38
1.706064 -0.054332 0.321812 2.341805152028776e-38
1.711673 -0.062904 0.322906 2.341805152028776e-38
1.715275 -0.071450 0.323627 2.341805152028776e-38
1.713928 -0.079805 0.323419 2.341805152028776e-38
1.710577 -0.088047 0.322838 2.341805152028776e-38
1.709149 -0.096368 0.322625 2.341805152028776e-38
1.707681 -0.104678 0.322409 2.341805152028776e-38
1.707154 -0.113041 0.322376 2.341805152028776e-38
1.705607 -0.121331 0.322156 2.341805152028776e-38
1.707939 -0.129907 0.322673 2.341805152028776e-38
1.709249 -0.138430 0.323003 2.341805152028776e-38
1.709538 -0.146884 0.323145 2.341805152028776e-38
1.706849 -0.155078 0.322729 2.341805152028776e-38
1.704121 -0.163249 0.322311 2.341805152028776e-38
1.702333 -0.171495 0.322076 2.341805152028776e-38
1.702460 -0.179934 0.322208 2.341805152028776e-38
1.701569 -0.188271 0.322152 2.341805152028776e-38
1.701613 -0.196716 0.322279 2.341805152028776e-38
1.696738 -0.204578 0.321479 2.341805152028776e-38
1.698653 -0.213253 0.321971 2.341805152028776e-38
1.700524 -0.221953 0.322459 2.341805152028776e-38
1.702351 -0.230675 0.322945 2.341805152028776e-38
1.699268 -0.238738 0.322505 2.341805152028776e-38
1.699064 -0.247200 0.322616 2.341805152028776e-38
1.697848 -0.255519 0.322541 2.341805152028776e-38
1.697562 -0.263984 0.322647 2.341805152028776e-38
1.698204 -0.272607 0.322935 2.341805152028776e-38
1.699774 -0.281404 0.323405 2.341805152028776e-38
1.700329 -0.290057 0.323687 2.341805152028776e-38
1.705681 -0.299573 0.324889 2.341805152028776e-38
1.722548 0.224691 0.317958 2.341805152028776e-38
1.706048 0.214051 0.314782 2.341805152028776e-38
1.702181 0.205109 0.313943 2.341805152028776e-38
1.704131 0.196887 0.314182 2.341805152028776e-38
1.705064 0.188543 0.314239 2.341805152028776e-38
1.704978 0.180091 0.314112 2.341805152028776e-38
1.700936 0.171250 0.313263 2.341805152028776e-38
1.704682 0.163203 0.313853 2.341805152028776e-38
1.706432 0.154946 0.314080 2.341805152028776e-38
1.708142 0.146675 0.314304 2.341805152028776e-38
1.708832 0.138312 0.314346 2.341805152028776e-38
1.709481 0.129946 0.314386 2.341805152028776e-38
1.707146 0.121367 0.313881 2.341805152028776e-38
1.707714 0.113010 0.313916 2.341805152028776e-38
1.706277 0.104529 0.313587 2.341805152028776e-38
1.706763 0.096176 0.313616 2.341805152028776e-38
1.706226 0.087770 0.313463 2.341805152028776e-38
1.707613 0.079463 0.313668 2.341805152028776e-38
1.707977 0.071103 0.313690 2.341805152028776e-38
1.707318 0.062706 0.313529 2.341805152028776e-38
1.703670 0.054223 0.312824 2.341805152028776e-38
1.703912 0.045883 0.312839 2.341805152028776e-38
1.706080 0.037585 0.313212 2.341805152028776e-38
1.709192 0.029285 0.313764 2.341805152028776e-38
1.709314 0.020918 0.313771 2.341805152028776e-38
1.709395 0.012551 0.313776 2.341805152028776e-38
1.707468 0.004179 0.313417 2.341805152028776e-38
1.708452 -0.004181 0.313598 2.341805152028776e-38
1.710379 -0.012558 0.313957 2.341805152028776e-38
1.712264 -0.020954 0.314313 2.341805152028776e-38
1.708209 -0.029268 0.313583 2.341805152028776e-38
1.708047 -0.037629 0.313573 2.341805152028776e-38
1.706861 -0.045962 0.313381 2.341805152028776e-38
1.707602 -0.054348 0.313546 2.341805152028776e-38
1.712233 -0.062886 0.314432 2.341805152028776e-38
1.715839 -0.071430 0.315134 2.341805152028776e-38
1.713508 -0.079737 0.314751 2.341805152028776e-38
1.712119 -0.088073 0.314546 2.341805152028776e-38
1.710691 -0.096397 0.314338 2.341805152028776e-38
1.710204 -0.104770 0.314309 2.341805152028776e-38
1.708695 -0.113075 0.314096 2.341805152028776e-38
1.709108 -0.121507 0.314242 2.341805152028776e-38
1.711442 -0.130095 0.314746 2.341805152028776e-38
1.711773 -0.138550 0.314887 2.341805152028776e-38
1.708142 -0.146675 0.314304 2.341805152028776e-38
1.708391 -0.155124 0.314440 2.341805152028776e-38
1.707620 -0.163485 0.314394 2.341805152028776e-38
1.705830 -0.171743 0.314164 2.341805152028776e-38
1.704000 -0.179988 0.313932 2.341805152028776e-38
1.704086 -0.188435 0.314058 2.341805152028776e-38
1.702176 -0.196662 0.313822 2.341805152028776e-38
1.700227 -0.204874 0.313582 2.341805152028776e-38
1.702144 -0.213562 0.314061 2.341805152028776e-38
1.703040 -0.222146 0.314357 2.341805152028776e-38
1.702920 -0.230612 0.314471 2.341805152028776e-38
1.701783 -0.238945 0.314402 2.341805152028776e-38
1.698659 -0.246990 0.313971 2.341805152028776e-38
1.699389 -0.255595 0.314256 2.341805152028776e-38
1.700076 -0.264213 0.314540 2.341805152028776e-38
1.698776 -0.272533 0.314461 2.341805152028776e-38
1.698408 -0.281006 0.314559 2.341805152028776e-38
1.699936 -0.289813 0.315014 2.341805152028776e-38
1.699482 -0.298302 0.315108 2.341805152028776e-38
1.742616 0.227174 0.312900 2.341805152028776e-38
1.707551 0.214114 0.306476 2.341805152028776e-38
1.702703 0.205051 0.305484 2.341805152028776e-38
1.704654 0.196831 0.305717 2.341805152028776e-38
1.705586 0.188490 0.305772 2.341805152028776e-38
1.702562 0.179730 0.305123 2.341805152028776e-38
1.704392 0.171497 0.305349 2.341805152028776e-38
1.706182 0.163251 0.305572 2.341805152028776e-38
1.708913 0.155080 0.305969 2.341805152028776e-38
1.708662 0.146634 0.305836 2.341805152028776e-38
1.708371 0.138194 0.305701 2.341805152028776e-38
1.708038 0.129760 0.305564 2.341805152028776e-38
1.706682 0.121263 0.305249 2.341805152028776e-38
1.707249 0.112913 0.305282 2.341805152028776e-38
1.704827 0.104379 0.304786 2.341805152028776e-38
1.706295 0.096093 0.304990 2.341805152028776e-38
1.707723 0.087795 0.305192 2.341805152028776e-38
1.709111 0.079486 0.305392 2.341805152028776e-38
1.709476 0.071124 0.305414 2.341805152028776e-38
1.707832 0.062688 0.305081 2.341805152028776e-38
1.707132 0.054301 0.304922 2.341805152028776e-38
1.707374 0.045949 0.304936 2.341805152028776e-38
1.709545 0.037640 0.305300 2.341805152028776e-38
1.712660 0.029327 0.305837 2.341805152028776e-38
1.711797 0.020936 0.305668 2.341805152028776e-38
1.709909 0.012547 0.305321 2.341805152028776e-38
1.708966 0.004180 0.305148 2.341805152028776e-38
1.709950 -0.004183 0.305324 2.341805152028776e-38
1.710894 -0.012555 0.305497 2.341805152028776e-38
1.707860 -0.020888 0.304965 2.341805152028776e-38
1.706754 -0.029226 0.304782 2.341805152028776e-38
1.710529 -0.037661 0.305476 2.341805152028776e-38
1.709343 -0.046002 0.305288 2.341805152028776e-38
1.708116 -0.054332 0.305098 2.341805152028776e-38
1.709800 -0.062760 0.305433 2.341805152028776e-38
1.713410 -0.071287 0.306116 2.341805152028776e-38
1.714028 -0.079714 0.306271 2.341805152028776e-38
1.712639 -0.088048 0.306071 2.341805152028776e-38
1.711210 -0.096370 0.305869 2.341805152028776e-38
1.712688 -0.104860 0.306191 2.341805152028776e-38
1.715107 -0.113432 0.306687 2.341805152028776e-38
1.713556 -0.121752 0.306478 2.341805152028776e-38
1.713928 -0.130207 0.306618 2.341805152028776e-38
1.712296 -0.138511 0.306404 2.341805152028776e-38
1.711605 -0.146886 0.306363 2.341805152028776e-38
1.708913 -0.155080 0.305969 2.341805152028776e-38
1.707162 -0.163345 0.305747 2.341805152028776e-38
1.708310 -0.171891 0.306051 2.341805152028776e-38
1.706478 -0.180143 0.305825 2.341805152028776e-38
1.702651 -0.188165 0.305246 2.341805152028776e-38
1.703676 -0.196719 0.305542 2.341805152028776e-38
1.703680 -0.205169 0.305660 2.341805152028776e-38
1.701690 -0.213379 0.305424 2.341805152028776e-38
1.703566 -0.222083 0.305888 2.341805152028776e-38
1.706373 -0.230943 0.306524 2.341805152028776e-38
1.702310 -0.238878 0.305931 2.341805152028776e-38
1.701133 -0.247203 0.305862 2.341805152028776e-38
1.702837 -0.255962 0.306315 2.341805152028776e-38
1.703524 -0.264592 0.306591 2.341805152028776e-38
1.703195 -0.273079 0.306689 2.341805152028776e-38
1.698939 -0.280927 0.306085 2.341805152028776e-38
1.699500 -0.289567 0.306353 2.341805152028776e-38
1.695169 -0.297368 0.305744 2.341805152028776e-38
1.737271 0.226347 0.303219 2.341805152028776e-38
1.709993 0.214296 0.298334 2.341805152028776e-38
1.707097 0.205462 0.297710 2.341805152028776e-38
1.710029 0.197339 0.298108 2.341805152028776e-38
1.709984 0.188867 0.297991 2.341805152028776e-38
1.710878 0.180504 0.298042 2.341805152028776e-38
1.707811 0.171743 0.297408 2.341805152028776e-38
1.707641 0.163297 0.297284 2.341805152028776e-38
1.708411 0.154946 0.297328 2.341805152028776e-38
1.710123 0.146675 0.297541 2.341805152028776e-38
1.707866 0.138074 0.297068 2.341805152028776e-38
1.706550 0.129573 0.296764 2.341805152028776e-38
1.706174 0.121158 0.296628 2.341805152028776e-38
1.706740 0.112814 0.296660 2.341805152028776e-38
1.707266 0.104468 0.296690 2.341805152028776e-38
1.709719 0.096231 0.297060 2.341805152028776e-38
1.709181 0.087820 0.296915 2.341805152028776e-38
1.711554 0.079554 0.297280 2.341805152028776e-38
1.711919 0.071185 0.297301 2.341805152028776e-38
1.712243 0.062814 0.297319 2.341805152028776e-38
1.709573 0.054348 0.296823 2.341805152028776e-38
1.711785 0.046042 0.297179 2.341805152028776e-38
1.714943 0.037737 0.297703 2.341805152028776e-38
1.714120 0.029335 0.297542 2.341805152028776e-38
1.713257 0.020942 0.297377 2.341805152028776e-38
1.712353 0.012558 0.297211 2.341805152028776e-38
1.711408 0.004184 0.297042 2.341805152028776e-38
1.714364 -0.004191 0.297556 2.341805152028776e-38
1.712353 -0.012558 0.297211 2.341805152028776e-38
1.712272 -0.020930 0.297206 2.341805152028776e-38
1.713135 -0.029318 0.297371 2.341805152028776e-38
1.713958 -0.037715 0.297532 2.341805152028776e-38
1.712770 -0.046068 0.297350 2.341805152028776e-38
1.711542 -0.054410 0.297165 2.341805152028776e-38
1.714212 -0.062886 0.297661 2.341805152028776e-38
1.715857 -0.071348 0.297985 2.341805152028776e-38
1.715491 -0.079737 0.297964 2.341805152028776e-38
1.714101 -0.088073 0.297769 2.341805152028776e-38
1.714638 -0.096508 0.297915 2.341805152028776e-38
1.715134 -0.104950 0.298057 2.341805152028776e-38
1.714605 -0.113334 0.298027 2.341805152028776e-38
1.714036 -0.121716 0.297994 2.341805152028776e-38
1.712444 -0.130020 0.297789 2.341805152028776e-38
1.709830 -0.138233 0.297410 2.341805152028776e-38
1.707178 -0.146422 0.297028 2.341805152028776e-38
1.707430 -0.154857 0.297157 2.341805152028776e-38
1.708622 -0.163391 0.297455 2.341805152028776e-38
1.710752 -0.172038 0.297920 2.341805152028776e-38
1.708919 -0.180298 0.297701 2.341805152028776e-38
1.709005 -0.188759 0.297820 2.341805152028776e-38
1.704156 -0.196661 0.297084 2.341805152028776e-38
1.702205 -0.204873 0.296857 2.341805152028776e-38
1.703149 -0.213439 0.297140 2.341805152028776e-38
1.706004 -0.222273 0.297762 2.341805152028776e-38
1.704908 -0.230612 0.297699 2.341805152028776e-38
1.703771 -0.238945 0.297634 2.341805152028776e-38
1.700644 -0.246990 0.297225 2.341805152028776e-38
1.706249 -0.256327 0.298348 2.341805152028776e-38
1.705962 -0.264818 0.298446 2.341805152028776e-38
1.703687 -0.273001 0.298201 2.341805152028776e-38
1.702345 -0.281328 0.298124 2.341805152028776e-38
1.702906 -0.289979 0.298384 2.341805152028776e-38
1.694687 -0.297111 0.297111 2.341805152028776e-38
1.726983 0.224881 0.292769 2.341805152028776e-38
1.709460 0.214110 0.289678 2.341805152028776e-38
1.710476 0.205754 0.289735 2.341805152028776e-38
1.711452 0.197393 0.289790 2.341805152028776e-38
1.713367 0.189135 0.290008 2.341805152028776e-38
1.708378 0.180140 0.289062 2.341805152028776e-38
1.707268 0.171593 0.288778 2.341805152028776e-38
1.708078 0.163248 0.288823 2.341805152028776e-38
1.708848 0.154899 0.288866 2.341805152028776e-38
1.707613 0.146378 0.288575 2.341805152028776e-38
1.708301 0.138032 0.288613 2.341805152028776e-38
1.707966 0.129608 0.288483 2.341805152028776e-38
1.709557 0.121331 0.288683 2.341805152028776e-38
1.710124 0.112975 0.288715 2.341805152028776e-38
1.710651 0.104617 0.288744 2.341805152028776e-38
1.711137 0.096257 0.288771 2.341805152028776e-38
1.710598 0.087844 0.288630 2.341805152028776e-38
1.710018 0.079438 0.288486 2.341805152028776e-38
1.712353 0.071163 0.288839 2.341805152028776e-38
1.714648 0.062867 0.289189 2.341805152028776e-38
1.714932 0.054488 0.289205 2.341805152028776e-38
1.714190 0.046081 0.289053 2.341805152028776e-38
1.712421 0.037661 0.288732 2.341805152028776e-38
1.711597 0.029276 0.288574 2.341805152028776e-38
1.712704 0.020924 0.288747 2.341805152028776e-38
1.713771 0.012562 0.288918 2.341805152028776e-38
1.716770 0.004194 0.289419 2.341805152028776e-38
1.716770 -0.004194 0.289419 2.341805152028776e-38
1.717716 -0.012591 0.289583 2.341805152028776e-38
1.714676 -0.020948 0.289080 2.341805152028776e-38
1.712583 -0.029293 0.288741 2.341805152028776e-38
1.715378 -0.037726 0.289230 2.341805152028776e-38
1.718133 -0.046187 0.289718 2.341805152028776e-38
1.717889 -0.054582 0.289704 2.341805152028776e-38
1.716619 -0.062940 0.289522 2.341805152028776e-38
1.716294 -0.071327 0.289504 2.341805152028776e-38
1.714943 -0.079667 0.289317 2.341805152028776e-38
1.714537 -0.088046 0.289295 2.341805152028776e-38
1.713106 -0.096368 0.289104 2.341805152028776e-38
1.716556 -0.104979 0.289741 2.341805152028776e-38
1.716028 -0.113365 0.289711 2.341805152028776e-38
1.713491 -0.121610 0.289347 2.341805152028776e-38
1.711899 -0.129907 0.289147 2.341805152028776e-38
1.713216 -0.138429 0.289443 2.341805152028776e-38
1.713508 -0.146884 0.289571 2.341805152028776e-38
1.710813 -0.155077 0.289198 2.341805152028776e-38
1.711023 -0.163529 0.289321 2.341805152028776e-38
1.711193 -0.171987 0.289442 2.341805152028776e-38
1.710340 -0.180347 0.289394 2.341805152028776e-38
1.706506 -0.188378 0.288846 2.341805152028776e-38
1.705574 -0.196715 0.288794 2.341805152028776e-38
1.704601 -0.205047 0.288740 2.341805152028776e-38
1.706524 -0.213742 0.289181 2.341805152028776e-38
1.709381 -0.222589 0.289785 2.341805152028776e-38
1.709260 -0.231071 0.289890 2.341805152028776e-38
1.704215 -0.238874 0.289163 2.341805152028776e-38
1.706942 -0.247766 0.289760 2.341805152028776e-38
1.706698 -0.256251 0.289858 2.341805152028776e-38
1.705437 -0.264588 0.289787 2.341805152028776e-38
1.706084 -0.273231 0.290046 2.341805152028776e-38
1.705714 -0.281726 0.290136 2.341805152028776e-38
1.704330 -0.290059 0.290059 2.341805152028776e-38
1.692220 -0.296512 0.288160 2.341805152028776e-38
1.729359 0.225068 0.284520 2.341805152028776e-38
1.711821 0.214290 0.281518 2.341805152028776e-38
1.708919 0.205455 0.280929 2.341805152028776e-38
1.710873 0.197219 0.281143 2.341805152028776e-38
1.712789 0.188969 0.281354 2.341805152028776e-38
1.712702 0.180498 0.281242 2.341805152028776e-38
1.709628 0.171737 0.280643 2.341805152028776e-38
1.708474 0.163197 0.280365 2.341805152028776e-38
1.710227 0.154940 0.280568 2.341805152028776e-38
1.712923 0.146754 0.280930 2.341805152028776e-38
1.712630 0.138307 0.280806 2.341805152028776e-38
1.714263 0.130016 0.281002 2.341805152028776e-38
1.711919 0.121433 0.280551 2.341805152028776e-38
1.714456 0.113200 0.280905 2.341805152028776e-38
1.714984 0.104826 0.280933 2.341805152028776e-38
1.714486 0.096393 0.280798 2.341805152028776e-38
1.712961 0.087918 0.280500 2.341805152028776e-38
1.714352 0.079597 0.280683 2.341805152028776e-38
1.715703 0.071264 0.280864 2.341805152028776e-38
1.716028 0.062884 0.280882 2.341805152028776e-38
1.712366 0.054377 0.280252 2.341805152028776e-38
1.712609 0.046014 0.280265 2.341805152028776e-38
1.712812 0.037649 0.280276 2.341805152028776e-38
1.713961 0.029300 0.280446 2.341805152028776e-38
1.714082 0.020929 0.280453 2.341805152028776e-38
1.718111 0.012587 0.281103 2.341805152028776e-38
1.716177 0.004191 0.280782 2.341805152028776e-38
1.718151 -0.004196 0.281105 2.341805152028776e-38
1.716137 -0.012572 0.280780 2.341805152028776e-38
1.714082 -0.020929 0.280453 2.341805152028776e-38
1.713961 -0.029300 0.280446 2.341805152028776e-38
1.715772 -0.037714 0.280760 2.341805152028776e-38
1.715569 -0.046093 0.280749 2.341805152028776e-38
1.718285 -0.054565 0.281220 2.341805152028776e-38
1.718000 -0.062956 0.281205 2.341805152028776e-38
1.719647 -0.071428 0.281510 2.341805152028776e-38
1.717309 -0.079734 0.281167 2.341805152028776e-38
1.717889 -0.088171 0.281307 2.341805152028776e-38
1.716456 -0.096504 0.281121 2.341805152028776e-38
1.718924 -0.105067 0.281579 2.341805152028776e-38
1.718395 -0.113461 0.281550 2.341805152028776e-38
1.717825 -0.121852 0.281519 2.341805152028776e-38
1.715247 -0.130091 0.281164 2.341805152028776e-38
1.716564 -0.138625 0.281451 2.341805152028776e-38
1.712923 -0.146754 0.280930 2.341805152028776e-38
1.713175 -0.155207 0.281051 2.341805152028776e-38
1.711421 -0.163479 0.280848 2.341805152028776e-38
1.710610 -0.171836 0.280804 2.341805152028776e-38
1.710739 -0.180292 0.280919 2.341805152028776e-38
1.712789 -0.188969 0.281354 2.341805152028776e-38
1.711854 -0.197333 0.281304 2.341805152028776e-38
1.710878 -0.205691 0.281251 2.341805152028776e-38
1.712800 -0.214412 0.281679 2.341805152028776e-38
1.713700 -0.223030 0.281944 2.341805152028776e-38
1.708687 -0.230869 0.281240 2.341805152028776e-38
1.708527 -0.239348 0.281339 2.341805152028776e-38
1.707348 -0.247690 0.281275 2.341805152028776e-38
1.709057 -0.256466 0.281692 2.341805152028776e-38
1.708771 -0.264961 0.281784 2.341805152028776e-38
1.712341 -0.274084 0.282518 2.341805152028776e-38
1.709046 -0.282123 0.282123 2.341805152028776e-38
1.704741 -0.289971 0.281566 2.341805152028776e-38
1.691651 -0.296251 0.279560 2.341805152028776e-38
1.743449 0.226782 0.278129 2.341805152028776e-38
1.711204 0.214100 0.272872 2.341805152028776e-38
1.709278 0.205391 0.272457 2.341805152028776e-38
1.713196 0.197384 0.272977 2.341805152028776e-38
1.717076 0.189343 0.273495 2.341805152028776e-38
1.716008 0.180752 0.273230 2.341805152028776e-38
1.710966 0.171781 0.272336 2.341805152028776e-38
1.710794 0.163333 0.272222 2.341805152028776e-38
1.710581 0.154891 0.272106 2.341805152028776e-38
1.713279 0.146708 0.272458 2.341805152028776e-38
1.714953 0.138423 0.272651 2.341805152028776e-38
1.716588 0.130124 0.272841 2.341805152028776e-38
1.717198 0.121743 0.272873 2.341805152028776e-38
1.716781 0.113295 0.272747 2.341805152028776e-38
1.718295 0.104973 0.272931 2.341805152028776e-38
1.715825 0.096418 0.272487 2.341805152028776e-38
1.715285 0.087991 0.272354 2.341805152028776e-38
1.714704 0.079571 0.272218 2.341805152028776e-38
1.717042 0.071282 0.272551 2.341805152028776e-38
1.715393 0.062828 0.272254 2.341805152028776e-38
1.714690 0.054423 0.272113 2.341805152028776e-38
1.715920 0.046079 0.272282 2.341805152028776e-38
1.716123 0.037702 0.272293 2.341805152028776e-38
1.715298 0.029308 0.272145 2.341805152028776e-38
1.715420 0.020935 0.272151 2.341805152028776e-38
1.718464 0.012583 0.272625 2.341805152028776e-38
1.718504 0.004194 0.272628 2.341805152028776e-38
1.718504 -0.004194 0.272628 2.341805152028776e-38
1.717476 -0.012575 0.272469 2.341805152028776e-38
1.714432 -0.020923 0.271994 2.341805152028776e-38
1.711348 -0.029240 0.271518 2.341805152028776e-38
1.713161 -0.037637 0.271823 2.341805152028776e-38
1.717895 -0.046132 0.272595 2.341805152028776e-38
1.718639 -0.054548 0.272739 2.341805152028776e-38
1.720328 -0.063009 0.273038 2.341805152028776e-38
1.720990 -0.071446 0.273177 2.341805152028776e-38
1.719637 -0.079800 0.273001 2.341805152028776e-38
1.718244 -0.088143 0.272823 2.341805152028776e-38
1.719769 -0.096640 0.273113 2.341805152028776e-38
1.719281 -0.105034 0.273088 2.341805152028776e-38
1.717767 -0.113360 0.272903 2.341805152028776e-38
1.714242 -0.121534 0.272404 2.341805152028776e-38
1.713633 -0.129900 0.272372 2.341805152028776e-38
1.715938 -0.138502 0.272807 2.341805152028776e-38
1.717215 -0.147045 0.273084 2.341805152028776e-38
1.710581 -0.154891 0.272106 2.341805152028776e-38
1.711778 -0.163427 0.272379 2.341805152028776e-38
1.711949 -0.171880 0.272493 2.341805152028776e-38
1.714043 -0.180545 0.272917 2.341805152028776e-38
1.715113 -0.189127 0.273183 2.341805152028776e-38
1.716139 -0.197723 0.273446 2.341805152028776e-38
1.715162 -0.206098 0.273395 2.341805152028776e-38
1.713164 -0.214345 0.273185 2.341805152028776e-38
1.713085 -0.222833 0.273286 2.341805152028776e-38
1.711008 -0.231061 0.273072 2.341805152028776e-38
1.709869 -0.239410 0.273012 2.341805152028776e-38
1.712600 -0.248321 0.273574 2.341805152028776e-38
1.712354 -0.256825 0.273666 2.341805152028776e-38
1.712067 -0.265332 0.273756 2.341805152028776e-38
1.712713 -0.273999 0.273999 2.341805152028776e-38
1.709417 -0.282035 0.273616 2.341805152028776e-38
1.708031 -0.290377 0.273543 2.341805152028776e-38
1.694930 -0.296668 0.271597 2.341805152028776e-38
1.885695 0.254521 0.291543 2.341805152028776e-38
1.762418 0.229133 0.272366 2.341805152028776e-38
1.720351 0.215135 0.265755 2.341805152028776e-38
1.713521 0.205796 0.264594 2.341805152028776e-38
1.714497 0.197433 0.264644 2.341805152028776e-38
1.715432 0.189066 0.264692 2.341805152028776e-38
1.716327 0.180694 0.264737 2.341805152028776e-38
1.715215 0.172120 0.264478 2.341805152028776e-38
1.717012 0.163844 0.264671 2.341805152028776e-38
1.715816 0.155287 0.264407 2.341805152028776e-38
1.716547 0.146913 0.264444 2.341805152028776e-38
1.716253 0.138457 0.264327 2.341805152028776e-38
1.717889 0.130157 0.264512 2.341805152028776e-38
1.716527 0.121634 0.264240 2.341805152028776e-38
1.719068 0.113388 0.264572 2.341805152028776e-38
1.718610 0.104939 0.264447 2.341805152028776e-38
1.720084 0.096609 0.264624 2.341805152028776e-38
1.722506 0.088317 0.264951 2.341805152028776e-38
1.724888 0.080004 0.265275 2.341805152028776e-38
1.719329 0.071341 0.264383 2.341805152028776e-38
1.718667 0.062916 0.264247 2.341805152028776e-38
1.718951 0.054530 0.264262 2.341805152028776e-38
1.721171 0.046196 0.264578 2.341805152028776e-38
1.720386 0.037777 0.264436 2.341805152028776e-38
1.720548 0.029383 0.264445 2.341805152028776e-38
1.719682 0.020976 0.264299 2.341805152028776e-38
1.719763 0.012586 0.264303 2.341805152028776e-38
1.719804 0.004195 0.264305 2.341805152028776e-38
1.720792 -0.004198 0.264457 2.341805152028776e-38
1.716798 -0.012564 0.263847 2.341805152028776e-38
1.713752 -0.020904 0.263388 2.341805152028776e-38
1.716595 -0.029315 0.263837 2.341805152028776e-38
1.720386 -0.037777 0.264436 2.341805152028776e-38
1.720183 -0.046170 0.264426 2.341805152028776e-38
1.718951 -0.054530 0.264262 2.341805152028776e-38
1.718667 -0.062916 0.264247 2.341805152028776e-38
1.720317 -0.071382 0.264534 2.341805152028776e-38
1.717976 -0.079683 0.264212 2.341805152028776e-38
1.717570 -0.088064 0.264191 2.341805152028776e-38
1.718111 -0.096498 0.264320 2.341805152028776e-38
1.718610 -0.104939 0.264447 2.341805152028776e-38
1.717095 -0.113258 0.264269 2.341805152028776e-38
1.719484 -0.121844 0.264695 2.341805152028776e-38
1.721831 -0.130456 0.265119 2.341805152028776e-38
1.725120 -0.139173 0.265693 2.341805152028776e-38
1.720487 -0.147250 0.265051 2.341805152028776e-38
1.716800 -0.155376 0.264558 2.341805152028776e-38
1.717012 -0.163844 0.264671 2.341805152028776e-38
1.716198 -0.172219 0.264629 2.341805152028776e-38
1.717310 -0.180797 0.264889 2.341805152028776e-38
1.718380 -0.189390 0.265147 2.341805152028776e-38
1.715479 -0.197546 0.264796 2.341805152028776e-38
1.715484 -0.206031 0.264898 2.341805152028776e-38
1.717409 -0.214767 0.265300 2.341805152028776e-38
1.719289 -0.223526 0.265701 2.341805152028776e-38
1.715248 -0.231515 0.265190 2.341805152028776e-38
1.714107 -0.239881 0.265132 2.341805152028776e-38
1.711947 -0.248100 0.264920 2.341805152028776e-38
1.712681 -0.256743 0.265161 2.341805152028776e-38
1.710441 -0.264945 0.264945 2.341805152028776e-38
1.710115 -0.273444 0.265030 2.341805152028776e-38
1.708771 -0.281784 0.264961 2.341805152028776e-38
1.707386 -0.290118 0.264891 2.341805152028776e-38
1.695251 -0.296572 0.263155 2.341805152028776e-38
1.913553 0.258154 0.286316 2.341805152028776e-38
1.795106 0.233268 0.268478 2.341805152028776e-38
1.730451 0.216291 0.258701 2.341805152028776e-38
1.716746 0.206081 0.256550 2.341805152028776e-38
1.716740 0.197594 0.256452 2.341805152028776e-38
1.719643 0.189436 0.256792 2.341805152028776e-38
1.717589 0.180738 0.256395 2.341805152028776e-38
1.723365 0.172853 0.257172 2.341805152028776e-38
1.726150 0.164635 0.257506 2.341805152028776e-38
1.722986 0.155859 0.256957 2.341805152028776e-38
1.720764 0.147202 0.256552 2.341805152028776e-38
1.719484 0.138650 0.256292 2.341805152028776e-38
1.719149 0.130188 0.256177 2.341805152028776e-38
1.719759 0.121803 0.256207 2.341805152028776e-38
1.720328 0.113416 0.256235 2.341805152028776e-38
1.718882 0.104905 0.255967 2.341805152028776e-38
1.719370 0.096521 0.255991 2.341805152028776e-38
1.727720 0.088541 0.257190 2.341805152028776e-38
1.728128 0.080115 0.257210 2.341805152028776e-38
1.725530 0.071564 0.256787 2.341805152028776e-38
1.721903 0.063004 0.256215 2.341805152028776e-38
1.720210 0.054543 0.255935 2.341805152028776e-38
1.721443 0.046181 0.256094 2.341805152028776e-38
1.721646 0.037786 0.256104 2.341805152028776e-38
1.721808 0.029390 0.256112 2.341805152028776e-38
1.718963 0.020957 0.255676 2.341805152028776e-38
1.721022 0.012589 0.255975 2.341805152028776e-38
1.722052 0.004199 0.256124 2.341805152028776e-38
1.722052 -0.004199 0.256124 2.341805152028776e-38
1.720033 -0.012582 0.255827 2.341805152028776e-38
1.720941 -0.020981 0.255971 2.341805152028776e-38
1.723786 -0.029424 0.256406 2.341805152028776e-38
1.725601 -0.037873 0.256692 2.341805152028776e-38
1.723420 -0.046234 0.256388 2.341805152028776e-38
1.720210 -0.054543 0.255935 2.341805152028776e-38
1.720914 -0.062967 0.256068 2.341805152028776e-38
1.721577 -0.071400 0.256199 2.341805152028776e-38
1.719235 -0.079702 0.255886 2.341805152028776e-38
1.718829 -0.088085 0.255866 2.341805152028776e-38
1.720358 -0.096577 0.256139 2.341805152028776e-38
1.720857 -0.105025 0.256261 2.341805152028776e-38
1.719341 -0.113351 0.256088 2.341805152028776e-38
1.726666 -0.122293 0.257236 2.341805152028776e-38
1.731971 -0.131159 0.258088 2.341805152028776e-38
1.732302 -0.139683 0.258203 2.341805152028776e-38
1.726677 -0.147708 0.257434 2.341805152028776e-38
1.721016 -0.155681 0.256663 2.341805152028776e-38
1.719258 -0.163977 0.256478 2.341805152028776e-38
1.720412 -0.172557 0.256731 2.341805152028776e-38
1.720540 -0.181048 0.256836 2.341805152028776e-38
1.716694 -0.189112 0.256351 2.341805152028776e-38
1.715758 -0.197481 0.256305 2.341805152028776e-38
1.718710 -0.206317 0.256844 2.341805152028776e-38
1.731433 -0.216414 0.258848 2.341805152028776e-38
1.733307 -0.225237 0.259235 2.341805152028776e-38
1.721413 -0.232233 0.257567 2.341805152028776e-38
1.713411 -0.239666 0.256484 2.341805152028776e-38
1.712231 -0.248018 0.256426 2.341805152028776e-38
1.712966 -0.256659 0.256659 2.341805152028776e-38
1.711704 -0.265009 0.256596 2.341805152028776e-38
1.711377 -0.273510 0.256679 2.341805152028776e-38
1.711985 -0.282175 0.256905 2.341805152028776e-38
1.709624 -0.290355 0.256690 2.341805152028776e-38
1.696505 -0.296644 0.254863 2.341805152028776e-38
1.739541 0.217324 0.251414 2.341805152028776e-38
1.726813 0.207191 0.249475 2.341805152028776e-38
1.722879 0.198206 0.248812 2.341805152028776e-38
1.721850 0.189589 0.248573 2.341805152028776e-38
1.723732 0.181298 0.248757 2.341805152028776e-38
1.726559 0.173091 0.249083 2.341805152028776e-38
1.724421 0.164392 0.248695 2.341805152028776e-38
1.719281 0.155450 0.247879 2.341805152028776e-38
1.720999 0.147152 0.248056 2.341805152028776e-38
1.721691 0.138762 0.248089 2.341805152028776e-38
1.723330 0.130443 0.248263 2.341805152028776e-38
1.721966 0.121902 0.248007 2.341805152028776e-38
1.723524 0.113572 0.248177 2.341805152028776e-38
1.719113 0.104869 0.247491 2.341805152028776e-38
1.725530 0.096821 0.248368 2.341805152028776e-38
1.731910 0.088713 0.249243 2.341805152028776e-38
1.727375 0.080042 0.248551 2.341805152028776e-38
1.723786 0.071457 0.247999 2.341805152028776e-38
1.720155 0.062910 0.247445 2.341805152028776e-38
1.719450 0.054494 0.247317 2.341805152028776e-38
1.723652 0.046218 0.247898 2.341805152028776e-38
1.724845 0.037838 0.248050 2.341805152028776e-38
1.725007 0.029431 0.248057 2.341805152028776e-38
1.724140 0.021010 0.247921 2.341805152028776e-38
1.723231 0.012599 0.247782 2.341805152028776e-38
1.722282 0.004197 0.247642 2.341805152028776e-38
1.722282 -0.004197 0.247642 2.341805152028776e-38
1.723231 -0.012599 0.247782 2.341805152028776e-38
1.724140 -0.021010 0.247921 2.341805152028776e-38
1.725997 -0.029447 0.248200 2.341805152028776e-38
1.726824 -0.037881 0.248334 2.341805152028776e-38
1.723652 -0.046218 0.247898 2.341805152028776e-38
1.723408 -0.054619 0.247886 2.341805152028776e-38
1.723123 -0.063018 0.247872 2.341805152028776e-38
1.724775 -0.071498 0.248141 2.341805152028776e-38
1.723420 -0.079858 0.247982 2.341805152028776e-38
1.723013 -0.088258 0.247962 2.341805152028776e-38
1.723554 -0.096710 0.248083 2.341805152028776e-38
1.723065 -0.105110 0.248060 2.341805152028776e-38
1.723524 -0.113572 0.248177 2.341805152028776e-38
1.729865 -0.122461 0.249145 2.341805152028776e-38
1.729252 -0.130891 0.249116 2.341805152028776e-38
1.729585 -0.139398 0.249227 2.341805152028776e-38
1.725931 -0.147574 0.248767 2.341805152028776e-38
1.721253 -0.155628 0.248164 2.341805152028776e-38
1.720479 -0.164016 0.248127 2.341805152028776e-38
1.721635 -0.172598 0.248372 2.341805152028776e-38
1.720779 -0.180987 0.248331 2.341805152028776e-38
1.721850 -0.189589 0.248573 2.341805152028776e-38
1.718945 -0.197754 0.248244 2.341805152028776e-38
1.724847 -0.206955 0.249191 2.341805152028776e-38
1.730701 -0.216219 0.250136 2.341805152028776e-38
1.723744 -0.223888 0.249234 2.341805152028776e-38
1.718716 -0.231758 0.248613 2.341805152028776e-38
1.715613 -0.239859 0.248275 2.341805152028776e-38
1.713452 -0.248077 0.248077 2.341805152028776e-38
1.714189 -0.256719 0.248302 2.341805152028776e-38
1.713904 -0.265223 0.248384 2.341805152028776e-38
1.716510 -0.274199 0.248888 2.341805152028776e-38
1.714185 -0.282402 0.248682 2.341805152028776e-38
1.710846 -0.290423 0.248333 2.341805152028776e-38
1.700644 -0.297225 0.246990 2.341805152028776e-38
1.740737 0.217373 0.242946 2.341805152028776e-38
1.728000 0.207238 0.241073 2.341805152028776e-38
1.726031 0.198477 0.240707 2.341805152028776e-38
1.725002 0.189849 0.240475 2.341805152028776e-38
1.723931 0.181235 0.240242 2.341805152028776e-38
1.720845 0.172439 0.239733 2.341805152028776e-38
1.720674 0.163959 0.239633 2.341805152028776e-38
1.721447 0.155574 0.239668 2.341805152028776e-38
1.722180 0.147186 0.239702 2.341805152028776e-38
1.723860 0.138873 0.239871 2.341805152028776e-38
1.726487 0.130622 0.240176 2.341805152028776e-38
1.725123 0.122069 0.239930 2.341805152028776e-38
1.720752 0.113338 0.239269 2.341805152028776e-38
1.720291 0.104893 0.239156 2.341805152028776e-38
1.724735 0.096732 0.239728 2.341805152028776e-38
1.727161 0.088430 0.240024 2.341805152028776e-38
1.723611 0.079831 0.239492 2.341805152028776e-38
1.722987 0.071392 0.239372 2.341805152028776e-38
1.721333 0.062924 0.239112 2.341805152028776e-38
1.722607 0.054569 0.239262 2.341805152028776e-38
1.723841 0.046202 0.239411 2.341805152028776e-38
1.725035 0.037825 0.239558 2.341805152028776e-38
1.726188 0.029437 0.239703 2.341805152028776e-38
1.723339 0.020991 0.239296 2.341805152028776e-38
1.720449 0.012573 0.238887 2.341805152028776e-38
1.721480 0.004193 0.239027 2.341805152028776e-38
1.725442 -0.004203 0.239577 2.341805152028776e-38
1.727382 -0.012624 0.239850 2.341805152028776e-38
1.726310 -0.021027 0.239709 2.341805152028776e-38
1.725198 -0.029420 0.239565 2.341805152028776e-38
1.727015 -0.037868 0.239833 2.341805152028776e-38
1.728792 -0.046335 0.240099 2.341805152028776e-38
1.723597 -0.054600 0.239400 2.341805152028776e-38
1.725292 -0.063069 0.239662 2.341805152028776e-38
1.726946 -0.071556 0.239922 2.341805152028776e-38
1.726579 -0.079968 0.239905 2.341805152028776e-38
1.724193 -0.088278 0.239611 2.341805152028776e-38
1.724735 -0.096732 0.239728 2.341805152028776e-38
1.725235 -0.105194 0.239843 2.341805152028776e-38
1.727670 -0.113794 0.240231 2.341805152028776e-38
1.728087 -0.122279 0.240342 2.341805152028776e-38
1.730438 -0.130921 0.240726 2.341805152028776e-38
1.729784 -0.139350 0.240696 2.341805152028776e-38
1.728102 -0.147692 0.240526 2.341805152028776e-38
1.722434 -0.155663 0.239806 2.341805152028776e-38
1.721660 -0.164053 0.239770 2.341805152028776e-38
1.724788 -0.172834 0.240282 2.341805152028776e-38
1.726886 -0.181546 0.240654 2.341805152028776e-38
1.721064 -0.189416 0.239926 2.341805152028776e-38
1.719143 -0.197685 0.239746 2.341805152028776e-38
1.719149 -0.206177 0.239838 2.341805152028776e-38
1.722062 -0.215041 0.240340 2.341805152028776e-38
1.720019 -0.223301 0.240154 2.341805152028776e-38
1.719899 -0.231811 0.240240 2.341805152028776e-38
1.717775 -0.240050 0.240050 2.341805152028776e-38
1.716593 -0.248417 0.239996 2.341805152028776e-38
1.715370 -0.256777 0.239940 2.341805152028776e-38
1.718023 -0.265738 0.240429 2.341805152028776e-38
1.715738 -0.273949 0.240232 2.341805152028776e-38
1.714391 -0.282305 0.240170 2.341805152028776e-38
1.712028 -0.290489 0.239969 2.341805152028776e-38
1.700843 -0.297122 0.238535 2.341805152028776e-38
1.811593 0.235085 0.243956 2.341805152028776e-38
1.740909 0.217298 0.234341 2.341805152028776e-38
1.731115 0.207520 0.232930 2.341805152028776e-38
1.728161 0.198634 0.232444 2.341805152028776e-38
1.723190 0.189566 0.231691 2.341805152028776e-38
1.723102 0.181068 0.231599 2.341805152028776e-38
1.722972 0.172576 0.231504 2.341805152028776e-38
1.722800 0.164089 0.231408 2.341805152028776e-38
1.721600 0.155519 0.231177 2.341805152028776e-38
1.721345 0.147049 0.231077 2.341805152028776e-38
1.723025 0.138744 0.231240 2.341805152028776e-38
1.725653 0.130501 0.231535 2.341805152028776e-38
1.722309 0.121816 0.231031 2.341805152028776e-38
1.720901 0.113298 0.230791 2.341805152028776e-38
1.722418 0.104976 0.230947 2.341805152028776e-38
1.725875 0.096754 0.231367 2.341805152028776e-38
1.723353 0.088196 0.230989 2.341805152028776e-38
1.724750 0.079848 0.231140 2.341805152028776e-38
1.725116 0.071448 0.231156 2.341805152028776e-38
1.724451 0.063010 0.231038 2.341805152028776e-38
1.722755 0.054549 0.230785 2.341805152028776e-38
1.724980 0.046212 0.231061 2.341805152028776e-38
1.726174 0.037833 0.231203 2.341805152028776e-38
1.726337 0.029427 0.231210 2.341805152028776e-38
1.724477 0.020995 0.230950 2.341805152028776e-38
1.724558 0.012597 0.230954 2.341805152028776e-38
1.728564 0.004209 0.231487 2.341805152028776e-38
1.731537 -0.004216 0.231885 2.341805152028776e-38
1.731496 -0.012648 0.231883 2.341805152028776e-38
1.729432 -0.021056 0.231614 2.341805152028776e-38
1.731292 -0.029511 0.231874 2.341805152028776e-38
1.729147 -0.037898 0.231601 2.341805152028776e-38
1.726962 -0.046265 0.231327 2.341805152028776e-38
1.724736 -0.054612 0.231050 2.341805152028776e-38
1.727423 -0.063119 0.231436 2.341805152028776e-38
1.730068 -0.071653 0.231819 2.341805152028776e-38
1.726730 -0.079940 0.231405 2.341805152028776e-38
1.724343 -0.088246 0.231122 2.341805152028776e-38
1.724885 -0.096698 0.231234 2.341805152028776e-38
1.725386 -0.105157 0.231345 2.341805152028776e-38
1.726835 -0.113688 0.231587 2.341805152028776e-38
1.729230 -0.122306 0.231960 2.341805152028776e-38
1.729606 -0.130800 0.232065 2.341805152028776e-38
1.729940 -0.139301 0.232169 2.341805152028776e-38
1.725295 -0.147387 0.231607 2.341805152028776e-38
1.724562 -0.155787 0.231575 2.341805152028776e-38
1.724774 -0.164277 0.231673 2.341805152028776e-38
1.727903 -0.173070 0.232167 2.341805152028776e-38
1.724088 -0.181172 0.231731 2.341805152028776e-38
1.721220 -0.189349 0.231426 2.341805152028776e-38
1.720283 -0.197729 0.231385 2.341805152028776e-38
1.722258 -0.206458 0.231738 2.341805152028776e-38
1.722222 -0.214965 0.231825 2.341805152028776e-38
1.723127 -0.223605 0.232043 2.341805152028776e-38
1.720059 -0.231729 0.231729 2.341805152028776e-38
1.719899 -0.240240 0.231811 2.341805152028776e-38
1.718716 -0.248613 0.231758 2.341805152028776e-38
1.719453 -0.257274 0.231968 2.341805152028776e-38
1.719166 -0.265796 0.232044 2.341805152028776e-38
1.717859 -0.274165 0.231986 2.341805152028776e-38
1.714556 -0.282206 0.231662 2.341805152028776e-38
1.714147 -0.290718 0.231732 2.341805152028776e-38
1.701978 -0.297187 0.230216 2.341805152028776e-38
1.791114 0.232328 0.232328 2.341805152028776e-38
1.742023 0.217344 0.225867 2.341805152028776e-38
1.731238 0.207445 0.224380 2.341805152028776e-38
1.726310 0.198336 0.223656 2.341805152028776e-38
1.723306 0.189497 0.223186 2.341805152028776e-38
1.723217 0.181003 0.223096 2.341805152028776e-38
1.723086 0.172513 0.223005 2.341805152028776e-38
1.723900 0.164124 0.223040 2.341805152028776e-38
1.722699 0.155552 0.222818 2.341805152028776e-38
1.722443 0.147080 0.222721 2.341805152028776e-38
1.726101 0.138933 0.223134 2.341805152028776e-38
1.728731 0.130678 0.223418 2.341805152028776e-38
1.726375 0.122052 0.223061 2.341805152028776e-38
1.726946 0.113647 0.223085 2.341805152028776e-38
1.726486 0.105179 0.222980 2.341805152028776e-38
1.724994 0.096663 0.222745 2.341805152028776e-38
1.724451 0.088214 0.222636 2.341805152028776e-38
1.729812 0.080049 0.223293 2.341805152028776e-38
1.728197 0.071545 0.223053 2.341805152028776e-38
1.727532 0.063096 0.222939 2.341805152028776e-38
1.727817 0.054686 0.222951 2.341805152028776e-38
1.729053 0.046302 0.223090 2.341805152028776e-38
1.726282 0.037819 0.222715 2.341805152028776e-38
1.726444 0.029416 0.222722 2.341805152028776e-38
1.726567 0.021012 0.222727 2.341805152028776e-38
1.728631 0.012622 0.222986 2.341805152028776e-38
1.729664 0.004210 0.223116 2.341805152028776e-38
1.730656 -0.004212 0.223244 2.341805152028776e-38
1.731607 -0.012644 0.223370 2.341805152028776e-38
1.731525 -0.021072 0.223367 2.341805152028776e-38
1.724461 -0.029382 0.222466 2.341805152028776e-38
1.726282 -0.037819 0.222715 2.341805152028776e-38
1.728061 -0.046275 0.222962 2.341805152028776e-38
1.730791 -0.054780 0.223335 2.341805152028776e-38
1.729514 -0.063168 0.223195 2.341805152028776e-38
1.730179 -0.071627 0.223309 2.341805152028776e-38
1.725849 -0.079865 0.222782 2.341805152028776e-38
1.724451 -0.088214 0.222636 2.341805152028776e-38
1.724004 -0.096607 0.222617 2.341805152028776e-38
1.725496 -0.105119 0.222852 2.341805152028776e-38
1.729915 -0.113843 0.223469 2.341805152028776e-38
1.729343 -0.122262 0.223444 2.341805152028776e-38
1.729720 -0.130753 0.223546 2.341805152028776e-38
1.730055 -0.139251 0.223646 2.341805152028776e-38
1.731337 -0.147840 0.223871 2.341805152028776e-38
1.728626 -0.156087 0.223584 2.341805152028776e-38
1.726862 -0.164406 0.223423 2.341805152028776e-38
1.727033 -0.172909 0.223516 2.341805152028776e-38
1.724203 -0.181106 0.223224 2.341805152028776e-38
1.723306 -0.189497 0.223186 2.341805152028776e-38
1.721383 -0.197770 0.223018 2.341805152028776e-38
1.720405 -0.206147 0.222976 2.341805152028776e-38
1.723324 -0.215011 0.223443 2.341805152028776e-38
1.722263 -0.223397 0.223397 2.341805152028776e-38
1.722144 -0.231911 0.223477 2.341805152028776e-38
1.719036 -0.240017 0.223173 2.341805152028776e-38
1.719817 -0.248666 0.223378 2.341805152028776e-38
1.720555 -0.257328 0.223580 2.341805152028776e-38
1.719289 -0.265701 0.223526 2.341805152028776e-38
1.717983 -0.274067 0.223470 2.341805152028776e-38
1.715657 -0.282266 0.223285 2.341805152028776e-38
1.717204 -0.291111 0.223607 2.341805152028776e-38
1.700141 -0.296739 0.221509 2.341805152028776e-38
1.781391 0.230972 0.222256 2.341805152028776e-38
1.739157 0.216897 0.216897 2.341805152028776e-38
1.729347 0.207134 0.215588 2.341805152028776e-38
1.726386 0.198264 0.215137 2.341805152028776e-38
1.724366 0.189536 0.214807 2.341805152028776e-38
1.727237 0.181350 0.215090 2.341805152028776e-38
1.726120 0.172746 0.214879 2.341805152028776e-38
1.725948 0.164251 0.214790 2.341805152028776e-38
1.724746 0.155673 0.214576 2.341805152028776e-38
1.726468 0.147363 0.214729 2.341805152028776e-38
1.728150 0.139041 0.214881 2.341805152028776e-38
1.727813 0.130555 0.214785 2.341805152028776e-38
1.728425 0.122147 0.214810 2.341805152028776e-38
1.728996 0.113735 0.214833 2.341805152028776e-38
1.724573 0.105020 0.214240 2.341805152028776e-38
1.724071 0.096572 0.214137 2.341805152028776e-38
1.726500 0.088283 0.214402 2.341805152028776e-38
1.730872 0.080065 0.214911 2.341805152028776e-38
1.732231 0.071683 0.215049 2.341805152028776e-38
1.732558 0.063254 0.215062 2.341805152028776e-38
1.731852 0.054791 0.214951 2.341805152028776e-38
1.728128 0.046258 0.214469 2.341805152028776e-38
1.724363 0.037762 0.213985 2.341805152028776e-38
1.726510 0.029405 0.214238 2.341805152028776e-38
1.730602 0.021052 0.214735 2.341805152028776e-38
1.730683 0.012632 0.214739 2.341805152028776e-38
1.729731 0.004208 0.214617 2.341805152028776e-38
1.732709 -0.004215 0.214986 2.341805152028776e-38
1.728698 -0.012617 0.214492 2.341805152028776e-38
1.726632 -0.021004 0.214243 2.341805152028776e-38
1.725518 -0.029388 0.214114 2.341805152028776e-38
1.728332 -0.037849 0.214477 2.341805152028776e-38
1.730112 -0.046311 0.214715 2.341805152028776e-38
1.730860 -0.054760 0.214828 2.341805152028776e-38
1.731566 -0.063217 0.214939 2.341805152028776e-38
1.731240 -0.071642 0.214926 2.341805152028776e-38
1.729881 -0.080019 0.214788 2.341805152028776e-38
1.729473 -0.088435 0.214771 2.341805152028776e-38
1.729025 -0.096849 0.214752 2.341805152028776e-38
1.729526 -0.105321 0.214855 2.341805152028776e-38
1.728996 -0.113735 0.214833 2.341805152028776e-38
1.731395 -0.122357 0.215179 2.341805152028776e-38
1.730782 -0.130780 0.215154 2.341805152028776e-38
1.732107 -0.139359 0.215373 2.341805152028776e-38
1.728446 -0.147532 0.214975 2.341805152028776e-38
1.726723 -0.155851 0.214822 2.341805152028776e-38
1.723972 -0.164063 0.214544 2.341805152028776e-38
1.726120 -0.172746 0.214879 2.341805152028776e-38
1.725263 -0.181143 0.214844 2.341805152028776e-38
1.725353 -0.189644 0.214930 2.341805152028776e-38
1.723428 -0.197924 0.214768 2.341805152028776e-38
1.721464 -0.206189 0.214605 2.341805152028776e-38
1.723400 -0.214932 0.214932 2.341805152028776e-38
1.725292 -0.223698 0.215256 2.341805152028776e-38
1.722222 -0.231825 0.214965 2.341805152028776e-38
1.722062 -0.240340 0.215041 2.341805152028776e-38
1.721861 -0.248858 0.215115 2.341805152028776e-38
1.721617 -0.257381 0.215187 2.341805152028776e-38
1.720351 -0.265755 0.215135 2.341805152028776e-38
1.720024 -0.274279 0.215204 2.341805152028776e-38
1.719656 -0.282806 0.215271 2.341805152028776e-38
1.717288 -0.291005 0.215091 2.341805152028776e-38
1.704126 -0.297311 0.213561 2.341805152028776e-38
1.785401 0.231400 0.213936 2.341805152028776e-38
1.736245 0.216448 0.207960 2.341805152028776e-38
1.728399 0.206938 0.206938 2.341805152028776e-38
1.728394 0.198416 0.206859 2.341805152028776e-38
1.728347 0.189898 0.206778 2.341805152028776e-38
1.732208 0.181800 0.207168 2.341805152028776e-38
1.730104 0.173077 0.206848 2.341805152028776e-38
1.726967 0.164283 0.206407 2.341805152028776e-38
1.725764 0.155703 0.206202 2.341805152028776e-38
1.726498 0.147308 0.206231 2.341805152028776e-38
1.729170 0.139068 0.206495 2.341805152028776e-38
1.731803 0.130805 0.206757 2.341805152028776e-38
1.731426 0.122311 0.206663 2.341805152028776e-38
1.731007 0.113823 0.206567 2.341805152028776e-38
1.730546 0.105342 0.206470 2.341805152028776e-38
1.728061 0.096757 0.206135 2.341805152028776e-38
1.729501 0.088402 0.206271 2.341805152028776e-38
1.731892 0.080080 0.206523 2.341805152028776e-38
1.733252 0.071697 0.206656 2.341805152028776e-38
1.733578 0.063266 0.206669 2.341805152028776e-38
1.731879 0.054771 0.206444 2.341805152028776e-38
1.726168 0.046187 0.205744 2.341805152028776e-38
1.726372 0.037791 0.205752 2.341805152028776e-38
1.729513 0.029445 0.206113 2.341805152028776e-38
1.731621 0.021057 0.206354 2.341805152028776e-38
1.730709 0.012627 0.206239 2.341805152028776e-38
1.731743 0.004211 0.206359 2.341805152028776e-38
1.731743 -0.004211 0.206359 2.341805152028776e-38
1.733688 -0.012649 0.206594 2.341805152028776e-38
1.729635 -0.021032 0.206118 2.341805152028776e-38
1.728520 -0.029428 0.205995 2.341805152028776e-38
1.730343 -0.037878 0.206225 2.341805152028776e-38
1.733117 -0.046373 0.206572 2.341805152028776e-38
1.732872 -0.054802 0.206562 2.341805152028776e-38
1.732586 -0.063230 0.206551 2.341805152028776e-38
1.733252 -0.071697 0.206656 2.341805152028776e-38
1.731892 -0.080080 0.206523 2.341805152028776e-38
1.728509 -0.088351 0.206152 2.341805152028776e-38
1.728061 -0.096757 0.206135 2.341805152028776e-38
1.730546 -0.105342 0.206470 2.341805152028776e-38
1.731007 -0.113823 0.206567 2.341805152028776e-38
