VERSION .7
FIELDS x y z rgb
SIZE 4 4 4 4
TYPE F F F F
COUNT 1 1 1 1
WIDTH 976
HEIGHT 1
VIEWPOINT 0 0 0 1 0 0 0
POINTS 976
DATA ascii
1.550087 0.506432 0.223772 2.341805152028776e-38
1.551683 0.498286 0.223640 2.341805152028776e-38
1.554163 0.490487 0.223662 2.341805152028776e-38
1.557550 0.482971 0.223816 2.341805152028776e-38
1.560900 0.475436 0.223965 2.341805152028776e-38
1.565163 0.468164 0.224247 2.341805152028776e-38
1.569393 0.460864 0.224524 2.341805152028776e-38
1.570704 0.452794 0.224428 2.341805152028776e-38
1.570064 0.444191 0.224061 2.341805152028776e-38
1.571287 0.436136 0.223962 2.341805152028776e-38
1.573424 0.428342 0.223996 2.341805152028776e-38
1.582224 0.422328 0.224979 2.341805152028776e-38
1.586201 0.415011 0.225291 2.341805152028776e-38
1.588206 0.407233 0.225362 2.341805152028776e-38
1.589212 0.399205 0.225294 2.341805152028776e-38
1.593063 0.391887 0.225632 2.341805152028776e-38
1.594955 0.384078 0.225695 2.341805152028776e-38
1.598737 0.376715 0.226029 2.341805152028776e-38
1.600548 0.368902 0.226101 2.341805152028776e-38
1.657400 0.373513 0.233959 2.341805152028776e-38
1.385087 0.871923 0.216994 2.341805152028776e-38
1.377357 0.856238 0.215037 2.341805152028776e-38
1.382167 0.848449 0.215045 2.341805152028776e-38
1.389477 0.842176 0.215440 2.341805152028776e-38
1.393357 0.833813 0.215304 2.341805152028776e-38
1.398836 0.826535 0.215448 2.341805152028776e-38
1.403422 0.818724 0.215454 2.341805152028776e-38
1.407963 0.810888 0.215453 2.341805152028776e-38
1.413323 0.803520 0.215578 2.341805152028776e-38
1.419509 0.796603 0.215828 2.341805152028776e-38
1.422147 0.787800 0.215567 2.341805152028776e-38
1.427331 0.780436 0.215698 2.341805152028776e-38
1.427243 0.770216 0.215035 2.341805152028776e-38
1.430586 0.761886 0.214891 2.341805152028776e-38
1.434758 0.754006 0.214872 2.341805152028776e-38
1.438853 0.746164 0.214864 2.341805152028776e-38
1.442004 0.737884 0.214728 2.341805152028776e-38
1.445993 0.730040 0.214718 2.341805152028776e-38
1.450826 0.722618 0.214832 2.341805152028776e-38
1.454731 0.714729 0.214809 2.341805152028776e-38
1.459465 0.707295 0.214924 2.341805152028776e-38
1.465027 0.700313 0.215180 2.341805152028776e-38
1.466073 0.691179 0.214773 2.341805152028776e-38
1.472456 0.684564 0.215149 2.341805152028776e-38
1.477009 0.677076 0.215255 2.341805152028776e-38
1.480610 0.669171 0.215230 2.341805152028776e-38
1.482322 0.660517 0.214961 2.341805152028776e-38
1.484891 0.652265 0.214818 2.341805152028776e-38
1.488323 0.644400 0.214800 2.341805152028776e-38
1.492626 0.636907 0.214907 2.341805152028776e-38
1.495978 0.629005 0.214878 2.341805152028776e-38
1.499247 0.621175 0.214872 2.341805152028776e-38
1.501554 0.612962 0.214732 2.341805152028776e-38
1.506576 0.605852 0.214980 2.341805152028776e-38
1.510642 0.598345 0.215091 2.341805152028776e-38
1.515595 0.591173 0.215328 2.341805152028776e-38
1.516787 0.582605 0.215056 2.341805152028776e-38
1.518843 0.574429 0.214922 2.341805152028776e-38
1.522713 0.566940 0.215046 2.341805152028776e-38
1.528408 0.560111 0.215427 2.341805152028776e-38
1.530343 0.551895 0.215278 2.341805152028776e-38
1.535025 0.544696 0.215527 2.341805152028776e-38
1.538711 0.537207 0.215667 2.341805152028776e-38
1.544236 0.530339 0.216064 2.341805152028776e-38
1.548792 0.523115 0.216326 2.341805152028776e-38
1.550491 0.514922 0.216189 2.341805152028776e-38
1.550262 0.506112 0.215784 2.341805152028776e-38
1.551841 0.498006 0.215672 2.341805152028776e-38
1.554320 0.490208 0.215691 2.341805152028776e-38
1.559600 0.483279 0.216100 2.341805152028776e-38
1.562004 0.475446 0.216112 2.341805152028776e-38
1.569118 0.469022 0.216775 2.341805152028776e-38
1.571438 0.461181 0.216794 2.341805152028776e-38
1.575605 0.453933 0.217098 2.341805152028776e-38
1.579738 0.446656 0.217399 2.341805152028776e-38
1.584794 0.439615 0.217827 2.341805152028776e-38
1.582165 0.430455 0.217202 2.341805152028776e-38
1.585233 0.422866 0.217361 2.341805152028776e-38
1.588240 0.415331 0.217555 2.341805152028776e-38
1.589286 0.407301 0.217491 2.341805152028776e-38
1.591253 0.399512 0.217556 2.341805152028776e-38
1.596069 0.392424 0.218013 2.341805152028776e-38
1.599891 0.385067 0.218337 2.341805152028776e-38
1.601748 0.377234 0.218398 2.341805152028776e-38
1.603555 0.369428 0.218479 2.341805152028776e-38
1.646909 0.370981 0.224219 2.341805152028776e-38
1.390487 0.874580 0.209741 2.341805152028776e-38
1.377706 0.855724 0.207093 2.341805152028776e-38
1.385050 0.849490 0.207479 2.341805152028776e-38
1.389822 0.841659 0.207479 2.341805152028776e-38
1.394535 0.833828 0.207478 2.341805152028776e-38
1.398307 0.825535 0.207362 2.341805152028776e-38
1.403744 0.818226 0.207493 2.341805152028776e-38
1.407423 0.809895 0.207364 2.341805152028776e-38
1.414503 0.803509 0.207737 2.341805152028776e-38
1.418089 0.795140 0.207598 2.341805152028776e-38
1.423312 0.787802 0.207729 2.341805152028776e-38
1.425015 0.778530 0.207347 2.341805152028776e-38
1.428405 0.770206 0.207213 2.341805152028776e-38
1.432623 0.762336 0.207199 2.341805152028776e-38
1.435919 0.753983 0.207052 2.341805152028776e-38
1.439119 0.745705 0.206923 2.341805152028776e-38
1.444033 0.738327 0.207044 2.341805152028776e-38
1.447138 0.730025 0.206906 2.341805152028776e-38
1.452860 0.723039 0.207141 2.341805152028776e-38
1.457659 0.715577 0.207244 2.341805152028776e-38
1.462382 0.708155 0.207360 2.341805152028776e-38
1.465265 0.699875 0.207225 2.341805152028776e-38
1.471691 0.693276 0.207591 2.341805152028776e-38
1.474489 0.684960 0.207445 2.341805152028776e-38
1.477240 0.676635 0.207293 2.341805152028776e-38
1.479921 0.668350 0.207149 2.341805152028776e-38
1.483439 0.660507 0.207141 2.341805152028776e-38
1.486007 0.652249 0.207001 2.341805152028776e-38
1.488530 0.643984 0.206856 2.341805152028776e-38
1.491006 0.635713 0.206704 2.341805152028776e-38
1.496168 0.628613 0.206935 2.341805152028776e-38
1.497599 0.620030 0.206677 2.341805152028776e-38
1.499900 0.611825 0.206540 2.341805152028776e-38
1.505838 0.605095 0.206903 2.341805152028776e-38
1.511746 0.598321 0.207262 2.341805152028776e-38
1.515776 0.590784 0.207361 2.341805152028776e-38
1.520654 0.583671 0.207615 2.341805152028776e-38
1.521787 0.575124 0.207358 2.341805152028776e-38
1.525661 0.567621 0.207475 2.341805152028776e-38
1.528567 0.559754 0.207461 2.341805152028776e-38
1.531432 0.551874 0.207442 2.341805152028776e-38
1.536101 0.544706 0.207694 2.341805152028776e-38
1.540725 0.537539 0.207953 2.341805152028776e-38
1.551883 0.532594 0.209092 2.341805152028776e-38
1.555511 0.525014 0.209216 2.341805152028776e-38
1.554395 0.515850 0.208703 2.341805152028776e-38
1.553215 0.506740 0.208196 2.341805152028776e-38
1.552904 0.498026 0.207838 2.341805152028776e-38
1.556328 0.490522 0.207981 2.341805152028776e-38
1.560664 0.483291 0.208248 2.341805152028776e-38
1.564017 0.475743 0.208383 2.341805152028776e-38
1.568284 0.468458 0.208641 2.341805152028776e-38
1.571539 0.460943 0.208803 2.341805152028776e-38
1.580472 0.455069 0.209727 2.341805152028776e-38
1.596067 0.451007 0.211534 2.341805152028776e-38
1.593499 0.441767 0.210934 2.341805152028776e-38
1.592792 0.433086 0.210583 2.341805152028776e-38
1.590112 0.423943 0.209990 2.341805152028776e-38
1.590241 0.415649 0.209804 2.341805152028776e-38
1.592249 0.407858 0.209869 2.341805152028776e-38
1.592294 0.399574 0.209678 2.341805152028776e-38
1.597113 0.392484 0.210118 2.341805152028776e-38
1.599972 0.384893 0.210302 2.341805152028776e-38
1.601821 0.377086 0.210374 2.341805152028776e-38
1.607494 0.370174 0.210959 2.341805152028776e-38
1.641201 0.369534 0.215223 2.341805152028776e-38
1.402573 0.881460 0.203414 2.341805152028776e-38
1.387286 0.860966 0.200499 2.341805152028776e-38
1.388738 0.851048 0.200016 2.341805152028776e-38
1.392670 0.842683 0.199892 2.341805152028776e-38
1.395670 0.833840 0.199652 2.341805152028776e-38
1.400296 0.826046 0.199660 2.341805152028776e-38
1.404021 0.817727 0.199541 2.341805152028776e-38
1.409417 0.810384 0.199660 2.341805152028776e-38
1.414776 0.803008 0.199773 2.341805152028776e-38
1.420942 0.796117 0.200010 2.341805152028776e-38
1.423565 0.787322 0.199768 2.341805152028776e-38
1.426135 0.778524 0.199521 2.341805152028776e-38
1.430398 0.770665 0.199512 2.341805152028776e-38
1.433742 0.762318 0.199376 2.341805152028776e-38
1.436148 0.753517 0.199116 2.341805152028776e-38
1.441103 0.746158 0.199236 2.341805152028776e-38
1.444253 0.737866 0.199107 2.341805152028776e-38
1.450900 0.731350 0.199459 2.341805152028776e-38
1.455742 0.723902 0.199562 2.341805152028776e-38
1.461436 0.716863 0.199781 2.341805152028776e-38
1.465261 0.709013 0.199777 2.341805152028776e-38
1.469939 0.701573 0.199890 2.341805152028776e-38
1.473681 0.693682 0.199874 2.341805152028776e-38
1.475581 0.684936 0.199610 2.341805152028776e-38
1.480137 0.677432 0.199705 2.341805152028776e-38
1.485521 0.670385 0.199939 2.341805152028776e-38
1.487236 0.661706 0.199686 2.341805152028776e-38
1.490718 0.653827 0.199672 2.341805152028776e-38
1.491426 0.644749 0.199286 2.341805152028776e-38
1.494819 0.636852 0.199260 2.341805152028776e-38
1.499060 0.629378 0.199368 2.341805152028776e-38
1.494990 0.618503 0.198388 2.341805152028776e-38
1.497282 0.610313 0.198255 2.341805152028776e-38
1.505056 0.604336 0.198846 2.341805152028776e-38
1.511885 0.597932 0.199311 2.341805152028776e-38
1.518675 0.591505 0.199780 2.341805152028776e-38
1.521704 0.583669 0.199779 2.341805152028776e-38
1.524693 0.575819 0.199774 2.341805152028776e-38
1.528571 0.568301 0.199885 2.341805152028776e-38
1.531480 0.560419 0.199870 2.341805152028776e-38
1.535282 0.552863 0.199972 2.341805152028776e-38
1.539944 0.545708 0.200224 2.341805152028776e-38
1.542700 0.537868 0.200228 2.341805152028776e-38
1.551048 0.531949 0.200958 2.341805152028776e-38
1.547150 0.521835 0.200102 2.341805152028776e-38
1.551668 0.514589 0.200336 2.341805152028776e-38
1.553296 0.506455 0.200226 2.341805152028776e-38
1.556762 0.498953 0.200367 2.341805152028776e-38
1.560192 0.491431 0.200504 2.341805152028776e-38
1.562637 0.483595 0.200515 2.341805152028776e-38
1.565042 0.475749 0.200522 2.341805152028776e-38
1.569302 0.468487 0.200780 2.341805152028776e-38
1.576362 0.462099 0.201428 2.341805152028776e-38
1.583397 0.455654 0.202072 2.341805152028776e-38
1.591362 0.449421 0.202836 2.341805152028776e-38
1.588783 0.440206 0.202257 2.341805152028776e-38
1.588067 0.431550 0.201918 2.341805152028776e-38
1.592076 0.424265 0.202220 2.341805152028776e-38
1.592205 0.415965 0.202040 2.341805152028776e-38
1.592291 0.407674 0.201858 2.341805152028776e-38
1.593297 0.399634 0.201795 2.341805152028776e-38
1.598119 0.392542 0.202218 2.341805152028776e-38
1.600975 0.384958 0.202401 2.341805152028776e-38
1.606685 0.378072 0.202965 2.341805152028776e-38
1.608496 0.370250 0.203040 2.341805152028776e-38
1.638350 0.368738 0.206655 2.341805152028776e-38
1.430612 0.898373 0.199187 2.341805152028776e-38
1.394303 0.864637 0.193458 2.341805152028776e-38
1.392385 0.852604 0.192524 2.341805152028776e-38
1.393776 0.842678 0.192052 2.341805152028776e-38
1.400172 0.835887 0.192293 2.341805152028776e-38
1.402243 0.826555 0.191949 2.341805152028776e-38
1.406828 0.818725 0.191950 2.341805152028776e-38
1.409647 0.809883 0.191711 2.341805152028776e-38
1.415004 0.802505 0.191818 2.341805152028776e-38
1.419421 0.794666 0.191816 2.341805152028776e-38
1.422905 0.786360 0.191700 2.341805152028776e-38
1.425468 0.777566 0.191461 2.341805152028776e-38
1.429726 0.769711 0.191451 2.341805152028776e-38
1.434818 0.762300 0.191552 2.341805152028776e-38
1.440727 0.755361 0.191776 2.341805152028776e-38
1.444811 0.747522 0.191773 2.341805152028776e-38
1.447083 0.738758 0.191530 2.341805152028776e-38
1.451963 0.731334 0.191633 2.341805152028776e-38
1.460363 0.725647 0.192198 2.341805152028776e-38
1.465162 0.718172 0.192297 2.341805152028776e-38
1.467206 0.709438 0.192058 2.341805152028776e-38
1.469197 0.700705 0.191813 2.341805152028776e-38
1.474733 0.693663 0.192031 2.341805152028776e-38
1.479334 0.686166 0.192126 2.341805152028776e-38
1.482085 0.677825 0.191985 2.341805152028776e-38
1.484748 0.669561 0.191863 2.341805152028776e-38
1.490087 0.662500 0.192086 2.341805152028776e-38
1.490845 0.653410 0.191719 2.341805152028776e-38
1.492461 0.644726 0.191464 2.341805152028776e-38
1.498595 0.637990 0.191788 2.341805152028776e-38
1.499165 0.628989 0.191431 2.341805152028776e-38
1.497842 0.619253 0.190839 2.341805152028776e-38
1.501977 0.611797 0.190943 2.341805152028776e-38
1.506996 0.604686 0.191159 2.341805152028776e-38
1.512906 0.597906 0.191486 2.341805152028776e-38
1.519685 0.591506 0.191946 2.341805152028776e-38
1.521786 0.583310 0.191827 2.341805152028776e-38
1.525702 0.575810 0.191937 2.341805152028776e-38
1.527719 0.567595 0.191808 2.341805152028776e-38
1.531558 0.560059 0.191908 2.341805152028776e-38
1.535344 0.552537 0.192016 2.341805152028776e-38
1.538134 0.544719 0.192023 2.341805152028776e-38
1.539946 0.536563 0.191909 2.341805152028776e-38
1.540776 0.528081 0.191674 2.341805152028776e-38
1.547206 0.521510 0.192135 2.341805152028776e-38
1.552664 0.514584 0.192478 2.341805152028776e-38
1.554281 0.506475 0.192382 2.341805152028776e-38
1.558693 0.499272 0.192633 2.341805152028776e-38
1.561177 0.491443 0.192646 2.341805152028776e-38
1.563623 0.483603 0.192655 2.341805152028776e-38
1.567929 0.476330 0.192894 2.341805152028776e-38
1.572179 0.469094 0.193156 2.341805152028776e-38
1.575432 0.461577 0.193310 2.341805152028776e-38
1.578650 0.454040 0.193460 2.341805152028776e-38
1.581832 0.446484 0.193608 2.341805152028776e-38
1.585935 0.439173 0.193869 2.341805152028776e-38
1.589038 0.431599 0.194021 2.341805152028776e-38
1.593043 0.424328 0.194319 2.341805152028776e-38
1.593171 0.416026 0.194145 2.341805152028776e-38
1.596143 0.408471 0.194321 2.341805152028776e-38
1.599079 0.400898 0.194495 2.341805152028776e-38
1.600050 0.392833 0.194433 2.341805152028776e-38
1.602902 0.385266 0.194619 2.341805152028776e-38
1.606681 0.377919 0.194927 2.341805152028776e-38
1.610427 0.370545 0.195233 2.341805152028776e-38
1.637393 0.368374 0.198355 2.341805152028776e-38
1.386082 0.858884 0.184327 2.341805152028776e-38
1.390907 0.851048 0.184328 2.341805152028776e-38
1.395688 0.843185 0.184324 2.341805152028776e-38
1.397808 0.833859 0.183997 2.341805152028776e-38
1.404147 0.827062 0.184227 2.341805152028776e-38
1.402722 0.815726 0.183441 2.341805152028776e-38
1.408971 0.808885 0.183660 2.341805152028776e-38
1.420373 0.804941 0.184547 2.341805152028776e-38
1.425659 0.797580 0.184661 2.341805152028776e-38
1.423068 0.785878 0.183762 2.341805152028776e-38
1.427372 0.778034 0.183757 2.341805152028776e-38
1.432508 0.770639 0.183858 2.341805152028776e-38
1.438484 0.763679 0.184066 2.341805152028776e-38
1.438227 0.753516 0.183499 2.341805152028776e-38
1.444949 0.747059 0.183831 2.341805152028776e-38
1.444562 0.736940 0.183260 2.341805152028776e-38
1.452096 0.730870 0.183695 2.341805152028776e-38
1.456046 0.722973 0.183674 2.341805152028776e-38
1.459926 0.715109 0.183662 2.341805152028776e-38
1.467320 0.708997 0.184104 2.341805152028776e-38
1.473793 0.702401 0.184429 2.341805152028776e-38
1.474842 0.693221 0.184076 2.341805152028776e-38
1.480343 0.686141 0.184278 2.341805152028776e-38
1.482177 0.677408 0.184036 2.341805152028776e-38
1.486649 0.669961 0.184141 2.341805152028776e-38
1.491084 0.662487 0.184242 2.341805152028776e-38
1.493660 0.654189 0.184113 2.341805152028776e-38
1.498015 0.646671 0.184203 2.341805152028776e-38
1.501410 0.638756 0.184181 2.341805152028776e-38
1.502894 0.630136 0.183953 2.341805152028776e-38
1.503411 0.621139 0.183607 2.341805152028776e-38
1.504795 0.612530 0.183369 2.341805152028776e-38
1.510742 0.605775 0.183686 2.341805152028776e-38
1.516659 0.598975 0.183999 2.341805152028776e-38
1.518802 0.590785 0.183887 2.341805152028776e-38
1.519971 0.582238 0.183659 2.341805152028776e-38
1.523882 0.574748 0.183763 2.341805152028776e-38
1.526825 0.566889 0.183750 2.341805152028776e-38
1.531594 0.559698 0.183957 2.341805152028776e-38
1.536301 0.552545 0.184182 2.341805152028776e-38
1.539091 0.544724 0.184187 2.341805152028776e-38
1.540902 0.536563 0.184076 2.341805152028776e-38
1.545491 0.529365 0.184297 2.341805152028776e-38
1.551930 0.522770 0.184738 2.341805152028776e-38
1.557383 0.515855 0.185078 2.341805152028776e-38
1.557116 0.507108 0.184760 2.341805152028776e-38
1.560586 0.499589 0.184887 2.341805152028776e-38
1.563072 0.491752 0.184899 2.341805152028776e-38
1.565519 0.483903 0.184906 2.341805152028776e-38
1.569824 0.476631 0.185138 2.341805152028776e-38
1.575971 0.469983 0.185623 2.341805152028776e-38
1.578276 0.462169 0.185658 2.341805152028776e-38
1.581498 0.454620 0.185801 2.341805152028776e-38
1.583727 0.446781 0.185829 2.341805152028776e-38
1.586874 0.439198 0.185967 2.341805152028776e-38
1.589965 0.431661 0.186129 2.341805152028776e-38
1.593971 0.424389 0.186414 2.341805152028776e-38
1.596021 0.416586 0.186472 2.341805152028776e-38
1.597071 0.408528 0.186416 2.341805152028776e-38
1.597116 0.400228 0.186245 2.341805152028776e-38
1.600975 0.392896 0.186526 2.341805152028776e-38
1.603825 0.385339 0.186710 2.341805152028776e-38
1.610507 0.378673 0.187343 2.341805152028776e-38
1.613290 0.371060 0.187525 2.341805152028776e-38
1.634456 0.367572 0.189845 2.341805152028776e-38
1.381183 0.855224 0.175731 2.341805152028776e-38
1.389380 0.849490 0.176162 2.341805152028776e-38
1.394994 0.842166 0.176267 2.341805152028776e-38
1.401374 0.835394 0.176492 2.341805152028776e-38
1.402581 0.825551 0.176065 2.341805152028776e-38
1.402863 0.815223 0.175527 2.341805152028776e-38
1.416009 0.812340 0.176596 2.341805152028776e-38
1.423107 0.805913 0.176908 2.341805152028776e-38
1.423182 0.795641 0.176374 2.341805152028776e-38
1.427540 0.787796 0.176372 2.341805152028776e-38
1.430109 0.778977 0.176151 2.341805152028776e-38
1.432623 0.770155 0.175924 2.341805152028776e-38
1.435962 0.761796 0.175799 2.341805152028776e-38
1.440084 0.753975 0.175797 2.341805152028776e-38
1.443277 0.745683 0.175684 2.341805152028776e-38
1.445536 0.736928 0.175459 2.341805152028776e-38
1.447744 0.728172 0.175228 2.341805152028776e-38
1.454351 0.721624 0.175530 2.341805152028776e-38
1.462676 0.715978 0.176060 2.341805152028776e-38
1.468287 0.708988 0.176268 2.341805152028776e-38
1.471171 0.700677 0.176148 2.341805152028776e-38
1.478508 0.694470 0.176560 2.341805152028776e-38
1.479506 0.685280 0.176215 2.341805152028776e-38
1.481322 0.676577 0.175988 2.341805152028776e-38
1.487603 0.669951 0.176303 2.341805152028776e-38
1.492038 0.662472 0.176398 2.341805152028776e-38
1.495525 0.654568 0.176381 2.341805152028776e-38
1.498057 0.646252 0.176251 2.341805152028776e-38
1.500522 0.637976 0.176128 2.341805152028776e-38
1.504752 0.630513 0.176230 2.341805152028776e-38
1.507107 0.622265 0.176113 2.341805152028776e-38
1.510337 0.614386 0.176098 2.341805152028776e-38
1.513527 0.606492 0.176078 2.341805152028776e-38
1.515739 0.598245 0.175954 2.341805152028776e-38
1.518803 0.590423 0.175954 2.341805152028776e-38
1.520898 0.582232 0.175842 2.341805152028776e-38
1.524809 0.574737 0.175940 2.341805152028776e-38
1.529616 0.567565 0.176141 2.341805152028776e-38
1.533454 0.560023 0.176231 2.341805152028776e-38
1.537217 0.552552 0.176346 2.341805152028776e-38
1.540945 0.545058 0.176458 2.341805152028776e-38
1.543697 0.537215 0.176457 2.341805152028776e-38
1.549230 0.530325 0.176775 2.341805152028776e-38
1.553792 0.523077 0.176981 2.341805152028776e-38
1.556403 0.515250 0.176994 2.341805152028776e-38
1.558968 0.507431 0.177011 2.341805152028776e-38
1.561494 0.499601 0.177024 2.341805152028776e-38
1.563031 0.491462 0.176926 2.341805152028776e-38
1.564526 0.483321 0.176825 2.341805152028776e-38
1.568818 0.476091 0.177059 2.341805152028776e-38
1.574964 0.469449 0.177523 2.341805152028776e-38
1.578221 0.461922 0.177662 2.341805152028776e-38
1.581441 0.454374 0.177798 2.341805152028776e-38
1.581755 0.445997 0.177610 2.341805152028776e-38
1.583938 0.438171 0.177637 2.341805152028776e-38
1.587975 0.430940 0.177911 2.341805152028776e-38
1.591978 0.423680 0.178183 2.341805152028776e-38
1.595949 0.416391 0.178453 2.341805152028776e-38
1.596034 0.408089 0.178291 2.341805152028776e-38
1.598005 0.400279 0.178342 2.341805152028776e-38
1.600894 0.392730 0.178513 2.341805152028776e-38
1.604709 0.385408 0.178798 2.341805152028776e-38
1.608492 0.378059 0.179080 2.341805152028776e-38
1.615147 0.371350 0.179685 2.341805152028776e-38
1.630506 0.366548 0.181260 2.341805152028776e-38
1.379615 0.853656 0.167613 2.341805152028776e-38
1.391201 0.850006 0.168434 2.341805152028776e-38
1.397658 0.843205 0.168641 2.341805152028776e-38
1.402336 0.835400 0.168649 2.341805152028776e-38
1.406113 0.827065 0.168549 2.341805152028776e-38
1.408981 0.818216 0.168341 2.341805152028776e-38
1.417835 0.812825 0.168848 2.341805152028776e-38
1.420596 0.803958 0.168635 2.341805152028776e-38
1.425000 0.796127 0.168638 2.341805152028776e-38
1.425005 0.785870 0.168121 2.341805152028776e-38
1.430183 0.778492 0.168217 2.341805152028776e-38
1.434446 0.770611 0.168204 2.341805152028776e-38
1.440415 0.763655 0.168396 2.341805152028776e-38
1.442781 0.754894 0.168189 2.341805152028776e-38
1.446862 0.747043 0.168183 2.341805152028776e-38
1.450014 0.738721 0.168069 2.341805152028776e-38
1.454896 0.731280 0.168155 2.341805152028776e-38
1.460629 0.724255 0.168340 2.341805152028776e-38
1.464493 0.716410 0.168337 2.341805152028776e-38
1.468315 0.708545 0.168328 2.341805152028776e-38
1.475688 0.702371 0.168726 2.341805152028776e-38
1.479435 0.694449 0.168708 2.341805152028776e-38
1.480431 0.685255 0.168377 2.341805152028776e-38
1.484043 0.677398 0.168370 2.341805152028776e-38
1.487609 0.669533 0.168362 2.341805152028776e-38
1.492952 0.662457 0.168554 2.341805152028776e-38
1.496438 0.654548 0.168536 2.341805152028776e-38
1.499883 0.646621 0.168513 2.341805152028776e-38
1.502337 0.638361 0.168402 2.341805152028776e-38
1.504735 0.630120 0.168293 2.341805152028776e-38
1.509845 0.623011 0.168487 2.341805152028776e-38
1.511237 0.614369 0.168267 2.341805152028776e-38
1.515350 0.606840 0.168349 2.341805152028776e-38
1.517551 0.598611 0.168237 2.341805152028776e-38
1.521544 0.591140 0.168338 2.341805152028776e-38
1.524571 0.583291 0.168332 2.341805152028776e-38
1.527558 0.575426 0.168322 2.341805152028776e-38
1.528639 0.566857 0.168102 2.341805152028776e-38
1.534330 0.560032 0.168401 2.341805152028776e-38
1.537158 0.552221 0.168408 2.341805152028776e-38
1.539946 0.544396 0.168410 2.341805152028776e-38
1.543635 0.536885 0.168511 2.341805152028776e-38
1.549168 0.529996 0.168814 2.341805152028776e-38
1.554668 0.523077 0.169115 2.341805152028776e-38
1.557271 0.515267 0.169134 2.341805152028776e-38
1.561728 0.508061 0.169354 2.341805152028776e-38
1.566151 0.500824 0.169570 2.341805152028776e-38
1.564848 0.491767 0.169168 2.341805152028776e-38
1.565394 0.483324 0.168967 2.341805152028776e-38
1.568722 0.475837 0.169099 2.341805152028776e-38
1.575823 0.469481 0.169645 2.341805152028776e-38
1.579080 0.461951 0.169777 2.341805152028776e-38
1.581345 0.454126 0.169804 2.341805152028776e-38
1.582614 0.446021 0.169725 2.341805152028776e-38
1.586703 0.438760 0.169970 2.341805152028776e-38
1.589783 0.431257 0.170129 2.341805152028776e-38
1.595712 0.424501 0.170594 2.341805152028776e-38
1.594875 0.415942 0.170338 2.341805152028776e-38
1.596884 0.408140 0.170388 2.341805152028776e-38
1.599818 0.400576 0.170542 2.341805152028776e-38
1.604637 0.393508 0.170918 2.341805152028776e-38
1.606523 0.385707 0.170983 2.341805152028776e-38
1.611276 0.378579 0.171357 2.341805152028776e-38
1.615998 0.371414 0.171729 2.341805152028776e-38
1.627482 0.365739 0.172822 2.341805152028776e-38
1.382232 0.854705 0.160013 2.341805152028776e-38
1.392130 0.850002 0.160599 2.341805152028776e-38
1.396019 0.841673 0.160505 2.341805152028776e-38
1.401544 0.834386 0.160610 2.341805152028776e-38
1.406173 0.826561 0.160611 2.341805152028776e-38
1.413340 0.820209 0.160902 2.341805152028776e-38
1.419617 0.813310 0.161090 2.341805152028776e-38
1.421503 0.803963 0.160793 2.341805152028776e-38
1.424169 0.795156 0.160598 2.341805152028776e-38
1.428524 0.787306 0.160595 2.341805152028776e-38
1.431961 0.778957 0.160489 2.341805152028776e-38
1.437104 0.771537 0.160574 2.341805152028776e-38
1.441309 0.763655 0.160563 2.341805152028776e-38
1.445438 0.755812 0.160561 2.341805152028776e-38
1.447755 0.747034 0.160358 2.341805152028776e-38
1.453567 0.740061 0.160542 2.341805152028776e-38
1.455788 0.731261 0.160330 2.341805152028776e-38
1.461511 0.724253 0.160510 2.341805152028776e-38
1.467163 0.717278 0.160702 2.341805152028776e-38
1.472783 0.710263 0.160888 2.341805152028776e-38
1.475673 0.701928 0.160777 2.341805152028776e-38
1.475814 0.692315 0.160367 2.341805152028776e-38
1.478597 0.683989 0.160249 2.341805152028776e-38
1.482198 0.676152 0.160244 2.341805152028776e-38
1.486664 0.668705 0.160333 2.341805152028776e-38
1.495643 0.663248 0.160906 2.341805152028776e-38
1.498222 0.654926 0.160790 2.341805152028776e-38
1.500754 0.646596 0.160669 2.341805152028776e-38
1.503197 0.638356 0.160568 2.341805152028776e-38
1.507429 0.630880 0.160659 2.341805152028776e-38
1.508865 0.622239 0.160452 2.341805152028776e-38
1.512096 0.614351 0.160436 2.341805152028776e-38
1.515285 0.606447 0.160415 2.341805152028776e-38
1.520250 0.599341 0.160608 2.341805152028776e-38
1.523319 0.591496 0.160605 2.341805152028776e-38
1.526348 0.583638 0.160598 2.341805152028776e-38
1.528405 0.575414 0.160490 2.341805152028776e-38
1.532285 0.567877 0.160572 2.341805152028776e-38
1.535167 0.560040 0.160571 2.341805152028776e-38
1.538931 0.552561 0.160674 2.341805152028776e-38
1.542660 0.545059 0.160773 2.341805152028776e-38
1.549172 0.538515 0.161161 2.341805152028776e-38
1.554715 0.531598 0.161448 2.341805152028776e-38
1.557383 0.523731 0.161451 2.341805152028776e-38
1.561880 0.516533 0.161663 2.341805152028776e-38
1.563504 0.508381 0.161578 2.341805152028776e-38
1.565086 0.500227 0.161491 2.341805152028776e-38
1.563778 0.491176 0.161106 2.341805152028776e-38
1.566215 0.483344 0.161115 2.341805152028776e-38
1.571444 0.476447 0.161441 2.341805152028776e-38
1.576642 0.469511 0.161764 2.341805152028776e-38
1.579900 0.461978 0.161890 2.341805152028776e-38
1.583122 0.454425 0.162012 2.341805152028776e-38
1.586308 0.446851 0.162132 2.341805152028776e-38
1.590390 0.439611 0.162379 2.341805152028776e-38
1.593475 0.432092 0.162530 2.341805152028776e-38
1.594601 0.424042 0.162483 2.341805152028776e-38
1.596649 0.416243 0.162533 2.341805152028776e-38
1.599624 0.408680 0.162679 2.341805152028776e-38
1.602556 0.401125 0.162833 2.341805152028776e-38
1.605445 0.393573 0.162995 2.341805152028776e-38
1.609267 0.386235 0.163254 2.341805152028776e-38
1.611118 0.378414 0.163315 2.341805152028776e-38
1.618750 0.371921 0.163965 2.341805152028776e-38
1.625386 0.365144 0.164516 2.341805152028776e-38
1.626163 0.357032 0.164475 2.341805152028776e-38
1.385654 0.856275 0.152487 2.341805152028776e-38
1.391314 0.848960 0.152578 2.341805152028776e-38
1.399450 0.843223 0.152957 2.341805152028776e-38
1.404984 0.835917 0.153055 2.341805152028776e-38
1.410480 0.828577 0.153149 2.341805152028776e-38
1.414215 0.820203 0.153052 2.341805152028776e-38
1.417901 0.811815 0.152951 2.341805152028776e-38
1.420633 0.802986 0.152763 2.341805152028776e-38
1.425901 0.795640 0.152857 2.341805152028776e-38
1.429386 0.787300 0.152760 2.341805152028776e-38
1.434573 0.779897 0.152844 2.341805152028776e-38
1.437089 0.771051 0.152645 2.341805152028776e-38
1.441280 0.763189 0.152638 2.341805152028776e-38
1.445406 0.755346 0.152635 2.341805152028776e-38
1.450375 0.747938 0.152720 2.341805152028776e-38
1.452643 0.739144 0.152522 2.341805152028776e-38
1.457528 0.731689 0.152598 2.341805152028776e-38
1.464136 0.725134 0.152866 2.341805152028776e-38
1.470688 0.718582 0.153140 2.341805152028776e-38
1.472728 0.709820 0.152945 2.341805152028776e-38
1.473817 0.700630 0.152651 2.341805152028776e-38
1.475752 0.691872 0.152446 2.341805152028776e-38
1.480328 0.684404 0.152524 2.341805152028776e-38
1.483931 0.676558 0.152519 2.341805152028776e-38
1.491125 0.670326 0.152881 2.341805152028776e-38
1.494653 0.662425 0.152867 2.341805152028776e-38
1.499965 0.655303 0.153035 2.341805152028776e-38
1.503403 0.647381 0.153017 2.341805152028776e-38
1.505848 0.639129 0.152920 2.341805152028776e-38
1.507330 0.630486 0.152726 2.341805152028776e-38
1.512445 0.623363 0.152900 2.341805152028776e-38
1.514758 0.615082 0.152791 2.341805152028776e-38
1.516099 0.606433 0.152586 2.341805152028776e-38
1.521058 0.599340 0.152773 2.341805152028776e-38
1.525984 0.592212 0.152955 2.341805152028776e-38
1.530876 0.585050 0.153134 2.341805152028776e-38
1.534804 0.577504 0.153215 2.341805152028776e-38
1.536827 0.569243 0.153107 2.341805152028776e-38
1.538769 0.561069 0.153019 2.341805152028776e-38
1.542540 0.553572 0.153116 2.341805152028776e-38
1.548151 0.546715 0.153395 2.341805152028776e-38
1.551852 0.539163 0.153484 2.341805152028776e-38
1.554574 0.531267 0.153477 2.341805152028776e-38
1.556285 0.523114 0.153394 2.341805152028776e-38
1.559834 0.515610 0.153502 2.341805152028776e-38
1.561454 0.507469 0.153421 2.341805152028776e-38
1.564928 0.499931 0.153522 2.341805152028776e-38
1.566466 0.491776 0.153434 2.341805152028776e-38
1.569847 0.484257 0.153545 2.341805152028776e-38
1.574128 0.477055 0.153762 2.341805152028776e-38
1.579331 0.470107 0.154069 2.341805152028776e-38
1.580681 0.462003 0.154001 2.341805152028776e-38
1.583904 0.454447 0.154117 2.341805152028776e-38
1.585166 0.446355 0.154052 2.341805152028776e-38
1.590202 0.439398 0.154383 2.341805152028776e-38
1.593287 0.431882 0.154527 2.341805152028776e-38
1.596336 0.424347 0.154668 2.341805152028776e-38
1.597423 0.416290 0.154622 2.341805152028776e-38
1.601363 0.408972 0.154853 2.341805152028776e-38
1.604290 0.401430 0.155007 2.341805152028776e-38
1.607182 0.393872 0.155162 2.341805152028776e-38
1.608102 0.385831 0.155128 2.341805152028776e-38
1.615766 0.379383 0.155747 2.341805152028776e-38
1.619524 0.371979 0.155991 2.341805152028776e-38
1.623249 0.364547 0.156235 2.341805152028776e-38
1.614298 0.354313 0.155261 2.341805152028776e-38
1.386492 0.856275 0.144667 2.341805152028776e-38
1.395555 0.851030 0.145106 2.341805152028776e-38
1.401988 0.844257 0.145291 2.341805152028776e-38
1.406672 0.836429 0.145295 2.341805152028776e-38
1.412171 0.829080 0.145384 2.341805152028776e-38
1.416770 0.821196 0.145379 2.341805152028776e-38
1.419596 0.812298 0.145193 2.341805152028776e-38
1.421452 0.802988 0.144930 2.341805152028776e-38
1.425850 0.795152 0.144929 2.341805152028776e-38
1.431078 0.787773 0.145013 2.341805152028776e-38
1.435392 0.779886 0.145004 2.341805152028776e-38
1.438785 0.771506 0.144902 2.341805152028776e-38
1.443849 0.764119 0.144987 2.341805152028776e-38
1.447980 0.756262 0.144983 2.341805152028776e-38
1.450298 0.747471 0.144798 2.341805152028776e-38
1.454339 0.739581 0.144786 2.341805152028776e-38
1.461007 0.733010 0.145034 2.341805152028776e-38
1.464935 0.725131 0.145026 2.341805152028776e-38
1.469699 0.717700 0.145109 2.341805152028776e-38
1.471733 0.708943 0.144922 2.341805152028776e-38
1.474615 0.700613 0.144819 2.341805152028776e-38
1.476548 0.691851 0.144624 2.341805152028776e-38
1.481115 0.684400 0.144702 2.341805152028776e-38
1.486531 0.677376 0.144872 2.341805152028776e-38
1.489188 0.669089 0.144774 2.341805152028776e-38
1.494531 0.662005 0.144936 2.341805152028776e-38
1.500754 0.655283 0.145182 2.341805152028776e-38
1.502352 0.646591 0.144993 2.341805152028776e-38
1.505710 0.638734 0.144989 2.341805152028776e-38
1.508107 0.630476 0.144892 2.341805152028776e-38
1.512302 0.622970 0.144968 2.341805152028776e-38
1.513690 0.614314 0.144775 2.341805152028776e-38
1.516865 0.606435 0.144762 2.341805152028776e-38
1.521825 0.599338 0.144938 2.341805152028776e-38
1.526752 0.592206 0.145110 2.341805152028776e-38
1.529784 0.584329 0.145102 2.341805152028776e-38
1.532776 0.576439 0.145090 2.341805152028776e-38
1.536654 0.568898 0.145167 2.341805152028776e-38
1.539528 0.561074 0.145173 2.341805152028776e-38
1.544236 0.553910 0.145352 2.341805152028776e-38
1.547972 0.546382 0.145440 2.341805152028776e-38
1.549790 0.538177 0.145347 2.341805152028776e-38
1.553449 0.530614 0.145428 2.341805152028776e-38
1.554202 0.522178 0.145267 2.341805152028776e-38
1.560585 0.515622 0.145634 2.341805152028776e-38
1.562204 0.507478 0.145556 2.341805152028776e-38
1.565678 0.499937 0.145651 2.341805152028776e-38
1.567216 0.491779 0.145567 2.341805152028776e-38
1.572490 0.484875 0.145857 2.341805152028776e-38
1.575823 0.477372 0.145973 2.341805152028776e-38
1.578164 0.469565 0.145999 2.341805152028776e-38
1.582379 0.462305 0.146199 2.341805152028776e-38
1.585604 0.454742 0.146308 2.341805152028776e-38
1.586857 0.446676 0.146257 2.341805152028776e-38
1.589976 0.439183 0.146394 2.341805152028776e-38
1.594983 0.432191 0.146707 2.341805152028776e-38
1.598034 0.424649 0.146841 2.341805152028776e-38
1.600085 0.416837 0.146885 2.341805152028776e-38
1.603059 0.409276 0.147021 2.341805152028776e-38
1.605022 0.401489 0.147080 2.341805152028776e-38
1.607914 0.393931 0.147227 2.341805152028776e-38
1.610771 0.386353 0.147372 2.341805152028776e-38
1.613592 0.378757 0.147516 2.341805152028776e-38
1.616377 0.371143 0.147659 2.341805152028776e-38
1.621070 0.363947 0.147978 2.341805152028776e-38
1.611138 0.353512 0.146966 2.341805152028776e-38
1.394919 0.860984 0.137600 2.341805152028776e-38
1.398048 0.852071 0.137431 2.341805152028776e-38
1.404483 0.845291 0.137606 2.341805152028776e-38
1.407460 0.836431 0.137442 2.341805152028776e-38
1.412959 0.829077 0.137525 2.341805152028776e-38
1.414972 0.819691 0.137269 2.341805152028776e-38
1.419517 0.811795 0.137260 2.341805152028776e-38
1.423964 0.803969 0.137263 2.341805152028776e-38
1.429238 0.796605 0.137346 2.341805152028776e-38
1.431855 0.787766 0.137173 2.341805152028776e-38
1.436169 0.779875 0.137164 2.341805152028776e-38
1.439561 0.771490 0.137067 2.341805152028776e-38
1.442854 0.763185 0.136982 2.341805152028776e-38
1.446097 0.754873 0.136894 2.341805152028776e-38
1.453721 0.748830 0.137220 2.341805152028776e-38
1.456881 0.740470 0.137124 2.341805152028776e-38
1.462665 0.733438 0.137274 2.341805152028776e-38
1.464798 0.724685 0.137103 2.341805152028776e-38
1.470456 0.717692 0.137264 2.341805152028776e-38
1.475183 0.710228 0.137337 2.341805152028776e-38
1.477171 0.701452 0.137155 2.341805152028776e-38
1.480011 0.693098 0.137053 2.341805152028776e-38
1.485479 0.686067 0.137213 2.341805152028776e-38
1.486370 0.676954 0.136956 2.341805152028776e-38
1.489934 0.669077 0.136946 2.341805152028776e-38
1.497100 0.662796 0.137265 2.341805152028776e-38
1.501502 0.655262 0.137330 2.341805152028776e-38
1.505835 0.647770 0.137406 2.341805152028776e-38
1.509199 0.639894 0.137401 2.341805152028776e-38
1.512522 0.632002 0.137392 2.341805152028776e-38
1.513960 0.623334 0.137212 2.341805152028776e-38
1.516273 0.615045 0.137112 2.341805152028776e-38
1.519442 0.607175 0.137104 2.341805152028776e-38
1.521625 0.598970 0.137019 2.341805152028776e-38
1.526551 0.591839 0.137181 2.341805152028776e-38
1.529581 0.583964 0.137173 2.341805152028776e-38
1.535370 0.577126 0.137411 2.341805152028776e-38
1.537373 0.568905 0.137322 2.341805152028776e-38
1.541182 0.561419 0.137410 2.341805152028776e-38
1.544955 0.553911 0.137496 2.341805152028776e-38
1.548692 0.546379 0.137577 2.341805152028776e-38
1.549568 0.537844 0.137405 2.341805152028776e-38
1.552272 0.529987 0.137404 2.341805152028776e-38
1.557745 0.523143 0.137669 2.341805152028776e-38
1.564134 0.516571 0.138015 2.341805152028776e-38
1.566705 0.508717 0.138024 2.341805152028776e-38
1.568288 0.500548 0.137946 2.341805152028776e-38
1.572677 0.493282 0.138119 2.341805152028776e-38
1.577002 0.486077 0.138315 2.341805152028776e-38
1.577479 0.477687 0.138174 2.341805152028776e-38
1.582687 0.470725 0.138448 2.341805152028776e-38
1.584996 0.462885 0.138470 2.341805152028776e-38
1.589182 0.455584 0.138656 2.341805152028776e-38
1.590428 0.447534 0.138617 2.341805152028776e-38
1.594513 0.440290 0.138830 2.341805152028776e-38
1.596640 0.432496 0.138875 2.341805152028776e-38
1.601619 0.425460 0.139169 2.341805152028776e-38
1.602710 0.417381 0.139127 2.341805152028776e-38
1.606648 0.410073 0.139345 2.341805152028776e-38
1.607648 0.402030 0.139317 2.341805152028776e-38
1.612479 0.394934 0.139623 2.341805152028776e-38
1.612434 0.386640 0.139509 2.341805152028776e-38
1.617197 0.379494 0.139813 2.341805152028776e-38
1.619015 0.371641 0.139865 2.341805152028776e-38
1.625656 0.364871 0.140335 2.341805152028776e-38
1.615724 0.354416 0.139377 2.341805152028776e-38
1.397370 0.862029 0.129895 2.341805152028776e-38
1.401346 0.853635 0.129816 2.341805152028776e-38
1.405228 0.845296 0.129743 2.341805152028776e-38
1.408204 0.836432 0.129588 2.341805152028776e-38
1.408545 0.826048 0.129192 2.341805152028776e-38
1.417441 0.820682 0.129581 2.341805152028776e-38
1.421982 0.812789 0.129575 2.341805152028776e-38
1.427302 0.805440 0.129656 2.341805152028776e-38
1.429101 0.796116 0.129418 2.341805152028776e-38
1.432588 0.787759 0.129334 2.341805152028776e-38
1.437778 0.780339 0.129403 2.341805152028776e-38
1.440287 0.771487 0.129234 2.341805152028776e-38
1.446221 0.764580 0.129391 2.341805152028776e-38
1.451239 0.757172 0.129465 2.341805152028776e-38
1.454446 0.748819 0.129377 2.341805152028776e-38
1.458493 0.740907 0.129365 2.341805152028776e-38
1.463387 0.733425 0.129428 2.341805152028776e-38
1.467300 0.725564 0.129425 2.341805152028776e-38
1.471171 0.717684 0.129418 2.341805152028776e-38
1.475000 0.709783 0.129408 2.341805152028776e-38
1.477886 0.701435 0.129315 2.341805152028776e-38
1.482530 0.693923 0.129376 2.341805152028776e-38
1.486185 0.686062 0.129372 2.341805152028776e-38
1.489797 0.678185 0.129365 2.341805152028776e-38
1.490638 0.669065 0.129118 2.341805152028776e-38
1.496895 0.662376 0.129340 2.341805152028776e-38
1.504036 0.656039 0.129636 2.341805152028776e-38
1.506532 0.647766 0.129553 2.341805152028776e-38
1.510814 0.640276 0.129626 2.341805152028776e-38
1.512299 0.631607 0.129460 2.341805152028776e-38
1.510047 0.621423 0.128975 2.341805152028776e-38
1.510502 0.612404 0.128722 2.341805152028776e-38
1.515500 0.605326 0.128876 2.341805152028776e-38
1.520456 0.598236 0.129031 2.341805152028776e-38
1.527238 0.591832 0.129341 2.341805152028776e-38
1.533994 0.585375 0.129647 2.341805152028776e-38
1.535125 0.576761 0.129477 2.341805152028776e-38
1.538986 0.569257 0.129555 2.341805152028776e-38
1.542798 0.561763 0.129638 2.341805152028776e-38
1.545635 0.553910 0.129639 2.341805152028776e-38
1.545611 0.545049 0.129400 2.341805152028776e-38
1.550246 0.537837 0.129552 2.341805152028776e-38
1.555772 0.530969 0.129792 2.341805152028776e-38
1.563141 0.524742 0.130199 2.341805152028776e-38
1.564806 0.516581 0.130131 2.341805152028776e-38
1.568326 0.509032 0.130217 2.341805152028776e-38
1.569909 0.500855 0.130143 2.341805152028776e-38
1.574291 0.493609 0.130313 2.341805152028776e-38
1.576713 0.485810 0.130339 2.341805152028776e-38
1.579097 0.478000 0.130364 2.341805152028776e-38
1.582397 0.470462 0.130464 2.341805152028776e-38
1.585661 0.462904 0.130563 2.341805152028776e-38
1.589842 0.455620 0.130743 2.341805152028776e-38
1.593004 0.448120 0.130867 2.341805152028776e-38
1.594209 0.440069 0.130831 2.341805152028776e-38
1.597298 0.432539 0.130952 2.341805152028776e-38
1.601315 0.425245 0.131150 2.341805152028776e-38
1.603369 0.417420 0.131189 2.341805152028776e-38
1.605372 0.409635 0.131242 2.341805152028776e-38
1.606369 0.401600 0.131216 2.341805152028776e-38
1.610231 0.394276 0.131425 2.341805152028776e-38
1.614059 0.386924 0.131634 2.341805152028776e-38
1.616884 0.379316 0.131763 2.341805152028776e-38
1.622588 0.372360 0.132128 2.341805152028776e-38
1.623398 0.364265 0.132096 2.341805152028776e-38
1.617353 0.354677 0.131509 2.341805152028776e-38
1.399778 0.863073 0.122170 2.341805152028776e-38
1.402900 0.854162 0.122023 2.341805152028776e-38
1.406784 0.845814 0.121955 2.341805152028776e-38
1.408047 0.835923 0.121660 2.341805152028776e-38
1.411824 0.827558 0.121584 2.341805152028776e-38
1.417278 0.820176 0.121653 2.341805152028776e-38
1.420942 0.811804 0.121574 2.341805152028776e-38
1.424520 0.803480 0.121502 2.341805152028776e-38
1.428050 0.795142 0.121426 2.341805152028776e-38
1.433278 0.787751 0.121494 2.341805152028776e-38
1.440222 0.781278 0.121707 2.341805152028776e-38
1.442727 0.772429 0.121550 2.341805152028776e-38
1.446021 0.764111 0.121474 2.341805152028776e-38
1.451037 0.756704 0.121543 2.341805152028776e-38
1.457788 0.750178 0.121757 2.341805152028776e-38
1.460954 0.741795 0.121670 2.341805152028776e-38
1.467626 0.735210 0.121880 2.341805152028776e-38
1.468867 0.726001 0.121654 2.341805152028776e-38
1.473637 0.718549 0.121721 2.341805152028776e-38
1.474775 0.709339 0.121489 2.341805152028776e-38
1.480361 0.702274 0.121623 2.341805152028776e-38
1.485003 0.694764 0.121682 2.341805152028776e-38
1.490471 0.687728 0.121826 2.341805152028776e-38
1.490461 0.678176 0.121523 2.341805152028776e-38
1.494941 0.670685 0.121586 2.341805152028776e-38
1.501207 0.663973 0.121794 2.341805152028776e-38
1.506526 0.656823 0.121925 2.341805152028776e-38
1.509938 0.648943 0.121923 2.341805152028776e-38
1.511471 0.640268 0.121769 2.341805152028776e-38
1.507433 0.629291 0.121168 2.341805152028776e-38
1.506089 0.619511 0.120785 2.341805152028776e-38
1.513003 0.613135 0.121065 2.341805152028776e-38
1.519849 0.606805 0.121361 2.341805152028776e-38
1.524813 0.599692 0.121506 2.341805152028776e-38
1.532534 0.593626 0.121870 2.341805152028776e-38
1.534642 0.585364 0.121787 2.341805152028776e-38
1.537639 0.577448 0.121775 2.341805152028776e-38
1.540560 0.569608 0.121778 2.341805152028776e-38
1.544374 0.562106 0.121855 2.341805152028776e-38
1.546274 0.553909 0.121781 2.341805152028776e-38
1.548130 0.545708 0.121705 2.341805152028776e-38
1.552770 0.538483 0.121847 2.341805152028776e-38
1.561123 0.532593 0.122299 2.341805152028776e-38
1.563774 0.524753 0.122311 2.341805152028776e-38
1.567333 0.517214 0.122394 2.341805152028776e-38
1.568959 0.509037 0.122327 2.341805152028776e-38
1.572443 0.501464 0.122405 2.341805152028776e-38
1.574916 0.493636 0.122422 2.341805152028776e-38
1.577338 0.485835 0.122446 2.341805152028776e-38
1.578767 0.477733 0.122394 2.341805152028776e-38
1.585891 0.471335 0.122785 2.341805152028776e-38
1.591074 0.464319 0.123025 2.341805152028776e-38
1.594295 0.456763 0.123127 2.341805152028776e-38
1.595543 0.448703 0.123095 2.341805152028776e-38
1.598673 0.441172 0.123210 2.341805152028776e-38
1.600805 0.433360 0.123249 2.341805152028776e-38
1.604827 0.426051 0.123435 2.341805152028776e-38
1.605916 0.417973 0.123402 2.341805152028776e-38
1.609853 0.410672 0.123600 2.341805152028776e-38
1.615692 0.403826 0.123947 2.341805152028776e-38
1.623440 0.397408 0.124441 2.341805152028776e-38
1.630194 0.390691 0.124860 2.341805152028776e-38
1.636920 0.383918 0.125279 2.341805152028776e-38
1.641676 0.376643 0.125548 2.341805152028776e-38
1.648345 0.369768 0.125965 2.341805152028776e-38
1.400446 0.863071 0.114288 2.341805152028776e-38
1.403558 0.854169 0.114152 2.341805152028776e-38
1.407442 0.845818 0.114087 2.341805152028776e-38
1.411277 0.837450 0.114019 2.341805152028776e-38
1.413340 0.828058 0.113809 2.341805152028776e-38
1.417934 0.820168 0.113803 2.341805152028776e-38
1.419857 0.810817 0.113593 2.341805152028776e-38
1.423429 0.802500 0.113524 2.341805152028776e-38
1.431311 0.796594 0.113799 2.341805152028776e-38
1.439172 0.790626 0.114070 2.341805152028776e-38
1.440871 0.781267 0.113853 2.341805152028776e-38
1.444246 0.772900 0.113777 2.341805152028776e-38
1.447542 0.764574 0.113706 2.341805152028776e-38
1.455214 0.758541 0.113978 2.341805152028776e-38
1.462864 0.752449 0.114246 2.341805152028776e-38
1.464262 0.743135 0.114026 2.341805152028776e-38
1.464691 0.733422 0.113739 2.341805152028776e-38
1.465921 0.724229 0.113528 2.341805152028776e-38
1.470682 0.716792 0.113590 2.341805152028776e-38
1.475405 0.709326 0.113649 2.341805152028776e-38
1.479189 0.701404 0.113635 2.341805152028776e-38
1.487433 0.695607 0.113969 2.341805152028776e-38
1.490190 0.687304 0.113896 2.341805152028776e-38
1.495624 0.680232 0.114027 2.341805152028776e-38
1.498294 0.671897 0.113947 2.341805152028776e-38
1.505481 0.665571 0.114210 2.341805152028776e-38
1.508972 0.657619 0.114197 2.341805152028776e-38
1.510554 0.648939 0.114056 2.341805152028776e-38
1.510249 0.639483 0.113773 2.341805152028776e-38
1.508967 0.629664 0.113418 2.341805152028776e-38
1.512236 0.621773 0.113405 2.341805152028776e-38
1.516381 0.614259 0.113462 2.341805152028776e-38
1.522307 0.607543 0.113669 2.341805152028776e-38
1.528204 0.600783 0.113874 2.341805152028776e-38
1.533142 0.593619 0.114006 2.341805152028776e-38
1.536182 0.585709 0.113997 2.341805152028776e-38
1.540111 0.578144 0.114056 2.341805152028776e-38
1.543031 0.570303 0.114061 2.341805152028776e-38
1.545911 0.562449 0.114063 2.341805152028776e-38
1.544995 0.553235 0.113786 2.341805152028776e-38
1.549670 0.546035 0.113921 2.341805152028776e-38
1.553369 0.538475 0.113984 2.341805152028776e-38
1.556995 0.530995 0.114066 2.341805152028776e-38
1.557747 0.522543 0.113938 2.341805152028776e-38
1.558454 0.514096 0.113808 2.341805152028776e-38
1.559115 0.505657 0.113675 2.341805152028776e-38
1.562582 0.498133 0.113747 2.341805152028776e-38
1.565031 0.490379 0.113768 2.341805152028776e-38
1.563623 0.481453 0.113513 2.341805152028776e-38
1.567895 0.474287 0.113672 2.341805152028776e-38
1.572134 0.467091 0.113829 2.341805152028776e-38
1.616232 0.412200 0.116056 2.341805152028776e-38
1.631758 0.407743 0.117075 2.341805152028776e-38
1.676348 0.410260 0.120177 2.341805152028776e-38
1.705478 0.408635 0.122169 2.341805152028776e-38
1.703551 0.399450 0.121937 2.341805152028776e-38
1.403617 0.864638 0.106599 2.341805152028776e-38
1.405877 0.855212 0.106409 2.341805152028776e-38
1.408911 0.846334 0.106284 2.341805152028776e-38
1.412749 0.837959 0.106220 2.341805152028776e-38
1.416536 0.829567 0.106153 2.341805152028776e-38
1.418547 0.820161 0.105954 2.341805152028776e-38
1.422194 0.811809 0.105888 2.341805152028776e-38
1.426641 0.803969 0.105889 2.341805152028776e-38
1.435404 0.798530 0.106208 2.341805152028776e-38
1.440653 0.791098 0.106267 2.341805152028776e-38
1.444985 0.783158 0.106258 2.341805152028776e-38
1.446602 0.773840 0.106059 2.341805152028776e-38
1.451669 0.766434 0.106122 2.341805152028776e-38
1.458467 0.759918 0.106310 2.341805152028776e-38
1.461688 0.751526 0.106237 2.341805152028776e-38
1.463081 0.742219 0.106031 2.341805152028776e-38
1.463495 0.732526 0.105766 2.341805152028776e-38
1.469194 0.725549 0.105891 2.341805152028776e-38
1.474859 0.718532 0.106013 2.341805152028776e-38
1.479592 0.711044 0.106067 2.341805152028776e-38
1.482483 0.702671 0.105989 2.341805152028776e-38
1.486208 0.694759 0.105980 2.341805152028776e-38
1.490772 0.687299 0.106040 2.341805152028776e-38
1.496207 0.680223 0.106162 2.341805152028776e-38
1.502519 0.673518 0.106345 2.341805152028776e-38
1.506977 0.665958 0.106396 2.341805152028776e-38
1.511378 0.658415 0.106450 2.341805152028776e-38
1.513880 0.650116 0.106383 2.341805152028776e-38
1.511742 0.639864 0.105990 2.341805152028776e-38
1.513223 0.631190 0.105852 2.341805152028776e-38
1.517423 0.623656 0.105904 2.341805152028776e-38
1.522496 0.616507 0.106024 2.341805152028776e-38
1.528434 0.609760 0.106216 2.341805152028776e-38
1.531557 0.601873 0.106213 2.341805152028776e-38
1.538363 0.595412 0.106464 2.341805152028776e-38
1.540479 0.587120 0.106391 2.341805152028776e-38
1.546277 0.580253 0.106577 2.341805152028776e-38
1.551080 0.573074 0.106710 2.341805152028776e-38
1.558663 0.566884 0.107034 2.341805152028776e-38
1.568103 0.561304 0.107484 2.341805152028776e-38
1.575643 0.554981 0.107802 2.341805152028776e-38
1.583152 0.548616 0.108121 2.341805152028776e-38
1.593440 0.543243 0.108649 2.341805152028776e-38
1.601822 0.537146 0.109045 2.341805152028776e-38
1.615868 0.532854 0.109825 2.341805152028776e-38
1.637293 0.521777 0.110929 2.341805152028776e-38
