VERSION .7
FIELDS x y z rgb
SIZE 4 4 4 4
TYPE F F F F
COUNT 1 1 1 1
WIDTH 949
HEIGHT 1
VIEWPOINT 0 0 0 1 0 0 0
POINTS 949
DATA ascii
1.519538 -0.144729 -0.204105 2.341805152028776e-38
1.521778 -0.152424 -0.204471 2.341805152028776e-38
1.520036 -0.159729 -0.204305 2.341805152028776e-38
1.521216 -0.167347 -0.204535 2.341805152028776e-38
1.521372 -0.174866 -0.204630 2.341805152028776e-38
1.523460 -0.182627 -0.204989 2.341805152028776e-38
1.520591 -0.189798 -0.204684 2.341805152028776e-38
1.519654 -0.197201 -0.204643 2.341805152028776e-38
1.519664 -0.204732 -0.204732 2.341805152028776e-38
1.520618 -0.212404 -0.204951 2.341805152028776e-38
1.521534 -0.220091 -0.205169 2.341805152028776e-38
1.522411 -0.227791 -0.205386 2.341805152028776e-38
1.522270 -0.235354 -0.205468 2.341805152028776e-38
1.556351 -0.248389 -0.210175 2.341805152028776e-38
1.728249 -0.284460 -0.233512 2.341805152028776e-38
1.691930 0.364012 -0.238491 2.341805152028776e-38
1.536617 0.322774 -0.216448 2.341805152028776e-38
1.492550 0.305934 -0.210099 2.341805152028776e-38
1.485271 0.296910 -0.208937 2.341805152028776e-38
1.482802 0.288912 -0.208456 2.341805152028776e-38
1.481263 0.281130 -0.208109 2.341805152028776e-38
1.482607 0.273909 -0.208171 2.341805152028776e-38
1.483915 0.266682 -0.208231 2.341805152028776e-38
1.485189 0.259449 -0.208290 2.341805152028776e-38
1.486427 0.252210 -0.208347 2.341805152028776e-38
1.490563 0.245448 -0.208814 2.341805152028776e-38
1.489777 0.237870 -0.208594 2.341805152028776e-38
1.488953 0.230306 -0.208372 2.341805152028776e-38
1.488091 0.222756 -0.208149 2.341805152028776e-38
1.490132 0.215645 -0.208335 2.341805152028776e-38
1.490178 0.208245 -0.208245 2.341805152028776e-38
1.491168 0.200982 -0.208290 2.341805152028776e-38
1.493106 0.193842 -0.208472 2.341805152028776e-38
1.495009 0.186688 -0.208651 2.341805152028776e-38
1.494912 0.179284 -0.208555 2.341805152028776e-38
1.494778 0.171886 -0.208457 2.341805152028776e-38
1.498546 0.164926 -0.208906 2.341805152028776e-38
1.501297 0.157830 -0.209217 2.341805152028776e-38
1.502044 0.150514 -0.209251 2.341805152028776e-38
1.501769 0.143100 -0.209147 2.341805152028776e-38
1.500471 0.135604 -0.208903 2.341805152028776e-38
1.502096 0.128376 -0.209070 2.341805152028776e-38
1.502700 0.121056 -0.209098 2.341805152028776e-38
1.503268 0.113734 -0.209124 2.341805152028776e-38
1.504789 0.106479 -0.209286 2.341805152028776e-38
1.507264 0.099276 -0.209584 2.341805152028776e-38
1.508715 0.091992 -0.209742 2.341805152028776e-38
1.507165 0.084530 -0.209487 2.341805152028776e-38
1.507556 0.077186 -0.209505 2.341805152028776e-38
1.507912 0.069840 -0.209521 2.341805152028776e-38
1.510212 0.062575 -0.209811 2.341805152028776e-38
1.511487 0.055253 -0.209962 2.341805152028776e-38
1.510746 0.047857 -0.209836 2.341805152028776e-38
1.509970 0.040470 -0.209708 2.341805152028776e-38
1.512129 0.033157 -0.209991 2.341805152028776e-38
1.517223 0.025874 -0.210686 2.341805152028776e-38
1.515350 0.018457 -0.210415 2.341805152028776e-38
1.513440 0.011060 -0.210144 2.341805152028776e-38
1.514466 0.003689 -0.210283 2.341805152028776e-38
1.515457 -0.003692 -0.210420 2.341805152028776e-38
1.515421 -0.011075 -0.210419 2.341805152028776e-38
1.515350 -0.018457 -0.210415 2.341805152028776e-38
1.516233 -0.025857 -0.210548 2.341805152028776e-38
1.515100 -0.033222 -0.210404 2.341805152028776e-38
1.514921 -0.040603 -0.210396 2.341805152028776e-38
1.515696 -0.048014 -0.210523 2.341805152028776e-38
1.517426 -0.055470 -0.210787 2.341805152028776e-38
1.520108 -0.062985 -0.211186 2.341805152028776e-38
1.513849 -0.070115 -0.210346 2.341805152028776e-38
1.512502 -0.077439 -0.210192 2.341805152028776e-38
1.516065 -0.085029 -0.210724 2.341805152028776e-38
1.517613 -0.092535 -0.210979 2.341805152028776e-38
1.519124 -0.100058 -0.211233 2.341805152028776e-38
1.519610 -0.107527 -0.211347 2.341805152028776e-38
1.520059 -0.115004 -0.211460 2.341805152028776e-38
1.519485 -0.122409 -0.211433 2.341805152028776e-38
1.517887 -0.129726 -0.211268 2.341805152028776e-38
1.516255 -0.137030 -0.211100 2.341805152028776e-38
1.517546 -0.144604 -0.211344 2.341805152028776e-38
1.519784 -0.152292 -0.211723 2.341805152028776e-38
1.521000 -0.159901 -0.211962 2.341805152028776e-38
1.519223 -0.167202 -0.211789 2.341805152028776e-38
1.518396 -0.174601 -0.211750 2.341805152028776e-38
1.518516 -0.182115 -0.211848 2.341805152028776e-38
1.516634 -0.189388 -0.211669 2.341805152028776e-38
1.517663 -0.197030 -0.211900 2.341805152028776e-38
1.518655 -0.204687 -0.212130 2.341805152028776e-38
1.520589 -0.212495 -0.212495 2.341805152028776e-38
1.519543 -0.219901 -0.212446 2.341805152028776e-38
1.520420 -0.227595 -0.212671 2.341805152028776e-38
1.521258 -0.235303 -0.212893 2.341805152028776e-38
1.553359 -0.248022 -0.217496 2.341805152028776e-38
1.679142 0.361429 -0.245107 2.341805152028776e-38
1.524894 0.320461 -0.222437 2.341805152028776e-38
1.488606 0.305268 -0.216997 2.341805152028776e-38
1.483271 0.296649 -0.216077 2.341805152028776e-38
1.481775 0.288846 -0.215721 2.341805152028776e-38
1.478293 0.280697 -0.215079 2.341805152028776e-38
1.477688 0.273127 -0.214860 2.341805152028776e-38
1.478018 0.265746 -0.214781 2.341805152028776e-38
1.480262 0.258709 -0.214983 2.341805152028776e-38
1.484425 0.251987 -0.215467 2.341805152028776e-38
1.486604 0.244909 -0.215666 2.341805152028776e-38
1.484840 0.237191 -0.215297 2.341805152028776e-38
1.485970 0.229951 -0.215351 2.341805152028776e-38
1.487066 0.222705 -0.215403 2.341805152028776e-38
1.486167 0.215170 -0.215170 2.341805152028776e-38
1.482289 0.207238 -0.214510 2.341805152028776e-38
1.486218 0.200407 -0.214982 2.341805152028776e-38
1.490116 0.193543 -0.215454 2.341805152028776e-38
1.492017 0.186400 -0.215639 2.341805152028776e-38
1.491919 0.179008 -0.215540 2.341805152028776e-38
1.493752 0.171846 -0.215722 2.341805152028776e-38
1.494566 0.164563 -0.215761 2.341805152028776e-38
1.497314 0.157484 -0.216082 2.341805152028776e-38
1.497074 0.150085 -0.215976 2.341805152028776e-38
1.496797 0.142692 -0.215867 2.341805152028776e-38
1.498456 0.135484 -0.216042 2.341805152028776e-38
1.500080 0.128263 -0.216214 2.341805152028776e-38
1.500684 0.120949 -0.216243 2.341805152028776e-38
1.503225 0.113783 -0.216555 2.341805152028776e-38
1.504746 0.106524 -0.216722 2.341805152028776e-38
1.505244 0.099189 -0.216746 2.341805152028776e-38
1.502742 0.091670 -0.216341 2.341805152028776e-38
1.504156 0.084400 -0.216504 2.341805152028776e-38
1.504547 0.077067 -0.216522 2.341805152028776e-38
1.506880 0.069825 -0.216824 2.341805152028776e-38
1.507200 0.062479 -0.216839 2.341805152028776e-38
1.508474 0.055168 -0.216995 2.341805152028776e-38
1.506745 0.047752 -0.216722 2.341805152028776e-38
1.507948 0.040434 -0.216875 2.341805152028776e-38
1.511094 0.033149 -0.217310 2.341805152028776e-38
1.513216 0.025817 -0.217602 2.341805152028776e-38
1.510354 0.018405 -0.217180 2.341805152028776e-38
1.511415 0.011050 -0.217325 2.341805152028776e-38
1.510461 0.003681 -0.217185 2.341805152028776e-38
1.512441 -0.003686 -0.217470 2.341805152028776e-38
1.511415 -0.011050 -0.217325 2.341805152028776e-38
1.515303 -0.018465 -0.217891 2.341805152028776e-38
1.512227 -0.025800 -0.217459 2.341805152028776e-38
1.512084 -0.033171 -0.217453 2.341805152028776e-38
1.510916 -0.040514 -0.217302 2.341805152028776e-38
1.512681 -0.047940 -0.217576 2.341805152028776e-38
1.514409 -0.055385 -0.217849 2.341805152028776e-38
1.514123 -0.062766 -0.217835 2.341805152028776e-38
1.511824 -0.070054 -0.217535 2.341805152028776e-38
1.513444 -0.077523 -0.217803 2.341805152028776e-38
1.511074 -0.084788 -0.217500 2.341805152028776e-38
1.514598 -0.092393 -0.218048 2.341805152028776e-38
1.514133 -0.099775 -0.218026 2.341805152028776e-38
1.515607 -0.107293 -0.218286 2.341805152028776e-38
1.516057 -0.114754 -0.218403 2.341805152028776e-38
1.518443 -0.122381 -0.218802 2.341805152028776e-38
1.513888 -0.129443 -0.218204 2.341805152028776e-38
1.516201 -0.137088 -0.218600 2.341805152028776e-38
1.517490 -0.144665 -0.218852 2.341805152028776e-38
1.516772 -0.152060 -0.218818 2.341805152028776e-38
1.516018 -0.159451 -0.218782 2.341805152028776e-38
1.515228 -0.166839 -0.218744 2.341805152028776e-38
1.515386 -0.174335 -0.218847 2.341805152028776e-38
1.518455 -0.182191 -0.219373 2.341805152028776e-38
1.516573 -0.189468 -0.219188 2.341805152028776e-38
1.519565 -0.197368 -0.219712 2.341805152028776e-38
1.518591 -0.204773 -0.219665 2.341805152028776e-38
1.518562 -0.212309 -0.219759 2.341805152028776e-38
1.518496 -0.219851 -0.219851 2.341805152028776e-38
1.520351 -0.227690 -0.220225 2.341805152028776e-38
1.517274 -0.234795 -0.219887 2.341805152028776e-38
1.542513 -0.246404 -0.223659 2.341805152028776e-38
1.680836 0.361969 -0.253794 2.341805152028776e-38
1.526704 0.320996 -0.230362 2.341805152028776e-38
1.486569 0.304997 -0.224154 2.341805152028776e-38
1.479298 0.295996 -0.222911 2.341805152028776e-38
1.476829 0.288021 -0.222396 2.341805152028776e-38
1.476262 0.280446 -0.222171 2.341805152028776e-38
1.475657 0.272883 -0.221945 2.341805152028776e-38
1.476961 0.265683 -0.222009 2.341805152028776e-38
1.479204 0.258648 -0.222218 2.341805152028776e-38
1.483364 0.251928 -0.222719 2.341805152028776e-38
1.483590 0.244530 -0.222632 2.341805152028776e-38
1.481826 0.236823 -0.222250 2.341805152028776e-38
1.486865 0.230200 -0.222892 2.341805152028776e-38
1.492854 0.223679 -0.223679 2.341805152028776e-38
1.489024 0.215687 -0.222998 2.341805152028776e-38
1.483193 0.207463 -0.222022 2.341805152028776e-38
1.484180 0.200228 -0.222071 2.341805152028776e-38
1.487093 0.193243 -0.222411 2.341805152028776e-38
1.489974 0.186234 -0.222750 2.341805152028776e-38
1.490858 0.178965 -0.222794 2.341805152028776e-38
1.492690 0.171806 -0.222982 2.341805152028776e-38
1.493504 0.164525 -0.223023 2.341805152028776e-38
1.496250 0.157447 -0.223355 2.341805152028776e-38
1.495026 0.149951 -0.223098 2.341805152028776e-38
1.495734 0.142659 -0.223133 2.341805152028776e-38
1.496407 0.135363 -0.223166 2.341805152028776e-38
1.496059 0.127980 -0.223050 2.341805152028776e-38
1.496661 0.120683 -0.223080 2.341805152028776e-38
1.500187 0.113607 -0.223549 2.341805152028776e-38
1.499732 0.106220 -0.223428 2.341805152028776e-38
1.501216 0.098970 -0.223600 2.341805152028776e-38
1.502665 0.091709 -0.223769 2.341805152028776e-38
1.503091 0.084380 -0.223790 2.341805152028776e-38
1.503482 0.077049 -0.223810 2.341805152028776e-38
1.505813 0.069808 -0.224121 2.341805152028776e-38
1.505145 0.062423 -0.223990 2.341805152028776e-38
1.506418 0.055119 -0.224151 2.341805152028776e-38
1.506667 0.047773 -0.224163 2.341805152028776e-38
1.507869 0.040451 -0.224321 2.341805152028776e-38
1.511014 0.033163 -0.224771 2.341805152028776e-38
1.512145 0.025811 -0.224925 2.341805152028776e-38
1.511263 0.018425 -0.224783 2.341805152028776e-38
1.509356 0.011041 -0.224493 2.341805152028776e-38
1.509392 0.003680 -0.224494 2.341805152028776e-38
1.509392 -0.003680 -0.224494 2.341805152028776e-38
1.509356 -0.011041 -0.224493 2.341805152028776e-38
1.513241 -0.018449 -0.225078 2.341805152028776e-38
1.511156 -0.025794 -0.224778 2.341805152028776e-38
1.510025 -0.033141 -0.224624 2.341805152028776e-38
1.510835 -0.040531 -0.224762 2.341805152028776e-38
1.511610 -0.047929 -0.224899 2.341805152028776e-38
1.512348 -0.055336 -0.225034 2.341805152028776e-38
1.514039 -0.062792 -0.225314 2.341805152028776e-38
1.511741 -0.070083 -0.225004 2.341805152028776e-38
1.508421 -0.077302 -0.224545 2.341805152028776e-38
1.510004 -0.084768 -0.224820 2.341805152028776e-38
1.512537 -0.092311 -0.225240 2.341805152028776e-38
1.513060 -0.099751 -0.225364 2.341805152028776e-38
1.515519 -0.107338 -0.225780 2.341805152028776e-38
1.514982 -0.114727 -0.225753 2.341805152028776e-38
1.514408 -0.122114 -0.225725 2.341805152028776e-38
1.515770 -0.129666 -0.225989 2.341805152028776e-38
1.515125 -0.137056 -0.225957 2.341805152028776e-38
1.515428 -0.144537 -0.226070 2.341805152028776e-38
1.515695 -0.152024 -0.226182 2.341805152028776e-38
1.514941 -0.159414 -0.226145 2.341805152028776e-38
1.517101 -0.167124 -0.226546 2.341805152028776e-38
1.514309 -0.174294 -0.226212 2.341805152028776e-38
1.515411 -0.181913 -0.226463 2.341805152028776e-38
1.514513 -0.189301 -0.226419 2.341805152028776e-38
1.514559 -0.196812 -0.226519 2.341805152028776e-38
1.515549 -0.204460 -0.226765 2.341805152028776e-38
1.516501 -0.212122 -0.227008 2.341805152028776e-38
1.515456 -0.219515 -0.226957 2.341805152028776e-38
1.513397 -0.226757 -0.226757 2.341805152028776e-38
1.512282 -0.234135 -0.226702 2.341805152028776e-38
1.537505 -0.245722 -0.230601 2.341805152028776e-38
1.667025 0.359174 -0.260092 2.341805152028776e-38
1.519766 0.319697 -0.236952 2.341805152028776e-38
1.480625 0.303929 -0.230693 2.341805152028776e-38
1.476262 0.295536 -0.229862 2.341805152028776e-38
1.476705 0.288140 -0.229783 2.341805152028776e-38
1.476141 0.280562 -0.229551 2.341805152028776e-38
1.474565 0.272817 -0.229166 2.341805152028776e-38
1.475869 0.265619 -0.229233 2.341805152028776e-38
1.477137 0.258415 -0.229297 2.341805152028776e-38
1.481294 0.251701 -0.229814 2.341805152028776e-38
1.479569 0.243988 -0.229421 2.341805152028776e-38
1.477804 0.236298 -0.229027 2.341805152028776e-38
1.486746 0.230295 -0.230295 2.341805152028776e-38
1.493708 0.223917 -0.231259 2.341805152028776e-38
1.486948 0.215493 -0.230102 2.341805152028776e-38
1.484058 0.207687 -0.229549 2.341805152028776e-38
1.484067 0.200312 -0.229448 2.341805152028776e-38
1.485019 0.193068 -0.229496 2.341805152028776e-38
1.484955 0.185698 -0.229392 2.341805152028776e-38
1.487799 0.178686 -0.229740 2.341805152028776e-38
1.488647 0.171425 -0.229783 2.341805152028776e-38
1.489459 0.164160 -0.229824 2.341805152028776e-38
1.491219 0.156995 -0.230015 2.341805152028776e-38
1.492945 0.149816 -0.230205 2.341805152028776e-38
1.492669 0.142436 -0.230089 2.341805152028776e-38
1.488419 0.134706 -0.229365 2.341805152028776e-38
1.485114 0.127106 -0.228790 2.341805152028776e-38
1.487682 0.120017 -0.229124 2.341805152028776e-38
1.496130 0.113355 -0.230367 2.341805152028776e-38
1.496661 0.106054 -0.230394 2.341805152028776e-38
1.500116 0.098946 -0.230875 2.341805152028776e-38
1.499591 0.091566 -0.230746 2.341805152028776e-38
1.501003 0.084304 -0.230920 2.341805152028776e-38
1.503368 0.077081 -0.231243 2.341805152028776e-38
1.503723 0.069746 -0.231261 2.341805152028776e-38
1.503055 0.062367 -0.231126 2.341805152028776e-38
1.503339 0.055033 -0.231140 2.341805152028776e-38
1.504576 0.047730 -0.231305 2.341805152028776e-38
1.505777 0.040415 -0.231468 2.341805152028776e-38
1.506943 0.033090 -0.231629 2.341805152028776e-38
1.507086 0.025737 -0.231636 2.341805152028776e-38
1.506204 0.018372 -0.231489 2.341805152028776e-38
1.508252 0.011038 -0.231797 2.341805152028776e-38
1.507299 0.003677 -0.231647 2.341805152028776e-38
1.509276 -0.003682 -0.231951 2.341805152028776e-38
1.509241 -0.011045 -0.231949 2.341805152028776e-38
1.509169 -0.018408 -0.231945 2.341805152028776e-38
1.506097 -0.025720 -0.231484 2.341805152028776e-38
1.507931 -0.033112 -0.231780 2.341805152028776e-38
1.506765 -0.040442 -0.231620 2.341805152028776e-38
1.508528 -0.047855 -0.231912 2.341805152028776e-38
1.510254 -0.055287 -0.232203 2.341805152028776e-38
1.508981 -0.062613 -0.232037 2.341805152028776e-38
1.506685 -0.069883 -0.231717 2.341805152028776e-38
1.507316 -0.077284 -0.231851 2.341805152028776e-38
1.508898 -0.084747 -0.232134 2.341805152028776e-38
1.510443 -0.092229 -0.232416 2.341805152028776e-38
1.510965 -0.099662 -0.232544 2.341805152028776e-38
1.510465 -0.107033 -0.232519 2.341805152028776e-38
1.512885 -0.114625 -0.232947 2.341805152028776e-38
1.512313 -0.122005 -0.232918 2.341805152028776e-38
1.509734 -0.129213 -0.232583 2.341805152028776e-38
1.512044 -0.136845 -0.233006 2.341805152028776e-38
1.513332 -0.144408 -0.233274 2.341805152028776e-38
1.513598 -0.151888 -0.233389 2.341805152028776e-38
1.514811 -0.159478 -0.233654 2.341805152028776e-38
1.512056 -0.166651 -0.233311 2.341805152028776e-38
1.512214 -0.174139 -0.233420 2.341805152028776e-38
1.512334 -0.181633 -0.233528 2.341805152028776e-38
1.512418 -0.189132 -0.233634 2.341805152028776e-38
1.513445 -0.196764 -0.233889 2.341805152028776e-38
1.513454 -0.204278 -0.233991 2.341805152028776e-38
1.514405 -0.211934 -0.234243 2.341805152028776e-38
1.511405 -0.219037 -0.233887 2.341805152028776e-38
1.510327 -0.226409 -0.233832 2.341805152028776e-38
1.510190 -0.233926 -0.233926 2.341805152028776e-38
1.535394 -0.245506 -0.237952 2.341805152028776e-38
1.638708 0.353255 -0.263926 2.341805152028776e-38
1.506034 0.316972 -0.242390 2.341805152028776e-38
1.477555 0.303455 -0.237646 2.341805152028776e-38
1.474164 0.295268 -0.236944 2.341805152028776e-38
1.473637 0.287689 -0.236707 2.341805152028776e-38
1.474041 0.280307 -0.236623 2.341805152028776e-38
1.473438 0.272749 -0.236382 2.341805152028776e-38
1.473769 0.265377 -0.236295 2.341805152028776e-38
1.476982 0.258520 -0.236673 2.341805152028776e-38
1.477243 0.251141 -0.236582 2.341805152028776e-38
1.476492 0.243605 -0.236333 2.341805152028776e-38
1.477654 0.236394 -0.236394 2.341805152028776e-38
1.483661 0.229935 -0.237234 2.341805152028776e-38
1.487687 0.223129 -0.237760 2.341805152028776e-38
1.484840 0.215297 -0.237191 2.341805152028776e-38
1.482930 0.207635 -0.236777 2.341805152028776e-38
1.483917 0.200394 -0.236829 2.341805152028776e-38
1.481931 0.192765 -0.236410 2.341805152028776e-38
1.484807 0.185774 -0.236771 2.341805152028776e-38
1.486670 0.178642 -0.236973 2.341805152028776e-38
1.487517 0.171382 -0.237018 2.341805152028776e-38
1.486366 0.163902 -0.236748 2.341805152028776e-38
1.488124 0.156748 -0.236945 2.341805152028776e-38
1.491813 0.149778 -0.237453 2.341805152028776e-38
1.491537 0.142400 -0.237334 2.341805152028776e-38
1.481389 0.134138 -0.235648 2.341805152028776e-38
1.481037 0.126821 -0.235525 2.341805152028776e-38
1.488524 0.120146 -0.236652 2.341805152028776e-38
1.494013 0.113252 -0.237464 2.341805152028776e-38
1.495528 0.106028 -0.237649 2.341805152028776e-38
1.497995 0.098856 -0.237988 2.341805152028776e-38
1.499442 0.091603 -0.238169 2.341805152028776e-38
1.501840 0.084394 -0.238504 2.341805152028776e-38
1.501244 0.077011 -0.238368 2.341805152028776e-38
1.502586 0.069728 -0.238543 2.341805152028776e-38
1.500932 0.062311 -0.238247 2.341805152028776e-38
1.502203 0.055020 -0.238418 2.341805152028776e-38
1.504426 0.047749 -0.238745 2.341805152028776e-38
1.503652 0.040378 -0.238599 2.341805152028776e-38
1.503830 0.033038 -0.238609 2.341805152028776e-38
1.504959 0.025714 -0.238773 2.341805152028776e-38
1.506054 0.018380 -0.238935 2.341805152028776e-38
1.506125 0.011028 -0.238939 2.341805152028776e-38
1.505173 0.003674 -0.238784 2.341805152028776e-38
1.504185 -0.003671 -0.238627 2.341805152028776e-38
1.504149 -0.011013 -0.238626 2.341805152028776e-38
1.507041 -0.018392 -0.239092 2.341805152028776e-38
1.506934 -0.025748 -0.239086 2.341805152028776e-38
1.506792 -0.033103 -0.239079 2.341805152028776e-38
1.504639 -0.040405 -0.238756 2.341805152028776e-38
1.506400 -0.047812 -0.239058 2.341805152028776e-38
1.505164 -0.055128 -0.238888 2.341805152028776e-38
1.505866 -0.062516 -0.239030 2.341805152028776e-38
1.505546 -0.069865 -0.239013 2.341805152028776e-38
1.507162 -0.077315 -0.239308 2.341805152028776e-38
1.508742 -0.084782 -0.239600 2.341805152028776e-38
1.507328 -0.092085 -0.239421 2.341805152028776e-38
1.508836 -0.099572 -0.239710 2.341805152028776e-38
1.511292 -0.107145 -0.240153 2.341805152028776e-38
1.507800 -0.114297 -0.239656 2.341805152028776e-38
1.509198 -0.121815 -0.239939 2.341805152028776e-38
1.508591 -0.129181 -0.239907 2.341805152028776e-38
1.509915 -0.136721 -0.240186 2.341805152028776e-38
1.509235 -0.144090 -0.240150 2.341805152028776e-38
1.512451 -0.151850 -0.240738 2.341805152028776e-38
1.512680 -0.159335 -0.240855 2.341805152028776e-38
1.509927 -0.166501 -0.240501 2.341805152028776e-38
1.510085 -0.173982 -0.240614 2.341805152028776e-38
1.512167 -0.181705 -0.241038 2.341805152028776e-38
1.511269 -0.189085 -0.240990 2.341805152028776e-38
1.511315 -0.196587 -0.241098 2.341805152028776e-38
1.509367 -0.203830 -0.240890 2.341805152028776e-38
1.510319 -0.211470 -0.241150 2.341805152028776e-38
1.510255 -0.218982 -0.241251 2.341805152028776e-38
1.512107 -0.226791 -0.241663 2.341805152028776e-38
1.510015 -0.234019 -0.241448 2.341805152028776e-38
1.531298 -0.244976 -0.244976 2.341805152028776e-38
1.641270 0.353996 -0.272618 2.341805152028776e-38
1.506775 0.317296 -0.250104 2.341805152028776e-38
1.472520 0.302582 -0.244253 2.341805152028776e-38
1.469128 0.294416 -0.243529 2.341805152028776e-38
1.470536 0.287237 -0.243606 2.341805152028776e-38
1.468030 0.279312 -0.243038 2.341805152028776e-38
1.470336 0.272318 -0.243271 2.341805152028776e-38
1.470665 0.264959 -0.243181 2.341805152028776e-38
1.473875 0.258113 -0.243571 2.341805152028776e-38
1.474134 0.250745 -0.243477 2.341805152028776e-38
1.475330 0.243542 -0.243542 2.341805152028776e-38
1.475517 0.236177 -0.243444 2.341805152028776e-38
1.480544 0.229573 -0.244149 2.341805152028776e-38
1.479686 0.222046 -0.243886 2.341805152028776e-38
1.480744 0.214816 -0.243944 2.341805152028776e-38
1.480789 0.207444 -0.243838 2.341805152028776e-38
1.480797 0.200077 -0.243731 2.341805152028776e-38
1.480770 0.192715 -0.243621 2.341805152028776e-38
1.484623 0.185849 -0.244154 2.341805152028776e-38
1.485505 0.178595 -0.244202 2.341805152028776e-38
1.486352 0.171338 -0.244248 2.341805152028776e-38
1.486183 0.163968 -0.244131 2.341805152028776e-38
1.487941 0.156811 -0.244334 2.341805152028776e-38
1.487700 0.149444 -0.244213 2.341805152028776e-38
1.488406 0.142176 -0.244251 2.341805152028776e-38
1.484162 0.134460 -0.243481 2.341805152028776e-38
1.487746 0.127462 -0.243999 2.341805152028776e-38
1.492280 0.120513 -0.244677 2.341805152028776e-38
1.493830 0.113298 -0.244869 2.341805152028776e-38
1.493376 0.105931 -0.244736 2.341805152028776e-38
1.495841 0.098766 -0.245086 2.341805152028776e-38
1.497286 0.091519 -0.245272 2.341805152028776e-38
1.498697 0.084261 -0.245457 2.341805152028776e-38
1.498101 0.076890 -0.245316 2.341805152028776e-38
1.499442 0.069619 -0.245497 2.341805152028776e-38
1.499761 0.062295 -0.245514 2.341805152028776e-38
1.500045 0.054969 -0.245530 2.341805152028776e-38
1.500293 0.047643 -0.245543 2.341805152028776e-38
1.500506 0.040315 -0.245555 2.341805152028776e-38
1.499697 0.032965 -0.245403 2.341805152028776e-38
1.501812 0.025674 -0.245733 2.341805152028776e-38
1.500932 0.018327 -0.245578 2.341805152028776e-38
1.501990 0.011003 -0.245743 2.341805152028776e-38
1.501038 0.003665 -0.245583 2.341805152028776e-38
1.500052 -0.003663 -0.245422 2.341805152028776e-38
1.503963 -0.011018 -0.246066 2.341805152028776e-38
1.503892 -0.018363 -0.246062 2.341805152028776e-38
1.502799 -0.025690 -0.245895 2.341805152028776e-38
1.502657 -0.033030 -0.245887 2.341805152028776e-38
1.502479 -0.040368 -0.245877 2.341805152028776e-38
1.503252 -0.047737 -0.246027 2.341805152028776e-38
1.503990 -0.055114 -0.246175 2.341805152028776e-38
1.504691 -0.062499 -0.246321 2.341805152028776e-38
1.504371 -0.069847 -0.246304 2.341805152028776e-38
1.506972 -0.077345 -0.246769 2.341805152028776e-38
1.502638 -0.084483 -0.246102 2.341805152028776e-38
1.498271 -0.091580 -0.245433 2.341805152028776e-38
1.497810 -0.098896 -0.245409 2.341805152028776e-38
1.501251 -0.106489 -0.246027 2.341805152028776e-38
1.504654 -0.114119 -0.246643 2.341805152028776e-38
1.507035 -0.121704 -0.247096 2.341805152028776e-38
1.507412 -0.129147 -0.247225 2.341805152028776e-38
1.506769 -0.136508 -0.247190 2.341805152028776e-38
1.505108 -0.143771 -0.246992 2.341805152028776e-38
1.505376 -0.151219 -0.247114 2.341805152028776e-38
1.504626 -0.158570 -0.247074 2.341805152028776e-38
1.507764 -0.166349 -0.247676 2.341805152028776e-38
1.507922 -0.173824 -0.247792 2.341805152028776e-38
1.510002 -0.181541 -0.248229 2.341805152028776e-38
1.509105 -0.188913 -0.248180 2.341805152028776e-38
1.506216 -0.196027 -0.247808 2.341805152028776e-38
1.509161 -0.203910 -0.248399 2.341805152028776e-38
1.510111 -0.211552 -0.248667 2.341805152028776e-38
1.510046 -0.219067 -0.248771 2.341805152028776e-38
1.507992 -0.226293 -0.248552 2.341805152028776e-38
1.504928 -0.233354 -0.248170 2.341805152028776e-38
1.636066 0.353093 -0.280039 2.341805152028776e-38
1.503616 0.316805 -0.257171 2.341805152028776e-38
1.470354 0.302302 -0.251312 2.341805152028776e-38
1.465997 0.293950 -0.250402 2.341805152028776e-38
1.466435 0.286592 -0.250315 2.341805152028776e-38
1.465868 0.279054 -0.250061 2.341805152028776e-38
1.466231 0.271707 -0.249970 2.341805152028776e-38
1.467529 0.264538 -0.250043 2.341805152028776e-38
1.471707 0.257874 -0.250610 2.341805152028776e-38
1.471966 0.250513 -0.250513 2.341805152028776e-38
1.474134 0.243477 -0.250745 2.341805152028776e-38
1.475295 0.236270 -0.250810 2.341805152028776e-38
1.475447 0.228907 -0.250707 2.341805152028776e-38
1.475562 0.221547 -0.250603 2.341805152028776e-38
1.477593 0.214476 -0.250827 2.341805152028776e-38
1.476661 0.206978 -0.250553 2.341805152028776e-38
1.478623 0.199892 -0.250774 2.341805152028776e-38
1.479573 0.192664 -0.250827 2.341805152028776e-38
1.483423 0.185799 -0.251375 2.341805152028776e-38
1.483326 0.178430 -0.251259 2.341805152028776e-38
1.484172 0.171179 -0.251306 2.341805152028776e-38
1.484984 0.163925 -0.251351 2.341805152028776e-38
1.486740 0.156769 -0.251560 2.341805152028776e-38
1.485519 0.149305 -0.251270 2.341805152028776e-38
1.486224 0.142044 -0.251309 2.341805152028776e-38
1.486894 0.134780 -0.251347 2.341805152028776e-38
1.489494 0.127681 -0.251714 2.341805152028776e-38
1.492061 0.120560 -0.252080 2.341805152028776e-38
1.491643 0.113193 -0.251945 2.341805152028776e-38
1.492174 0.105902 -0.251975 2.341805152028776e-38
1.495621 0.098805 -0.252501 2.341805152028776e-38
1.494113 0.091375 -0.252194 2.341805152028776e-38
1.495522 0.084128 -0.252384 2.341805152028776e-38
1.495911 0.076819 -0.252406 2.341805152028776e-38
1.496266 0.069508 -0.252426 2.341805152028776e-38
1.496584 0.062196 -0.252443 2.341805152028776e-38
1.497853 0.054919 -0.252625 2.341805152028776e-38
1.497116 0.047567 -0.252473 2.341805152028776e-38
1.498314 0.040278 -0.252651 2.341805152028776e-38
1.491590 0.032804 -0.251497 2.341805152028776e-38
1.497647 0.025616 -0.252503 2.341805152028776e-38
1.505642 0.018394 -0.253838 2.341805152028776e-38
1.504727 0.011029 -0.253676 2.341805152028776e-38
1.498846 0.003662 -0.252681 2.341805152028776e-38
1.498846 -0.003662 -0.252681 2.341805152028776e-38
1.500783 -0.011000 -0.253011 2.341805152028776e-38
1.501698 -0.018346 -0.253173 2.341805152028776e-38
1.502577 -0.025701 -0.253334 2.341805152028776e-38
1.503421 -0.033064 -0.253492 2.341805152028776e-38
1.501271 -0.040357 -0.253150 2.341805152028776e-38
1.502044 -0.047724 -0.253304 2.341805152028776e-38
1.502780 -0.055099 -0.253456 2.341805152028776e-38
1.503481 -0.062483 -0.253607 2.341805152028776e-38
1.501191 -0.069737 -0.253256 2.341805152028776e-38
1.500836 -0.077072 -0.253237 2.341805152028776e-38
1.498476 -0.084294 -0.252882 2.341805152028776e-38
1.501003 -0.091796 -0.253357 2.341805152028776e-38
1.502508 -0.099260 -0.253664 2.341805152028776e-38
1.504961 -0.106810 -0.254134 2.341805152028776e-38
1.504426 -0.114163 -0.254104 2.341805152028776e-38
1.504839 -0.121592 -0.254238 2.341805152028776e-38
1.505215 -0.129029 -0.254371 2.341805152028776e-38
1.503590 -0.136293 -0.254169 2.341805152028776e-38
1.501931 -0.143545 -0.253965 2.341805152028776e-38
1.502199 -0.150982 -0.254091 2.341805152028776e-38
1.502432 -0.158424 -0.254215 2.341805152028776e-38
1.501647 -0.165764 -0.254172 2.341805152028776e-38
1.502786 -0.173326 -0.254458 2.341805152028776e-38
1.504866 -0.181021 -0.254907 2.341805152028776e-38
1.503972 -0.188373 -0.254857 2.341805152028776e-38
1.507932 -0.196357 -0.255634 2.341805152028776e-38
1.508918 -0.203988 -0.255912 2.341805152028776e-38
1.507913 -0.211359 -0.255856 2.341805152028776e-38
1.503944 -0.218300 -0.255300 2.341805152028776e-38
1.503845 -0.225794 -0.255406 2.341805152028776e-38
1.501759 -0.232989 -0.255178 2.341805152028776e-38
1.534696 -0.245784 -0.260909 2.341805152028776e-38
1.640461 0.354272 -0.289118 2.341805152028776e-38
1.503312 0.316937 -0.264735 2.341805152028776e-38
1.468154 0.302021 -0.258355 2.341805152028776e-38
1.463802 0.293675 -0.257419 2.341805152028776e-38
1.465206 0.286514 -0.257500 2.341805152028776e-38
1.465608 0.279161 -0.257408 2.341805152028776e-38
1.465973 0.271812 -0.257315 2.341805152028776e-38
1.466302 0.264465 -0.257220 2.341805152028776e-38
1.468535 0.257463 -0.257463 2.341805152028776e-38
1.468793 0.250113 -0.257363 2.341805152028776e-38
1.470958 0.243089 -0.257602 2.341805152028776e-38
1.469199 0.235426 -0.257158 2.341805152028776e-38
1.472268 0.228542 -0.257563 2.341805152028776e-38
1.472383 0.221194 -0.257455 2.341805152028776e-38
1.474411 0.214133 -0.257686 2.341805152028776e-38
1.473479 0.206648 -0.257404 2.341805152028776e-38
1.475438 0.199573 -0.257631 2.341805152028776e-38
1.476387 0.192357 -0.257685 2.341805152028776e-38
1.477301 0.185135 -0.257738 2.341805152028776e-38
1.479158 0.178028 -0.257959 2.341805152028776e-38
1.482939 0.171132 -0.258519 2.341805152028776e-38
1.483749 0.163880 -0.258566 2.341805152028776e-38
1.483545 0.156520 -0.258440 2.341805152028776e-38
1.483305 0.149166 -0.258311 2.341805152028776e-38
1.485971 0.142099 -0.258693 2.341805152028776e-38
1.484679 0.134654 -0.258390 2.341805152028776e-38
1.486295 0.127478 -0.258598 2.341805152028776e-38
1.486894 0.120209 -0.258632 2.341805152028776e-38
1.490406 0.113162 -0.259177 2.341805152028776e-38
1.491919 0.105943 -0.259378 2.341805152028776e-38
1.493398 0.098713 -0.259578 2.341805152028776e-38
1.492874 0.091350 -0.259433 2.341805152028776e-38
1.492315 0.083994 -0.259287 2.341805152028776e-38
1.492704 0.076697 -0.259309 2.341805152028776e-38
1.494042 0.069444 -0.259500 2.341805152028776e-38
1.495345 0.062179 -0.259689 2.341805152028776e-38
1.495628 0.054867 -0.259706 2.341805152028776e-38
1.495876 0.047554 -0.259720 2.341805152028776e-38
1.496089 0.040240 -0.259732 2.341805152028776e-38
1.492326 0.032838 -0.259058 2.341805152028776e-38
1.503303 0.025727 -0.260947 2.341805152028776e-38
1.505380 0.018401 -0.261295 2.341805152028776e-38
1.500525 0.011005 -0.260445 2.341805152028776e-38
1.495635 0.003656 -0.259592 2.341805152028776e-38
1.496620 -0.003659 -0.259763 2.341805152028776e-38
1.497570 -0.010983 -0.259932 2.341805152028776e-38
1.501440 -0.018353 -0.260611 2.341805152028776e-38
1.500348 -0.025677 -0.260434 2.341805152028776e-38
1.500206 -0.033012 -0.260426 2.341805152028776e-38
1.500028 -0.040346 -0.260416 2.341805152028776e-38
1.501785 -0.047742 -0.260746 2.341805152028776e-38
1.500551 -0.055048 -0.260560 2.341805152028776e-38
1.499283 -0.062343 -0.260373 2.341805152028776e-38
1.498963 -0.069672 -0.260355 2.341805152028776e-38
1.500576 -0.077101 -0.260676 2.341805152028776e-38
1.506087 -0.084769 -0.261679 2.341805152028776e-38
1.511560 -0.092493 -0.262680 2.341805152028776e-38
1.509128 -0.099752 -0.262312 2.341805152028776e-38
1.505679 -0.106920 -0.261770 2.341805152028776e-38
1.500231 -0.113908 -0.260885 2.341805152028776e-38
1.500644 -0.121321 -0.261024 2.341805152028776e-38
1.502002 -0.128825 -0.261330 2.341805152028776e-38
1.502342 -0.136256 -0.261464 2.341805152028776e-38
1.500684 -0.143506 -0.261255 2.341805152028776e-38
1.499971 -0.150842 -0.261214 2.341805152028776e-38
1.496284 -0.157864 -0.260659 2.341805152028776e-38
1.497461 -0.165394 -0.260955 2.341805152028776e-38
1.498600 -0.172940 -0.261249 2.341805152028776e-38
1.502636 -0.180854 -0.262053 2.341805152028776e-38
1.502721 -0.188321 -0.262173 2.341805152028776e-38
1.505700 -0.196176 -0.262801 2.341805152028776e-38
1.505709 -0.203668 -0.262916 2.341805152028776e-38
1.504705 -0.211027 -0.262859 2.341805152028776e-38
1.502690 -0.218240 -0.262628 2.341805152028776e-38
1.501616 -0.225585 -0.262567 2.341805152028776e-38
1.498559 -0.232623 -0.262162 2.341805152028776e-38
1.523685 -0.244157 -0.266695 2.341805152028776e-38
1.641919 0.354823 -0.297725 2.341805152028776e-38
1.504894 0.317482 -0.272661 2.341805152028776e-38
1.468811 0.302343 -0.265916 2.341805152028776e-38
1.464469 0.293980 -0.264945 2.341805152028776e-38
1.462010 0.286055 -0.264329 2.341805152028776e-38
1.463377 0.278898 -0.264410 2.341805152028776e-38
1.462774 0.271376 -0.264139 2.341805152028776e-38
1.463101 0.264041 -0.264041 2.341805152028776e-38
1.465332 0.257050 -0.264290 2.341805152028776e-38
1.466559 0.249877 -0.264363 2.341805152028776e-38
1.467751 0.242699 -0.264434 2.341805152028776e-38
1.468909 0.235515 -0.264502 2.341805152028776e-38
1.470031 0.228326 -0.264568 2.341805152028776e-38
1.469172 0.220839 -0.264282 2.341805152028776e-38
1.470224 0.213648 -0.264344 2.341805152028776e-38
1.472215 0.206590 -0.264580 2.341805152028776e-38
1.474174 0.199517 -0.264813 2.341805152028776e-38
1.475122 0.192302 -0.264869 2.341805152028776e-38
1.477012 0.185206 -0.265098 2.341805152028776e-38
1.476914 0.177860 -0.264975 2.341805152028776e-38
1.479714 0.170858 -0.265376 2.341805152028776e-38
1.480523 0.163617 -0.265423 2.341805152028776e-38
1.482277 0.156476 -0.265645 2.341805152028776e-38
1.481058 0.149025 -0.265337 2.341805152028776e-38
1.481761 0.141778 -0.265379 2.341805152028776e-38
1.481450 0.134438 -0.265243 2.341805152028776e-38
1.484045 0.127358 -0.265631 2.341805152028776e-38
1.485625 0.120175 -0.265842 2.341805152028776e-38
1.487171 0.112981 -0.266051 2.341805152028776e-38
1.487700 0.105704 -0.266083 2.341805152028776e-38
1.490159 0.098555 -0.266463 2.341805152028776e-38
1.491601 0.091324 -0.266666 2.341805152028776e-38
1.491042 0.083971 -0.266515 2.341805152028776e-38
1.490448 0.076625 -0.266362 2.341805152028776e-38
1.491785 0.069378 -0.266559 2.341805152028776e-38
1.492103 0.062080 -0.266578 2.341805152028776e-38
1.494353 0.054852 -0.266946 2.341805152028776e-38
1.494601 0.047541 -0.266961 2.341805152028776e-38
1.496782 0.040282 -0.267325 2.341805152028776e-38
1.494007 0.032894 -0.266808 2.341805152028776e-38
1.499070 0.025669 -0.267695 2.341805152028776e-38
1.499176 0.018336 -0.267701 2.341805152028776e-38
1.497278 0.010987 -0.267354 2.341805152028776e-38
1.493376 0.003653 -0.266653 2.341805152028776e-38
1.495345 -0.003658 -0.267005 2.341805152028776e-38
1.498263 -0.010994 -0.267530 2.341805152028776e-38
1.499176 -0.018336 -0.267701 2.341805152028776e-38
1.497101 -0.025636 -0.267344 2.341805152028776e-38
1.497943 -0.032981 -0.267511 2.341805152028776e-38
1.496782 -0.040282 -0.267325 2.341805152028776e-38
1.497553 -0.047635 -0.267488 2.341805152028776e-38
1.498289 -0.054996 -0.267649 2.341805152028776e-38
1.497021 -0.062284 -0.267456 2.341805152028776e-38
1.496702 -0.069607 -0.267438 2.341805152028776e-38
1.500280 -0.077130 -0.268120 2.341805152028776e-38
1.502837 -0.084635 -0.268623 2.341805152028776e-38
1.504375 -0.092106 -0.268950 2.341805152028776e-38
1.499000 -0.099140 -0.268044 2.341805152028776e-38
1.499484 -0.106541 -0.268190 2.341805152028776e-38
1.498950 -0.113876 -0.268159 2.341805152028776e-38
1.501325 -0.121445 -0.268652 2.341805152028776e-38
1.500719 -0.128789 -0.268616 2.341805152028776e-38
1.500078 -0.136129 -0.268578 2.341805152028776e-38
1.499401 -0.143466 -0.268538 2.341805152028776e-38
1.498689 -0.150799 -0.268496 2.341805152028776e-38
1.495004 -0.157819 -0.267926 2.341805152028776e-38
1.497158 -0.165456 -0.268406 2.341805152028776e-38
1.502208 -0.173456 -0.269410 2.341805152028776e-38
1.503305 -0.181038 -0.269710 2.341805152028776e-38
1.501434 -0.188268 -0.269482 2.341805152028776e-38
1.503433 -0.195993 -0.269953 2.341805152028776e-38
1.503443 -0.203478 -0.270071 2.341805152028776e-38
1.503415 -0.210968 -0.270187 2.341805152028776e-38
1.499453 -0.217896 -0.269600 2.341805152028776e-38
1.499354 -0.225375 -0.269712 2.341805152028776e-38
1.494353 -0.232104 -0.268946 2.341805152028776e-38
1.519460 -0.243621 -0.273605 2.341805152028776e-38
1.626024 0.351628 -0.303127 2.341805152028776e-38
1.501621 0.317009 -0.279714 2.341805152028776e-38
1.465570 0.301883 -0.272786 2.341805152028776e-38
1.458344 0.292933 -0.271234 2.341805152028776e-38
1.459747 0.285783 -0.271313 2.341805152028776e-38
1.460147 0.278449 -0.271216 2.341805152028776e-38
1.459543 0.270938 -0.270938 2.341805152028776e-38
1.460837 0.263790 -0.271017 2.341805152028776e-38
1.464035 0.256975 -0.271452 2.341805152028776e-38
1.466231 0.249970 -0.271707 2.341805152028776e-38
1.466454 0.242629 -0.271599 2.341805152028776e-38
1.466639 0.235291 -0.271490 2.341805152028776e-38
1.467761 0.228109 -0.271558 2.341805152028776e-38
1.464957 0.220336 -0.270905 2.341805152028776e-38
1.467953 0.213445 -0.271328 2.341805152028776e-38
1.470917 0.206530 -0.271750 2.341805152028776e-38
1.471900 0.199327 -0.271809 2.341805152028776e-38
1.471872 0.191992 -0.271687 2.341805152028776e-38
1.472784 0.184785 -0.271742 2.341805152028776e-38
1.473661 0.177573 -0.271795 2.341805152028776e-38
1.474503 0.170357 -0.271847 2.341805152028776e-38
1.476288 0.163245 -0.272076 2.341805152028776e-38
1.476082 0.155914 -0.271942 2.341805152028776e-38
1.476820 0.148686 -0.271987 2.341805152028776e-38
1.480459 0.141737 -0.272571 2.341805152028776e-38
1.479169 0.134310 -0.272251 2.341805152028776e-38
1.478822 0.126984 -0.272109 2.341805152028776e-38
1.481380 0.119902 -0.272506 2.341805152028776e-38
1.482923 0.112724 -0.272720 2.341805152028776e-38
1.484432 0.105534 -0.272933 2.341805152028776e-38
1.486889 0.098396 -0.273323 2.341805152028776e-38
1.486366 0.091057 -0.273171 2.341805152028776e-38
1.486789 0.083780 -0.273196 2.341805152028776e-38
1.487177 0.076502 -0.273220 2.341805152028776e-38
1.488512 0.069267 -0.273422 2.341805152028776e-38
1.489812 0.062021 -0.273622 2.341805152028776e-38
1.490095 0.054728 -0.273639 2.341805152028776e-38
1.490342 0.047433 -0.273654 2.341805152028776e-38
1.491537 0.040164 -0.273847 2.341805152028776e-38
1.491714 0.032863 -0.273858 2.341805152028776e-38
1.494806 0.025611 -0.274408 2.341805152028776e-38
1.492945 0.018270 -0.274053 2.341805152028776e-38
1.491049 0.010948 -0.273697 2.341805152028776e-38
1.491084 0.003649 -0.273699 2.341805152028776e-38
1.493051 -0.003654 -0.274060 2.341805152028776e-38
1.493999 -0.010970 -0.274238 2.341805152028776e-38
1.495896 -0.018306 -0.274595 2.341805152028776e-38
1.495789 -0.025628 -0.274588 2.341805152028776e-38
1.494664 -0.032928 -0.274399 2.341805152028776e-38
1.493504 -0.040217 -0.274208 2.341805152028776e-38
1.492308 -0.047496 -0.274015 2.341805152028776e-38
1.493044 -0.054836 -0.274180 2.341805152028776e-38
1.493743 -0.062185 -0.274343 2.341805152028776e-38
1.493424 -0.069495 -0.274324 2.341805152028776e-38
1.495035 -0.076906 -0.274664 2.341805152028776e-38
1.493663 -0.084168 -0.274460 2.341805152028776e-38
1.492256 -0.091418 -0.274253 2.341805152028776e-38
1.494740 -0.098916 -0.274767 2.341805152028776e-38
1.495225 -0.106301 -0.274917 2.341805152028776e-38
1.495673 -0.113694 -0.275065 2.341805152028776e-38
1.496085 -0.121093 -0.275211 2.341805152028776e-38
1.495481 -0.128415 -0.275174 2.341805152028776e-38
1.495822 -0.135822 -0.275316 2.341805152028776e-38
1.496126 -0.143237 -0.275455 2.341805152028776e-38
1.495414 -0.150558 -0.275412 2.341805152028776e-38
1.494668 -0.157877 -0.275367 2.341805152028776e-38
1.499752 -0.165840 -0.276400 2.341805152028776e-38
1.503817 -0.173744 -0.277251 2.341805152028776e-38
1.500028 -0.180750 -0.276659 2.341805152028776e-38
1.499136 -0.188091 -0.276604 2.341805152028776e-38
1.499183 -0.195555 -0.276728 2.341805152028776e-38
1.498218 -0.202891 -0.276670 2.341805152028776e-38
1.498193 -0.210359 -0.276789 2.341805152028776e-38
1.496183 -0.217549 -0.276546 2.341805152028776e-38
1.494139 -0.224725 -0.276301 2.341805152028776e-38
1.490118 -0.231583 -0.275694 2.341805152028776e-38
1.612037 0.348847 -0.308749 2.341805152028776e-38
1.494469 0.315720 -0.286006 2.341805152028776e-38
1.464222 0.301818 -0.280000 2.341805152028776e-38
1.458931 0.293258 -0.278776 2.341805152028776e-38
1.457450 0.285514 -0.278286 2.341805152028776e-38
1.457851 0.278181 -0.278181 2.341805152028776e-38
1.458214 0.270857 -0.278080 2.341805152028776e-38
1.459508 0.263711 -0.278161 2.341805152028776e-38
1.460768 0.256558 -0.278239 2.341805152028776e-38
1.462961 0.249565 -0.278500 2.341805152028776e-38
1.465121 0.242557 -0.278759 2.341805152028776e-38
1.466278 0.235377 -0.278831 2.341805152028776e-38
1.464487 0.227739 -0.278347 2.341805152028776e-38
1.464600 0.220416 -0.278230 2.341805152028776e-38
1.466622 0.213381 -0.278481 2.341805152028776e-38
1.467638 0.206195 -0.278544 2.341805152028776e-38
1.470566 0.199268 -0.278975 2.341805152028776e-38
1.471514 0.192062 -0.279034 2.341805152028776e-38
1.472426 0.184852 -0.279090 2.341805152028776e-38
1.472328 0.177520 -0.278960 2.341805152028776e-38
1.473170 0.170306 -0.279013 2.341805152028776e-38
1.473000 0.162981 -0.278878 2.341805152028776e-38
1.474749 0.155867 -0.279111 2.341805152028776e-38
1.475486 0.148642 -0.279157 2.341805152028776e-38
1.477166 0.141507 -0.279386 2.341805152028776e-38
1.475876 0.134092 -0.279057 2.341805152028776e-38
1.479445 0.127115 -0.279652 2.341805152028776e-38
1.480043 0.119867 -0.279689 2.341805152028776e-38
1.480606 0.112616 -0.279724 2.341805152028776e-38
1.480153 0.105293 -0.279572 2.341805152028776e-38
1.482606 0.098172 -0.279973 2.341805152028776e-38
1.484045 0.090970 -0.280187 2.341805152028776e-38
1.484468 0.083700 -0.280213 2.341805152028776e-38
1.484855 0.076428 -0.280237 2.341805152028776e-38
1.485208 0.069155 -0.280259 2.341805152028776e-38
1.486507 0.061921 -0.280464 2.341805152028776e-38
1.486789 0.054639 -0.280482 2.341805152028776e-38
1.487036 0.047357 -0.280497 2.341805152028776e-38
1.489212 0.040126 -0.280881 2.341805152028776e-38
1.490371 0.032853 -0.281077 2.341805152028776e-38
1.491495 0.025570 -0.281271 2.341805152028776e-38
1.490618 0.018253 -0.281092 2.341805152028776e-38
1.490689 0.010952 -0.281097 2.341805152028776e-38
1.487776 0.003643 -0.280543 2.341805152028776e-38
1.491707 -0.003653 -0.281284 2.341805152028776e-38
1.491672 -0.010959 -0.281282 2.341805152028776e-38
1.492584 -0.018277 -0.281463 2.341805152028776e-38
1.493460 -0.025604 -0.281642 2.341805152028776e-38
1.491353 -0.032875 -0.281262 2.341805152028776e-38
1.491176 -0.040179 -0.281251 2.341805152028776e-38
1.491947 -0.047513 -0.281423 2.341805152028776e-38
1.490717 -0.054784 -0.281223 2.341805152028776e-38
1.491416 -0.062125 -0.281390 2.341805152028776e-38
1.489134 -0.069338 -0.281000 2.341805152028776e-38
1.489762 -0.076681 -0.281163 2.341805152028776e-38
1.489373 -0.083977 -0.281139 2.341805152028776e-38
1.490911 -0.091391 -0.281483 2.341805152028776e-38
1.491431 -0.098757 -0.281639 2.341805152028776e-38
1.492896 -0.106200 -0.281979 2.341805152028776e-38
1.493344 -0.113585 -0.282131 2.341805152028776e-38
1.493756 -0.120977 -0.282281 2.341805152028776e-38
1.492174 -0.128208 -0.282058 2.341805152028776e-38
1.494471 -0.135782 -0.282573 2.341805152028776e-38
1.494775 -0.143194 -0.282716 2.341805152028776e-38
1.496997 -0.150809 -0.283227 2.341805152028776e-38
1.495272 -0.158036 -0.282995 2.341805152028776e-38
1.496443 -0.165575 -0.283316 2.341805152028776e-38
1.497576 -0.173128 -0.283635 2.341805152028776e-38
1.496720 -0.180461 -0.283582 2.341805152028776e-38
1.495829 -0.187790 -0.283526 2.341805152028776e-38
1.497826 -0.195496 -0.284023 2.341805152028776e-38
1.496861 -0.202831 -0.283963 2.341805152028776e-38
1.495862 -0.210160 -0.283900 2.341805152028776e-38
1.494827 -0.217485 -0.283836 2.341805152028776e-38
1.493756 -0.224804 -0.283769 2.341805152028776e-38
1.487794 -0.231363 -0.282777 2.341805152028776e-38
1.806434 -0.299062 -0.343698 2.341805152028776e-38
1.591317 0.344609 -0.312921 2.341805152028776e-38
1.490174 0.315039 -0.292801 2.341805152028776e-38
1.460916 0.301354 -0.286830 2.341805152028776e-38
1.456591 0.293000 -0.285765 2.341805152028776e-38
1.457039 0.285641 -0.285641 2.341805152028776e-38
1.457450 0.278286 -0.285514 2.341805152028776e-38
1.455885 0.270595 -0.285027 2.341805152028776e-38
1.456212 0.263281 -0.284920 2.341805152028776e-38
1.458436 0.256310 -0.285190 2.341805152028776e-38
1.458692 0.248993 -0.285079 2.341805152028776e-38
1.459880 0.241840 -0.285155 2.341805152028776e-38
1.461033 0.234682 -0.285229 2.341805152028776e-38
1.460211 0.227216 -0.284922 2.341805152028776e-38
1.462265 0.220203 -0.285181 2.341805152028776e-38
1.463314 0.213033 -0.285248 2.341805152028776e-38
1.464328 0.205858 -0.285313 2.341805152028776e-38
1.467253 0.198943 -0.285754 2.341805152028776e-38
1.468198 0.191749 -0.285815 2.341805152028776e-38
1.469109 0.184551 -0.285873 2.341805152028776e-38
1.469010 0.177231 -0.285739 2.341805152028776e-38
1.468876 0.169916 -0.285603 2.341805152028776e-38
1.468705 0.162607 -0.285465 2.341805152028776e-38
1.471427 0.155613 -0.285894 2.341805152028776e-38
1.471186 0.148301 -0.285751 2.341805152028776e-38
1.473841 0.141277 -0.286176 2.341805152028776e-38
1.473530 0.133963 -0.286028 2.341805152028776e-38
1.475139 0.126823 -0.286258 2.341805152028776e-38
1.475736 0.119592 -0.286297 2.341805152028776e-38
1.476297 0.112358 -0.286332 2.341805152028776e-38
1.478782 0.105261 -0.286746 2.341805152028776e-38
1.479274 0.098013 -0.286777 2.341805152028776e-38
1.478751 0.090701 -0.286617 2.341805152028776e-38
1.481133 0.083564 -0.287024 2.341805152028776e-38
1.481520 0.076304 -0.287048 2.341805152028776e-38
1.482853 0.069088 -0.287261 2.341805152028776e-38
1.482189 0.061779 -0.287091 2.341805152028776e-38
1.482470 0.054514 -0.287109 2.341805152028776e-38
1.481735 0.047217 -0.286935 2.341805152028776e-38
1.486853 0.040087 -0.287898 2.341805152028776e-38
1.485067 0.032757 -0.287529 2.341805152028776e-38
1.487171 0.025512 -0.287919 2.341805152028776e-38
1.487277 0.018223 -0.287925 2.341805152028776e-38
1.486366 0.010927 -0.287740 2.341805152028776e-38
1.487383 0.003645 -0.287932 2.341805152028776e-38
1.487383 -0.003645 -0.287932 2.341805152028776e-38
1.487347 -0.010934 -0.287930 2.341805152028776e-38
1.488258 -0.018235 -0.288115 2.341805152028776e-38
1.487171 -0.025512 -0.287919 2.341805152028776e-38
1.487030 -0.032800 -0.287910 2.341805152028776e-38
1.485872 -0.040061 -0.287708 2.341805152028776e-38
1.485660 -0.047342 -0.287695 2.341805152028776e-38
1.488357 -0.054731 -0.288249 2.341805152028776e-38
1.489055 -0.062065 -0.288421 2.341805152028776e-38
1.484814 -0.069179 -0.287641 2.341805152028776e-38
1.485442 -0.076506 -0.287808 2.341805152028776e-38
1.485054 -0.083785 -0.287783 2.341805152028776e-38
1.487571 -0.091242 -0.288326 2.341805152028776e-38
1.490050 -0.098727 -0.288866 2.341805152028776e-38
1.489555 -0.106028 -0.288835 2.341805152028776e-38
1.489024 -0.113327 -0.288801 2.341805152028776e-38
1.489436 -0.120703 -0.288955 2.341805152028776e-38
1.488834 -0.128001 -0.288916 2.341805152028776e-38
1.492108 -0.135652 -0.289634 2.341805152028776e-38
1.491434 -0.142963 -0.289591 2.341805152028776e-38
1.491701 -0.150369 -0.289736 2.341805152028776e-38
1.490955 -0.157678 -0.289688 2.341805152028776e-38
1.492126 -0.165200 -0.290017 2.341805152028776e-38
1.490333 -0.172398 -0.289776 2.341805152028776e-38
1.494355 -0.180288 -0.290669 2.341805152028776e-38
1.493464 -0.187610 -0.290612 2.341805152028776e-38
1.492538 -0.194928 -0.290553 2.341805152028776e-38
1.491577 -0.202241 -0.290491 2.341805152028776e-38
1.492525 -0.209822 -0.290807 2.341805152028776e-38
1.490520 -0.216994 -0.290551 2.341805152028776e-38
1.491394 -0.224589 -0.290861 2.341805152028776e-38
1.484467 -0.230991 -0.289655 2.341805152028776e-38
1.568677 0.339955 -0.316510 2.341805152028776e-38
1.482010 0.313543 -0.298788 2.341805152028776e-38
1.458539 0.301085 -0.293830 2.341805152028776e-38
1.454219 0.292738 -0.292738 2.341805152028776e-38
1.451778 0.284821 -0.292031 2.341805152028776e-38
1.450258 0.277119 -0.291515 2.341805152028776e-38
1.452557 0.270158 -0.291771 2.341805152028776e-38
1.454815 0.263198 -0.292042 2.341805152028776e-38
1.457038 0.256229 -0.292318 2.341805152028776e-38
1.456327 0.248750 -0.292011 2.341805152028776e-38
1.458482 0.241765 -0.292282 2.341805152028776e-38
1.457698 0.234297 -0.291970 2.341805152028776e-38
1.458815 0.227145 -0.292043 2.341805152028776e-38
