VERSION .7
FIELDS x y z rgb
SIZE 4 4 4 4
TYPE F F F F
COUNT 1 1 1 1
WIDTH 938
HEIGHT 1
VIEWPOINT 0 0 0 1 0 0 0
POINTS 938
DATA ascii
1.227838 -0.698678 -0.194267 2.341805152028776e-38
1.224783 -0.706004 -0.194407 2.341805152028776e-38
1.222539 -0.713820 -0.194678 2.341805152028776e-38
1.217689 -0.720121 -0.194535 2.341805152028776e-38
1.214493 -0.727429 -0.194664 2.341805152028776e-38
1.207827 -0.732730 -0.194259 2.341805152028776e-38
1.202829 -0.739017 -0.194120 2.341805152028776e-38
1.197797 -0.745273 -0.193975 2.341805152028776e-38
1.196087 -0.753609 -0.194370 2.341805152028776e-38
1.191810 -0.760359 -0.194352 2.341805152028776e-38
1.190774 -0.769308 -0.194891 2.341805152028776e-38
1.183043 -0.773932 -0.194335 2.341805152028776e-38
1.179428 -0.781230 -0.194455 2.341805152028776e-38
1.172477 -0.786307 -0.194024 2.341805152028776e-38
1.168785 -0.793556 -0.194132 2.341805152028776e-38
1.162547 -0.799179 -0.193843 2.341805152028776e-38
1.160344 -0.807592 -0.194231 2.341805152028776e-38
1.154035 -0.813154 -0.193932 2.341805152028776e-38
1.151732 -0.821548 -0.194308 2.341805152028776e-38
1.145355 -0.827044 -0.193998 2.341805152028776e-38
1.141307 -0.834309 -0.194105 2.341805152028776e-38
1.138793 -0.842750 -0.194481 2.341805152028776e-38
1.129876 -0.846440 -0.193763 2.341805152028776e-38
1.120166 -0.849457 -0.192905 2.341805152028776e-38
1.117532 -0.857820 -0.193264 2.341805152028776e-38
1.112452 -0.864408 -0.193221 2.341805152028776e-38
1.110427 -0.873441 -0.193720 2.341805152028776e-38
1.108335 -0.882482 -0.194214 2.341805152028776e-38
1.110031 -0.894639 -0.195381 2.341805152028776e-38
1.102409 -0.899333 -0.194912 2.341805152028776e-38
1.093973 -0.903377 -0.194311 2.341805152028776e-38
1.085499 -0.907387 -0.193712 2.341805152028776e-38
1.083823 -0.917090 -0.194328 2.341805152028776e-38
1.073040 -0.919071 -0.193310 2.341805152028776e-38
1.066016 -0.924203 -0.192965 2.341805152028776e-38
1.056707 -0.927354 -0.192215 2.341805152028776e-38
1.051806 -0.934416 -0.192281 2.341805152028776e-38
1.049068 -0.943441 -0.192746 2.341805152028776e-38
1.044062 -0.950468 -0.192799 2.341805152028776e-38
1.041923 -0.960155 -0.193388 2.341805152028776e-38
1.046929 -0.976634 -0.195327 2.341805152028776e-38
1.035157 -0.977610 -0.194160 2.341805152028776e-38
1.017683 -0.973002 -0.191907 2.341805152028776e-38
1.016681 -0.984068 -0.192756 2.341805152028776e-38
1.031151 -1.010415 -0.196565 2.341805152028776e-38
1.021401 -1.013268 -0.195784 2.341805152028776e-38
1.001115 -1.005559 -0.192986 2.341805152028776e-38
0.996943 -1.013889 -0.193283 2.341805152028776e-38
1.014797 -1.044954 -0.197882 2.341805152028776e-38
1.001438 -1.044100 -0.196415 2.341805152028776e-38
0.975170 -1.029461 -0.192391 2.341805152028776e-38
0.968017 -1.034856 -0.192139 2.341805152028776e-38
0.987057 -1.068591 -0.197119 2.341805152028776e-38
0.968983 -1.062338 -0.194705 2.341805152028776e-38
1.274881 -0.585413 -0.199649 2.341805152028776e-38
1.278902 -0.595581 -0.200796 2.341805152028776e-38
1.276584 -0.602851 -0.200950 2.341805152028776e-38
1.274224 -0.610115 -0.201100 2.341805152028776e-38
1.271815 -0.617389 -0.201248 2.341805152028776e-38
1.266665 -0.623410 -0.200990 2.341805152028776e-38
1.264144 -0.630720 -0.201149 2.341805152028776e-38
1.258931 -0.636684 -0.200879 2.341805152028776e-38
1.254571 -0.643062 -0.200744 2.341805152028776e-38
1.251058 -0.649870 -0.200745 2.341805152028776e-38
1.248340 -0.657197 -0.200905 2.341805152028776e-38
1.244704 -0.664054 -0.200919 2.341805152028776e-38
1.240160 -0.670422 -0.200786 2.341805152028776e-38
1.238187 -0.678188 -0.201071 2.341805152028776e-38
1.236167 -0.685954 -0.201350 2.341805152028776e-38
1.234063 -0.693779 -0.201640 2.341805152028776e-38
1.227596 -0.699174 -0.201226 2.341805152028776e-38
1.222823 -0.705510 -0.201087 2.341805152028776e-38
1.218871 -0.712316 -0.201084 2.341805152028776e-38
1.214882 -0.719102 -0.201076 2.341805152028776e-38
1.210828 -0.725908 -0.201073 2.341805152028776e-38
1.205865 -0.732215 -0.200934 2.341805152028776e-38
1.201714 -0.739011 -0.200929 2.341805152028776e-38
1.196683 -0.745260 -0.200778 2.341805152028776e-38
1.190783 -0.750950 -0.200480 2.341805152028776e-38
1.189845 -0.759823 -0.201029 2.341805152028776e-38
1.185485 -0.766611 -0.201022 2.341805152028776e-38
1.181085 -0.773375 -0.201009 2.341805152028776e-38
1.174997 -0.779021 -0.200709 2.341805152028776e-38
1.169705 -0.785177 -0.200543 2.341805152028776e-38
1.166827 -0.792982 -0.200798 2.341805152028776e-38
1.162221 -0.799721 -0.200781 2.341805152028776e-38
1.160014 -0.808133 -0.201181 2.341805152028776e-38
1.158557 -0.817118 -0.201715 2.341805152028776e-38
1.152200 -0.822662 -0.201399 2.341805152028776e-38
1.143409 -0.826425 -0.200655 2.341805152028776e-38
1.136955 -0.831941 -0.200345 2.341805152028776e-38
1.131270 -0.838000 -0.200170 2.341805152028776e-38
1.125553 -0.844023 -0.199989 2.341805152028776e-38
1.119017 -0.849410 -0.199662 2.341805152028776e-38
1.114811 -0.856561 -0.199751 2.341805152028776e-38
1.112069 -0.864974 -0.200131 2.341805152028776e-38
1.107704 -0.872168 -0.200225 2.341805152028776e-38
1.103293 -0.879343 -0.200314 2.341805152028776e-38
1.102689 -0.889606 -0.201099 2.341805152028776e-38
1.096633 -0.895510 -0.200894 2.341805152028776e-38
1.088972 -0.900168 -0.200415 2.341805152028776e-38
1.080521 -0.904149 -0.199793 2.341805152028776e-38
1.080372 -0.915102 -0.200710 2.341805152028776e-38
1.074116 -0.920932 -0.200498 2.341805152028776e-38
1.066335 -0.925422 -0.200000 2.341805152028776e-38
1.057009 -0.928592 -0.199225 2.341805152028776e-38
1.052839 -0.936315 -0.199432 2.341805152028776e-38
1.048615 -0.944023 -0.199632 2.341805152028776e-38
1.042140 -0.949714 -0.199406 2.341805152028776e-38
1.037091 -0.956705 -0.199454 2.341805152028776e-38
1.042815 -0.973845 -0.201603 2.341805152028776e-38
1.033945 -0.977519 -0.200953 2.341805152028776e-38
1.020778 -0.977015 -0.199460 2.341805152028776e-38
1.018323 -0.986722 -0.200057 2.341805152028776e-38
1.025683 -1.006145 -0.202603 2.341805152028776e-38
1.013140 -1.006188 -0.201238 2.341805152028776e-38
0.995708 -1.001240 -0.198899 2.341805152028776e-38
0.995723 -1.013776 -0.200043 2.341805152028776e-38
1.006654 -1.037725 -0.203408 2.341805152028776e-38
0.991977 -1.035393 -0.201611 2.341805152028776e-38
0.970539 -1.025748 -0.198423 2.341805152028776e-38
0.970847 -1.039074 -0.199692 2.341805152028776e-38
0.987814 -1.070642 -0.204427 2.341805152028776e-38
0.977078 -1.072451 -0.203455 2.341805152028776e-38
1.273792 -0.585434 -0.206425 2.341805152028776e-38
1.275116 -0.594343 -0.207171 2.341805152028776e-38
1.275487 -0.602861 -0.207766 2.341805152028776e-38
1.270450 -0.608838 -0.207481 2.341805152028776e-38
1.268923 -0.616551 -0.207788 2.341805152028776e-38
1.264666 -0.622993 -0.207664 2.341805152028776e-38
1.263032 -0.630735 -0.207972 2.341805152028776e-38
1.256938 -0.636245 -0.207545 2.341805152028776e-38
1.253462 -0.643065 -0.207550 2.341805152028776e-38
1.249937 -0.649888 -0.207556 2.341805152028776e-38
1.247216 -0.657214 -0.207720 2.341805152028776e-38
1.243580 -0.664064 -0.207733 2.341805152028776e-38
1.239036 -0.670426 -0.207594 2.341805152028776e-38
1.235327 -0.677236 -0.207595 2.341805152028776e-38
1.234174 -0.685470 -0.208028 2.341805152028776e-38
1.230334 -0.692334 -0.208041 2.341805152028776e-38
1.228175 -0.700159 -0.208340 2.341805152028776e-38
1.220826 -0.705015 -0.207758 2.341805152028776e-38
1.220293 -0.713808 -0.208336 2.341805152028776e-38
1.212040 -0.718081 -0.207597 2.341805152028776e-38
1.209674 -0.725911 -0.207890 2.341805152028776e-38
1.203867 -0.731699 -0.207598 2.341805152028776e-38
1.198876 -0.737965 -0.207446 2.341805152028776e-38
1.193852 -0.744200 -0.207288 2.341805152028776e-38
1.190469 -0.751459 -0.207416 2.341805152028776e-38
1.185343 -0.757687 -0.207260 2.341805152028776e-38
1.182656 -0.765525 -0.207542 2.341805152028776e-38
1.176608 -0.771189 -0.207236 2.341805152028776e-38
1.172182 -0.777904 -0.207215 2.341805152028776e-38
1.167718 -0.784596 -0.207188 2.341805152028776e-38
1.164010 -0.791854 -0.207309 2.341805152028776e-38
1.159411 -0.798577 -0.207290 2.341805152028776e-38
1.162077 -0.810369 -0.208576 2.341805152028776e-38
1.158179 -0.817655 -0.208690 2.341805152028776e-38
1.150211 -0.822048 -0.208070 2.341805152028776e-38
1.138207 -0.823499 -0.206722 2.341805152028776e-38
1.133368 -0.830154 -0.206692 2.341805152028776e-38
1.126900 -0.835605 -0.206364 2.341805152028776e-38
1.123572 -0.843385 -0.206612 2.341805152028776e-38
1.117041 -0.848761 -0.206273 2.341805152028776e-38
1.115183 -0.857720 -0.206802 2.341805152028776e-38
1.108522 -0.863105 -0.206468 2.341805152028776e-38
1.104944 -0.870893 -0.206710 2.341805152028776e-38
1.099766 -0.877435 -0.206655 2.341805152028776e-38
1.098398 -0.887056 -0.207320 2.341805152028776e-38
1.088529 -0.889805 -0.206381 2.341805152028776e-38
1.081653 -0.895063 -0.206033 2.341805152028776e-38
1.077786 -0.902814 -0.206261 2.341805152028776e-38
1.080658 -0.916312 -0.207788 2.341805152028776e-38
1.075147 -0.922788 -0.207713 2.341805152028776e-38
1.065863 -0.925989 -0.206906 2.341805152028776e-38
1.055037 -0.927866 -0.205818 2.341805152028776e-38
1.054566 -0.938868 -0.206754 2.341805152028776e-38
1.048854 -0.945263 -0.206670 2.341805152028776e-38
1.038718 -0.947622 -0.205712 2.341805152028776e-38
1.033681 -0.954594 -0.205761 2.341805152028776e-38
1.040112 -0.972404 -0.208129 2.341805152028776e-38
1.033411 -0.978104 -0.207890 2.341805152028776e-38
1.021677 -0.978968 -0.206633 2.341805152028776e-38
1.014234 -0.983859 -0.206239 2.341805152028776e-38
1.021596 -1.003257 -0.208869 2.341805152028776e-38
1.011169 -1.005385 -0.207893 2.341805152028776e-38
0.995848 -1.002533 -0.205907 2.341805152028776e-38
0.988225 -1.007302 -0.205503 2.341805152028776e-38
0.999173 -1.031203 -0.208981 2.341805152028776e-38
0.989337 -1.033832 -0.208131 2.341805152028776e-38
0.970633 -1.027065 -0.205413 2.341805152028776e-38
0.970248 -1.039669 -0.206579 2.341805152028776e-38
0.993217 -1.077781 -0.212766 2.341805152028776e-38
0.985771 -1.083286 -0.212477 2.341805152028776e-38
1.268175 -0.583388 -0.212448 2.341805152028776e-38
1.272195 -0.593521 -0.213667 2.341805152028776e-38
1.272567 -0.602024 -0.214280 2.341805152028776e-38
1.269319 -0.608841 -0.214285 2.341805152028776e-38
1.265108 -0.615278 -0.214157 2.341805152028776e-38
1.262633 -0.622574 -0.214329 2.341805152028776e-38
1.258346 -0.628979 -0.214193 2.341805152028776e-38
1.253146 -0.634911 -0.213901 2.341805152028776e-38
1.250557 -0.642163 -0.214054 2.341805152028776e-38
1.247899 -0.649453 -0.214217 2.341805152028776e-38
1.246928 -0.657690 -0.214686 2.341805152028776e-38
1.240674 -0.663141 -0.214246 2.341805152028776e-38
1.234397 -0.668546 -0.213799 2.341805152028776e-38
1.231565 -0.675806 -0.213949 2.341805152028776e-38
1.232131 -0.685005 -0.214703 2.341805152028776e-38
1.228294 -0.691858 -0.214715 2.341805152028776e-38
1.224418 -0.698692 -0.214720 2.341805152028776e-38
1.220505 -0.705507 -0.214719 2.341805152028776e-38
1.217407 -0.712800 -0.214863 2.341805152028776e-38
1.210008 -0.717570 -0.214251 2.341805152028776e-38
1.205939 -0.724386 -0.214255 2.341805152028776e-38
1.201831 -0.731181 -0.214253 2.341805152028776e-38
1.197685 -0.737955 -0.214245 2.341805152028776e-38
1.193502 -0.744707 -0.214231 2.341805152028776e-38
1.188444 -0.750908 -0.214060 2.341805152028776e-38
1.184972 -0.758213 -0.214204 2.341805152028776e-38
1.180621 -0.764974 -0.214193 2.341805152028776e-38
1.176231 -0.771712 -0.214176 2.341805152028776e-38
1.170979 -0.777879 -0.214002 2.341805152028776e-38
1.168156 -0.785668 -0.214273 2.341805152028776e-38
1.163609 -0.792393 -0.214252 2.341805152028776e-38
1.159006 -0.799115 -0.214231 2.341805152028776e-38
1.158419 -0.808642 -0.214955 2.341805152028776e-38
1.152108 -0.814196 -0.214621 2.341805152028776e-38
1.145772 -0.819705 -0.214280 2.341805152028776e-38
1.136177 -0.822890 -0.213342 2.341805152028776e-38
1.129746 -0.828366 -0.213008 2.341805152028776e-38
1.127260 -0.836742 -0.213420 2.341805152028776e-38
1.121552 -0.842744 -0.213224 2.341805152028776e-38
1.115027 -0.848110 -0.212872 2.341805152028776e-38
1.112371 -0.856473 -0.213272 2.341805152028776e-38
1.104939 -0.861234 -0.212776 2.341805152028776e-38
1.103700 -0.870839 -0.213474 2.341805152028776e-38
1.098522 -0.877375 -0.213416 2.341805152028776e-38
1.094075 -0.884503 -0.213501 2.341805152028776e-38
1.091863 -0.893506 -0.214034 2.341805152028776e-38
1.082682 -0.896894 -0.213224 2.341805152028776e-38
1.075773 -0.902111 -0.212858 2.341805152028776e-38
1.077131 -0.914318 -0.214134 2.341805152028776e-38
1.072382 -0.921419 -0.214204 2.341805152028776e-38
1.062359 -0.923962 -0.213222 2.341805152028776e-38
1.053027 -0.927136 -0.212399 2.341805152028776e-38
1.051815 -0.937469 -0.213215 2.341805152028776e-38
1.045378 -0.943186 -0.212978 2.341805152028776e-38
1.035990 -0.946194 -0.212136 2.341805152028776e-38
1.033865 -0.955836 -0.212783 2.341805152028776e-38
1.042424 -0.975689 -0.215679 2.341805152028776e-38
1.036421 -0.982086 -0.215580 2.341805152028776e-38
1.020389 -0.978863 -0.213385 2.341805152028776e-38
1.013658 -0.984437 -0.213126 2.341805152028776e-38
1.023819 -1.006605 -0.216437 2.341805152028776e-38
1.015465 -1.010855 -0.215878 2.341805152028776e-38
0.993854 -1.001716 -0.212485 2.341805152028776e-38
0.984853 -1.005061 -0.211769 2.341805152028776e-38
0.991667 -1.024678 -0.214467 2.341805152028776e-38
0.981876 -1.027263 -0.213589 2.341805152028776e-38
0.965929 -1.023342 -0.211379 2.341805152028776e-38
0.968932 -1.039535 -0.213325 2.341805152028776e-38
0.993200 -1.079092 -0.220009 2.341805152028776e-38
0.981756 -1.080208 -0.218820 2.341805152028776e-38
0.963072 -1.073128 -0.215997 2.341805152028776e-38
1.267017 -0.583406 -0.219199 2.341805152028776e-38
1.271925 -0.593951 -0.220610 2.341805152028776e-38
1.272292 -0.602454 -0.221240 2.341805152028776e-38
1.268142 -0.608860 -0.221094 2.341805152028776e-38
1.265702 -0.616166 -0.221275 2.341805152028776e-38
1.262335 -0.623028 -0.221294 2.341805152028776e-38
1.260698 -0.630758 -0.221618 2.341805152028776e-38
1.254608 -0.636257 -0.221159 2.341805152028776e-38
1.252011 -0.643517 -0.221315 2.341805152028776e-38
1.248453 -0.650385 -0.221335 2.341805152028776e-38
1.246601 -0.658164 -0.221661 2.341805152028776e-38
1.240347 -0.663614 -0.221205 2.341805152028776e-38
1.234070 -0.669018 -0.220742 2.341805152028776e-38
1.231235 -0.676277 -0.220894 2.341805152028776e-38
1.230052 -0.684538 -0.221368 2.341805152028776e-38
1.223636 -0.689925 -0.220912 2.341805152028776e-38
1.220629 -0.697224 -0.221071 2.341805152028776e-38
1.215869 -0.703523 -0.220913 2.341805152028776e-38
1.214485 -0.711790 -0.221370 2.341805152028776e-38
1.207930 -0.717072 -0.220899 2.341805152028776e-38
1.204710 -0.724387 -0.221057 2.341805152028776e-38
1.198072 -0.729634 -0.220587 2.341805152028776e-38
1.197298 -0.738461 -0.221198 2.341805152028776e-38
1.193949 -0.745735 -0.221337 2.341805152028776e-38
1.189711 -0.752483 -0.221318 2.341805152028776e-38
1.183729 -0.758204 -0.221001 2.341805152028776e-38
1.178549 -0.764421 -0.220833 2.341805152028776e-38
1.173336 -0.770606 -0.220658 2.341805152028776e-38
1.169737 -0.777852 -0.220788 2.341805152028776e-38
1.166093 -0.785083 -0.220911 2.341805152028776e-38
1.160717 -0.791261 -0.220738 2.341805152028776e-38
1.154496 -0.796845 -0.220404 2.341805152028776e-38
1.149868 -0.803517 -0.220374 2.341805152028776e-38
1.147621 -0.811875 -0.220803 2.341805152028776e-38
1.143710 -0.819085 -0.220915 2.341805152028776e-38
1.138107 -0.825179 -0.220727 2.341805152028776e-38
1.132462 -0.831251 -0.220536 2.341805152028776e-38
1.126784 -0.837287 -0.220339 2.341805152028776e-38
1.121074 -0.843287 -0.220135 2.341805152028776e-38
1.112975 -0.847455 -0.219460 2.341805152028776e-38
1.107175 -0.853413 -0.219256 2.341805152028776e-38
1.103659 -0.861184 -0.219517 2.341805152028776e-38
1.100089 -0.868945 -0.219772 2.341805152028776e-38
1.096466 -0.876695 -0.220020 2.341805152028776e-38
1.098934 -0.889406 -0.221500 2.341805152028776e-38
1.093617 -0.895952 -0.221433 2.341805152028776e-38
1.082905 -0.898091 -0.220286 2.341805152028776e-38
1.072963 -0.900770 -0.219289 2.341805152028776e-38
1.071310 -0.910401 -0.219985 2.341805152028776e-38
1.067333 -0.918113 -0.220212 2.341805152028776e-38
1.053594 -0.917401 -0.218429 2.341805152028776e-38
1.045790 -0.921830 -0.217887 2.341805152028776e-38
1.048291 -0.935409 -0.219500 2.341805152028776e-38
1.044067 -0.943093 -0.219717 2.341805152028776e-38
1.037601 -0.948762 -0.219464 2.341805152028776e-38
1.035442 -0.958428 -0.220134 2.341805152028776e-38
1.043244 -0.977618 -0.222966 2.341805152028776e-38
1.035079 -0.981981 -0.222400 2.341805152028776e-38
1.017635 -0.977384 -0.219827 2.341805152028776e-38
1.013747 -0.985698 -0.220173 2.341805152028776e-38
1.029508 -1.013416 -0.224819 2.341805152028776e-38
1.018304 -1.014925 -0.223628 2.341805152028776e-38
0.992515 -1.001595 -0.219204 2.341805152028776e-38
0.979372 -1.000697 -0.217543 2.341805152028776e-38
0.984821 -1.018859 -0.220019 2.341805152028776e-38
0.978483 -1.024978 -0.219880 2.341805152028776e-38
0.957126 -1.015301 -0.216376 2.341805152028776e-38
0.962186 -1.033609 -0.218842 2.341805152028776e-38
0.993136 -1.080396 -0.227268 2.341805152028776e-38
0.977705 -1.077124 -0.225122 2.341805152028776e-38
0.955759 -1.066343 -0.221445 2.341805152028776e-38
1.263134 -0.582183 -0.225470 2.341805152028776e-38
1.270724 -0.593962 -0.227402 2.341805152028776e-38
1.271087 -0.602458 -0.228049 2.341805152028776e-38
1.266922 -0.608887 -0.227908 2.341805152028776e-38
1.263594 -0.615755 -0.227931 2.341805152028776e-38
1.257574 -0.621294 -0.227468 2.341805152028776e-38
1.255062 -0.628557 -0.227640 2.341805152028776e-38
1.252508 -0.635813 -0.227805 2.341805152028776e-38
1.249022 -0.642632 -0.227811 2.341805152028776e-38
1.245466 -0.649490 -0.227832 2.341805152028776e-38
1.244490 -0.657714 -0.228326 2.341805152028776e-38
1.238240 -0.663154 -0.227853 2.341805152028776e-38
1.233704 -0.669488 -0.227694 2.341805152028776e-38
1.230000 -0.676270 -0.227689 2.341805152028776e-38
1.227075 -0.683590 -0.227863 2.341805152028776e-38
1.221526 -0.689446 -0.227551 2.341805152028776e-38
1.218521 -0.696733 -0.227713 2.341805152028776e-38
1.218889 -0.705990 -0.228509 2.341805152028776e-38
1.212381 -0.711278 -0.228017 2.341805152028776e-38
1.204967 -0.716069 -0.227377 2.341805152028776e-38
1.200906 -0.722858 -0.227378 2.341805152028776e-38
1.197650 -0.730139 -0.227532 2.341805152028776e-38
1.196870 -0.738965 -0.228160 2.341805152028776e-38
1.190170 -0.744144 -0.227661 2.341805152028776e-38
1.183424 -0.749310 -0.227166 2.341805152028776e-38
1.178292 -0.755529 -0.226998 2.341805152028776e-38
1.173956 -0.762254 -0.226982 2.341805152028776e-38
1.171231 -0.770040 -0.227280 2.341805152028776e-38
1.166812 -0.776727 -0.227252 2.341805152028776e-38
1.163159 -0.783963 -0.227383 2.341805152028776e-38
1.155344 -0.788457 -0.226724 2.341805152028776e-38
1.149141 -0.794011 -0.226378 2.341805152028776e-38
1.147765 -0.802916 -0.226985 2.341805152028776e-38
1.147936 -0.812975 -0.227905 2.341805152028776e-38
1.144815 -0.820769 -0.228181 2.341805152028776e-38
1.136796 -0.825145 -0.227509 2.341805152028776e-38
1.131151 -0.831211 -0.227311 2.341805152028776e-38
1.127850 -0.839008 -0.227585 2.341805152028776e-38
1.120554 -0.843828 -0.227054 2.341805152028776e-38
1.111671 -0.847396 -0.226197 2.341805152028776e-38
1.105857 -0.853366 -0.225990 2.341805152028776e-38
1.100783 -0.859915 -0.225938 2.341805152028776e-38
1.095670 -0.866435 -0.225880 2.341805152028776e-38
1.097455 -0.878479 -0.227251 2.341805152028776e-38
1.103738 -0.894304 -0.229572 2.341805152028776e-38
1.093796 -0.897142 -0.228549 2.341805152028776e-38
1.079286 -0.896130 -0.226569 2.341805152028776e-38
1.068606 -0.898154 -0.225380 2.341805152028776e-38
1.066964 -0.907761 -0.226097 2.341805152028776e-38
1.060009 -0.912871 -0.225691 2.341805152028776e-38
1.052994 -0.917972 -0.225290 2.341805152028776e-38
1.045929 -0.923053 -0.224889 2.341805152028776e-38
1.052093 -0.939923 -0.227346 2.341805152028776e-38
1.049304 -0.948956 -0.227885 2.341805152028776e-38
1.036978 -0.949325 -0.226351 2.341805152028776e-38
1.031899 -0.956320 -0.226408 2.341805152028776e-38
1.040416 -0.976165 -0.229484 2.341805152028776e-38
1.030114 -0.978472 -0.228424 2.341805152028776e-38
1.015555 -0.976585 -0.226406 2.341805152028776e-38
1.016621 -0.989710 -0.227871 2.341805152028776e-38
1.028093 -1.013301 -0.231711 2.341805152028776e-38
1.011305 -1.009224 -0.229214 2.341805152028776e-38
0.986967 -0.997259 -0.224971 2.341805152028776e-38
0.975931 -0.998448 -0.223732 2.341805152028776e-38
0.978635 -1.013747 -0.225651 2.341805152028776e-38
0.966185 -1.013408 -0.224087 2.341805152028776e-38
0.951010 -1.010132 -0.221898 2.341805152028776e-38
0.959448 -1.032018 -0.225229 2.341805152028776e-38
0.987681 -1.075875 -0.233280 2.341805152028776e-38
0.970302 -1.070378 -0.230596 2.341805152028776e-38
0.948418 -1.059558 -0.226806 2.341805152028776e-38
1.262802 -0.582610 -0.232371 2.341805152028776e-38
1.270379 -0.594388 -0.234359 2.341805152028776e-38
1.269845 -0.602461 -0.234858 2.341805152028776e-38
1.265664 -0.608913 -0.234721 2.341805152028776e-38
1.259677 -0.614477 -0.234248 2.341805152028776e-38
1.255435 -0.620870 -0.234099 2.341805152028776e-38
1.253806 -0.628564 -0.234437 2.341805152028776e-38
1.250372 -0.635367 -0.234440 2.341805152028776e-38
1.246872 -0.642203 -0.234455 2.341805152028776e-38
1.245067 -0.649963 -0.234803 2.341805152028776e-38
1.239727 -0.655879 -0.234485 2.341805152028776e-38
1.234360 -0.661759 -0.234161 2.341805152028776e-38
1.228965 -0.667602 -0.233830 2.341805152028776e-38
1.223528 -0.673432 -0.233502 2.341805152028776e-38
1.224924 -0.683120 -0.234504 2.341805152028776e-38
1.219380 -0.688964 -0.234180 2.341805152028776e-38
1.218945 -0.697711 -0.234839 2.341805152028776e-38
1.214184 -0.704002 -0.234667 2.341805152028776e-38
1.210238 -0.710767 -0.234655 2.341805152028776e-38
1.204512 -0.716576 -0.234330 2.341805152028776e-38
1.200449 -0.723363 -0.234329 2.341805152028776e-38
1.197189 -0.730643 -0.234485 2.341805152028776e-38
1.194724 -0.738430 -0.234800 2.341805152028776e-38
1.186358 -0.742551 -0.233954 2.341805152028776e-38
1.181273 -0.748775 -0.233781 2.341805152028776e-38
1.181126 -0.758180 -0.234594 2.341805152028776e-38
1.177602 -0.765459 -0.234741 2.341805152028776e-38
1.170737 -0.770555 -0.234222 2.341805152028776e-38
1.164674 -0.776147 -0.233861 2.341805152028776e-38
1.158554 -0.781739 -0.233507 2.341805152028776e-38
1.152385 -0.787320 -0.233155 2.341805152028776e-38
1.147001 -0.793419 -0.232961 2.341805152028776e-38
1.146433 -0.802879 -0.233750 2.341805152028776e-38
1.146598 -0.812931 -0.234696 2.341805152028776e-38
1.142658 -0.820164 -0.234819 2.341805152028776e-38
1.133050 -0.823369 -0.233796 2.341805152028776e-38
1.129801 -0.831168 -0.234084 2.341805152028776e-38
1.126498 -0.838958 -0.234365 2.341805152028776e-38
1.123931 -0.847334 -0.234803 2.341805152028776e-38
1.111886 -0.848541 -0.233264 2.341805152028776e-38
1.103718 -0.852713 -0.232558 2.341805152028776e-38
1.099425 -0.859858 -0.232667 2.341805152028776e-38
1.096633 -0.868208 -0.233099 2.341805152028776e-38
1.098398 -0.880259 -0.234509 2.341805152028776e-38
1.101592 -0.893605 -0.236240 2.341805152028776e-38
1.088595 -0.893946 -0.234533 2.341805152028776e-38
1.074115 -0.892905 -0.232492 2.341805152028776e-38
1.065726 -0.896806 -0.231759 2.341805152028776e-38
1.068593 -0.910234 -0.233480 2.341805152028776e-38
1.061624 -0.915356 -0.233061 2.341805152028776e-38
1.053837 -0.919837 -0.232486 2.341805152028776e-38
1.053416 -0.930804 -0.233547 2.341805152028776e-38
1.056577 -0.945089 -0.235419 2.341805152028776e-38
1.047902 -0.948854 -0.234663 2.341805152028776e-38
1.034858 -0.948550 -0.232918 2.341805152028776e-38
1.027598 -0.953537 -0.232488 2.341805152028776e-38
1.033235 -0.970654 -0.235000 2.341805152028776e-38
1.030123 -0.979719 -0.235542 2.341805152028776e-38
1.020542 -0.982625 -0.234606 2.341805152028776e-38
1.020148 -0.994404 -0.235786 2.341805152028776e-38
1.024528 -1.011102 -0.238109 2.341805152028776e-38
1.009862 -1.009098 -0.236026 2.341805152028776e-38
0.986938 -0.998532 -0.231982 2.341805152028776e-38
0.971766 -0.995487 -0.229728 2.341805152028776e-38
0.974476 -1.010762 -0.231703 2.341805152028776e-38
0.962717 -1.011129 -0.230257 2.341805152028776e-38
0.949598 -1.009991 -0.228490 2.341805152028776e-38
0.956000 -1.029699 -0.231431 2.341805152028776e-38
0.982863 -1.072076 -0.239396 2.341805152028776e-38
0.967510 -1.068747 -0.237118 2.341805152028776e-38
1.262432 -0.583036 -0.239281 2.341805152028776e-38
1.269104 -0.594395 -0.241154 2.341805152028776e-38
1.268551 -0.602491 -0.241677 2.341805152028776e-38
1.261707 -0.607655 -0.241025 2.341805152028776e-38
1.256615 -0.613629 -0.240705 2.341805152028776e-38
1.253262 -0.620444 -0.240719 2.341805152028776e-38
1.250752 -0.627685 -0.240895 2.341805152028776e-38
1.248201 -0.634920 -0.241066 2.341805152028776e-38
1.242935 -0.640869 -0.240750 2.341805152028776e-38
1.241136 -0.648607 -0.241105 2.341805152028776e-38
1.237547 -0.655425 -0.241115 2.341805152028776e-38
1.227842 -0.658964 -0.239930 2.341805152028776e-38
1.223331 -0.665242 -0.239757 2.341805152028776e-38
1.222208 -0.673447 -0.240275 2.341805152028776e-38
1.221877 -0.682167 -0.240965 2.341805152028776e-38
1.218056 -0.688966 -0.240968 2.341805152028776e-38
1.215907 -0.696726 -0.241305 2.341805152028776e-38
1.215414 -0.705474 -0.241974 2.341805152028776e-38
1.211443 -0.712273 -0.241968 2.341805152028776e-38
1.202324 -0.716072 -0.240953 2.341805152028776e-38
1.199107 -0.723357 -0.241119 2.341805152028776e-38
1.200051 -0.733199 -0.242126 2.341805152028776e-38
1.193380 -0.738410 -0.241600 2.341805152028776e-38
1.184177 -0.742011 -0.240561 2.341805152028776e-38
1.182414 -0.750351 -0.241063 2.341805152028776e-38
1.186399 -0.762426 -0.242746 2.341805152028776e-38
1.178719 -0.767049 -0.242047 2.341805152028776e-38
1.168557 -0.769984 -0.240832 2.341805152028776e-38
1.160859 -0.774471 -0.240120 2.341805152028776e-38
1.154734 -0.780064 -0.239760 2.341805152028776e-38
1.147763 -0.785068 -0.239227 2.341805152028776e-38
1.147254 -0.794508 -0.240043 2.341805152028776e-38
1.148289 -0.805102 -0.241191 2.341805152028776e-38
1.142810 -0.811172 -0.240976 2.341805152028776e-38
1.135661 -0.816105 -0.240429 2.341805152028776e-38
1.128474 -0.821010 -0.239884 2.341805152028776e-38
1.129204 -0.831706 -0.241025 2.341805152028776e-38
1.127477 -0.840672 -0.241651 2.341805152028776e-38
1.118604 -0.844305 -0.240746 2.341805152028776e-38
1.106568 -0.845503 -0.239166 2.341805152028776e-38
1.102320 -0.852660 -0.239284 2.341805152028776e-38
1.099579 -0.861013 -0.239733 2.341805152028776e-38
1.092915 -0.866305 -0.239329 2.341805152028776e-38
1.092377 -0.876483 -0.240272 2.341805152028776e-38
1.093271 -0.887949 -0.241549 2.341805152028776e-38
1.079556 -0.887617 -0.239623 2.341805152028776e-38
1.073459 -0.893460 -0.239380 2.341805152028776e-38
1.066578 -0.898629 -0.238961 2.341805152028776e-38
1.066423 -0.909505 -0.240055 2.341805152028776e-38
1.061695 -0.916554 -0.240130 2.341805152028776e-38
1.055376 -0.922347 -0.239878 2.341805152028776e-38
1.049765 -0.928752 -0.239787 2.341805152028776e-38
1.056597 -0.946304 -0.242554 2.341805152028776e-38
1.048650 -0.950733 -0.241943 2.341805152028776e-38
1.031973 -0.947104 -0.239304 2.341805152028776e-38
1.024707 -0.952093 -0.238864 2.341805152028776e-38
1.028901 -0.967841 -0.241111 2.341805152028776e-38
1.029371 -0.980280 -0.242508 2.341805152028776e-38
1.021921 -0.985236 -0.242048 2.341805152028776e-38
1.015154 -0.990828 -0.241748 2.341805152028776e-38
1.020225 -1.008206 -0.244309 2.341805152028776e-38
1.007680 -1.008270 -0.242668 2.341805152028776e-38
0.982016 -0.994889 -0.237835 2.341805152028776e-38
0.973762 -0.998876 -0.237191 2.341805152028776e-38
0.980539 -1.018425 -0.240227 2.341805152028776e-38
0.973480 -1.023849 -0.239912 2.341805152028776e-38
0.957592 -1.019907 -0.237421 2.341805152028776e-38
0.960560 -1.036051 -0.239608 2.341805152028776e-38
0.981339 -1.071908 -0.246296 2.341805152028776e-38
0.966663 -1.069305 -0.244118 2.341805152028776e-38
1.251696 -0.570560 -0.243572 2.341805152028776e-38
1.260237 -0.582633 -0.245851 2.341805152028776e-38
1.265117 -0.593145 -0.247426 2.341805152028776e-38
1.262773 -0.600405 -0.247625 2.341805152028776e-38
1.255944 -0.605538 -0.246951 2.341805152028776e-38
1.253519 -0.612780 -0.247143 2.341805152028776e-38
1.251053 -0.620016 -0.247329 2.341805152028776e-38
1.250304 -0.628130 -0.247857 2.341805152028776e-38
1.245100 -0.634052 -0.247518 2.341805152028776e-38
1.241591 -0.640888 -0.247539 2.341805152028776e-38
1.236300 -0.646793 -0.247204 2.341805152028776e-38
1.234461 -0.654508 -0.247560 2.341805152028776e-38
1.229105 -0.660360 -0.247212 2.341805152028776e-38
1.224585 -0.666651 -0.247033 2.341805152028776e-38
1.221712 -0.673936 -0.247223 2.341805152028776e-38
1.222234 -0.683134 -0.248103 2.341805152028776e-38
1.214980 -0.687995 -0.247407 2.341805152028776e-38
1.215397 -0.697208 -0.248274 2.341805152028776e-38
1.208938 -0.702492 -0.247739 2.341805152028776e-38
1.205816 -0.709781 -0.247914 2.341805152028776e-38
1.200945 -0.716070 -0.247740 2.341805152028776e-38
1.200256 -0.724875 -0.248431 2.341805152028776e-38
1.196146 -0.731642 -0.248418 2.341805152028776e-38
1.189486 -0.736832 -0.247875 2.341805152028776e-38
1.180281 -0.740436 -0.246812 2.341805152028776e-38
1.182680 -0.751395 -0.248198 2.341805152028776e-38
1.180024 -0.759211 -0.248531 2.341805152028776e-38
1.170716 -0.762724 -0.247461 2.341805152028776e-38
1.162230 -0.766699 -0.246560 2.341805152028776e-38
1.156182 -0.772258 -0.246178 2.341805152028776e-38
1.153328 -0.780042 -0.246507 2.341805152028776e-38
1.151235 -0.788377 -0.247002 2.341805152028776e-38
1.145037 -0.793910 -0.246619 2.341805152028776e-38
1.142845 -0.802229 -0.247100 2.341805152028776e-38
1.138186 -0.808840 -0.247052 2.341805152028776e-38
1.131836 -0.814345 -0.246669 2.341805152028776e-38
1.129438 -0.822707 -0.247151 2.341805152028776e-38
1.130151 -0.833409 -0.248322 2.341805152028776e-38
1.122097 -0.837670 -0.247570 2.341805152028776e-38
1.113247 -0.841273 -0.246638 2.341805152028776e-38
1.106696 -0.846650 -0.246237 2.341805152028776e-38
1.105555 -0.856221 -0.247052 2.341805152028776e-38
1.096589 -0.859734 -0.246120 2.341805152028776e-38
1.093020 -0.867458 -0.246399 2.341805152028776e-38
1.086327 -0.872705 -0.245975 2.341805152028776e-38
1.087219 -0.884155 -0.247292 2.341805152028776e-38
1.078860 -0.888171 -0.246526 2.341805152028776e-38
1.072005 -0.893381 -0.246101 2.341805152028776e-38
1.063620 -0.897272 -0.245322 2.341805152028776e-38
1.067211 -0.911330 -0.247313 2.341805152028776e-38
1.060218 -0.916471 -0.246872 2.341805152028776e-38
1.050196 -0.919015 -0.245744 2.341805152028776e-38
1.050502 -0.930614 -0.247036 2.341805152028776e-38
1.060239 -0.950802 -0.250572 2.341805152028776e-38
1.052267 -0.955255 -0.249941 2.341805152028776e-38
1.035567 -0.951663 -0.247229 2.341805152028776e-38
1.023222 -0.951985 -0.245565 2.341805152028776e-38
1.027402 -0.967726 -0.247874 2.341805152028776e-38
1.025012 -0.977438 -0.248617 2.341805152028776e-38
1.018290 -0.983054 -0.248315 2.341805152028776e-38
1.012946 -0.990003 -0.248351 2.341805152028776e-38
1.017988 -1.007384 -0.250986 2.341805152028776e-38
1.001979 -1.003951 -0.248435 2.341805152028776e-38
0.981212 -0.995450 -0.244673 2.341805152028776e-38
0.975706 -1.002258 -0.244698 2.341805152028776e-38
0.989269 -1.028920 -0.249539 2.341805152028776e-38
0.977381 -1.029417 -0.248011 2.341805152028776e-38
0.960798 -1.024784 -0.245276 2.341805152028776e-38
0.957698 -1.034443 -0.245975 2.341805152028776e-38
0.979773 -1.071734 -0.253193 2.341805152028776e-38
0.961149 -1.064738 -0.249922 2.341805152028776e-38
1.262007 -0.575883 -0.252580 2.341805152028776e-38
1.256221 -0.581401 -0.252052 2.341805152028776e-38
1.258419 -0.590654 -0.253137 2.341805152028776e-38
1.257856 -0.598740 -0.253704 2.341805152028776e-38
1.254583 -0.605558 -0.253725 2.341805152028776e-38
1.253925 -0.613658 -0.254278 2.341805152028776e-38
1.254097 -0.622209 -0.255004 2.341805152028776e-38
1.248939 -0.628130 -0.254647 2.341805152028776e-38
1.241966 -0.633182 -0.253950 2.341805152028776e-38
1.237588 -0.639549 -0.253789 2.341805152028776e-38
1.232306 -0.645434 -0.253442 2.341805152028776e-38
1.233080 -0.654511 -0.254344 2.341805152028776e-38
1.226859 -0.659891 -0.253804 2.341805152028776e-38
1.222325 -0.666198 -0.253628 2.341805152028776e-38
1.221176 -0.674422 -0.254179 2.341805152028776e-38
1.217398 -0.681216 -0.254185 2.341805152028776e-38
1.212726 -0.687507 -0.254005 2.341805152028776e-38
1.207169 -0.693279 -0.253639 2.341805152028776e-38
1.204132 -0.700503 -0.253806 2.341805152028776e-38
1.202702 -0.708785 -0.254349 2.341805152028776e-38
1.199527 -0.716066 -0.254526 2.341805152028776e-38
1.195467 -0.722828 -0.254517 2.341805152028776e-38
1.193046 -0.730596 -0.254859 2.341805152028776e-38
1.188068 -0.736807 -0.254657 2.341805152028776e-38
1.179684 -0.740953 -0.253751 2.341805152028776e-38
1.179582 -0.750325 -0.254635 2.341805152028776e-38
1.173622 -0.755993 -0.254258 2.341805152028776e-38
1.166811 -0.761083 -0.253694 2.341805152028776e-38
1.159981 -0.766122 -0.253124 2.341805152028776e-38
1.156375 -0.773334 -0.253275 2.341805152028776e-38
1.152697 -0.780568 -0.253431 2.341805152028776e-38
1.149787 -0.788344 -0.253759 2.341805152028776e-38
1.144400 -0.794432 -0.253542 2.341805152028776e-38
1.139786 -0.801051 -0.253497 2.341805152028776e-38
1.134318 -0.807094 -0.253272 2.341805152028776e-38
1.132768 -0.816031 -0.253952 2.341805152028776e-38
1.128767 -0.823241 -0.254087 2.341805152028776e-38
1.126303 -0.831603 -0.254572 2.341805152028776e-38
1.115112 -0.833486 -0.253083 2.341805152028776e-38
1.107074 -0.837646 -0.252303 2.341805152028776e-38
1.101312 -0.843606 -0.252073 2.341805152028776e-38
1.101739 -0.854352 -0.253266 2.341805152028776e-38
1.096659 -0.860882 -0.253201 2.341805152028776e-38
1.090000 -0.866159 -0.252770 2.341805152028776e-38
1.082551 -0.870773 -0.252154 2.341805152028776e-38
1.082665 -0.881601 -0.253334 2.341805152028776e-38
1.074325 -0.885591 -0.252545 2.341805152028776e-38
1.067488 -0.890776 -0.252106 2.341805152028776e-38
1.062130 -0.897182 -0.252017 2.341805152028776e-38
1.067952 -0.913150 -0.254596 2.341805152028776e-38
1.062421 -0.919605 -0.254503 2.341805152028776e-38
1.050906 -0.920867 -0.252985 2.341805152028776e-38
1.047512 -0.929207 -0.253420 2.341805152028776e-38
1.060895 -0.952664 -0.257941 2.341805152028776e-38
1.049275 -0.953814 -0.256402 2.341805152028776e-38
1.029686 -0.947560 -0.252907 2.341805152028776e-38
1.018815 -0.949190 -0.251552 2.341805152028776e-38
1.026577 -0.968281 -0.254811 2.341805152028776e-38
1.024178 -0.977989 -0.255572 2.341805152028776e-38
1.013916 -0.980183 -0.254373 2.341805152028776e-38
1.006461 -0.985059 -0.253881 2.341805152028776e-38
1.016410 -1.007249 -0.257828 2.341805152028776e-38
1.003196 -1.006599 -0.255915 2.341805152028776e-38
0.983816 -0.999512 -0.252402 2.341805152028776e-38
0.974853 -1.002811 -0.251541 2.341805152028776e-38
0.987693 -1.028764 -0.256336 2.341805152028776e-38
0.976481 -1.029977 -0.254945 2.341805152028776e-38
0.956548 -1.021750 -0.251250 2.341805152028776e-38
0.955466 -1.033552 -0.252497 2.341805152028776e-38
0.980154 -1.073735 -0.260615 2.341805152028776e-38
0.968128 -1.074058 -0.259017 2.341805152028776e-38
1.275833 -0.582838 -0.262447 2.341805152028776e-38
1.257527 -0.582646 -0.259328 2.341805152028776e-38
1.257025 -0.590685 -0.259901 2.341805152028776e-38
1.257346 -0.599187 -0.260663 2.341805152028776e-38
1.255841 -0.606858 -0.261051 2.341805152028776e-38
1.255173 -0.614966 -0.261615 2.341805152028776e-38
1.250932 -0.621338 -0.261437 2.341805152028776e-38
1.247528 -0.628143 -0.261443 2.341805152028776e-38
1.240550 -0.633203 -0.260730 2.341805152028776e-38
1.234426 -0.638659 -0.260195 2.341805152028776e-38
1.231763 -0.645897 -0.260388 2.341805152028776e-38
1.229925 -0.653589 -0.260758 2.341805152028776e-38
1.224578 -0.659418 -0.260386 2.341805152028776e-38
1.220030 -0.665742 -0.260214 2.341805152028776e-38
1.214579 -0.671577 -0.259856 2.341805152028776e-38
1.214247 -0.680257 -0.260596 2.341805152028776e-38
1.209582 -0.686531 -0.260408 2.341805152028776e-38
1.206589 -0.693756 -0.260582 2.341805152028776e-38
1.204379 -0.701500 -0.260945 2.341805152028776e-38
1.200401 -0.708285 -0.260947 2.341805152028776e-38
1.193853 -0.713538 -0.260391 2.341805152028776e-38
1.194011 -0.722814 -0.261299 2.341805152028776e-38
1.190751 -0.730062 -0.261464 2.341805152028776e-38
1.185770 -0.736271 -0.261257 2.341805152028776e-38
1.178215 -0.740943 -0.260514 2.341805152028776e-38
1.176450 -0.749252 -0.261052 2.341805152028776e-38
1.172150 -0.755969 -0.261030 2.341805152028776e-38
1.166988 -0.762127 -0.260817 2.341805152028776e-38
1.160975 -0.767710 -0.260413 2.341805152028776e-38
1.155707 -0.773860 -0.260206 2.341805152028776e-38
1.152839 -0.781643 -0.260548 2.341805152028776e-38
1.150731 -0.789977 -0.261065 2.341805152028776e-38
1.143721 -0.794950 -0.260473 2.341805152028776e-38
1.139104 -0.801567 -0.260425 2.341805152028776e-38
1.134417 -0.808200 -0.260383 2.341805152028776e-38
1.130464 -0.815414 -0.260527 2.341805152028776e-38
1.124878 -0.821452 -0.260296 2.341805152028776e-38
1.120841 -0.828624 -0.260425 2.341805152028776e-38
1.107315 -0.828711 -0.258343 2.341805152028776e-38
1.099292 -0.832848 -0.257547 2.341805152028776e-38
1.096679 -0.841156 -0.258044 2.341805152028776e-38
1.098666 -0.853082 -0.259634 2.341805152028776e-38
1.091275 -0.857773 -0.259014 2.341805152028776e-38
1.085406 -0.863633 -0.258754 2.341805152028776e-38
1.077203 -0.867612 -0.257939 2.341805152028776e-38
1.078079 -0.879043 -0.259334 2.341805152028776e-38
1.069759 -0.883008 -0.258523 2.341805152028776e-38
1.064448 -0.889428 -0.258437 2.341805152028776e-38
1.060600 -0.897087 -0.258711 2.341805152028776e-38
1.067900 -0.914326 -0.261721 2.341805152028776e-38
1.060115 -0.918870 -0.261081 2.341805152028776e-38
1.047135 -0.918823 -0.259155 2.341805152028776e-38
1.041545 -0.925184 -0.259052 2.341805152028776e-38
1.051269 -0.945318 -0.262778 2.341805152028776e-38
1.038248 -0.945089 -0.260831 2.341805152028776e-38
1.022330 -0.942120 -0.258161 2.341805152028776e-38
1.017971 -0.949745 -0.258411 2.341805152028776e-38
1.029997 -0.972881 -0.262849 2.341805152028776e-38
1.019748 -0.975138 -0.261622 2.341805152028776e-38
1.004565 -0.972519 -0.259114 2.341805152028776e-38
1.002759 -0.982864 -0.260071 2.341805152028776e-38
1.016186 -1.008495 -0.265031 2.341805152028776e-38
1.005056 -1.009937 -0.263611 2.341805152028776e-38
0.980162 -0.997256 -0.258548 2.341805152028776e-38
0.971218 -1.000535 -0.257663 2.341805152028776e-38
0.984703 -1.027191 -0.262770 2.341805152028776e-38
0.970804 -1.025532 -0.260614 2.341805152028776e-38
0.950250 -1.016556 -0.256639 2.341805152028776e-38
0.956529 -1.036269 -0.259911 2.341805152028776e-38
0.982473 -1.077909 -0.268605 2.341805152028776e-38
0.960545 -1.067298 -0.264251 2.341805152028776e-38
0.943305 -1.061650 -0.261173 2.341805152028776e-38
1.298520 -0.593875 -0.274363 2.341805152028776e-38
1.265022 -0.586788 -0.267955 2.341805152028776e-38
1.260037 -0.592804 -0.267609 2.341805152028776e-38
1.255911 -0.599209 -0.267444 2.341805152028776e-38
1.256172 -0.607728 -0.268215 2.341805152028776e-38
1.251087 -0.613676 -0.267848 2.341805152028776e-38
1.247734 -0.620465 -0.267851 2.341805152028776e-38
1.242562 -0.626400 -0.267490 2.341805152028776e-38
1.239096 -0.633221 -0.267510 2.341805152028776e-38
1.233848 -0.639122 -0.267146 2.341805152028776e-38
1.230311 -0.645901 -0.267153 2.341805152028776e-38
1.225870 -0.652202 -0.266964 2.341805152028776e-38
1.221388 -0.658492 -0.266774 2.341805152028776e-38
1.216837 -0.664813 -0.266600 2.341805152028776e-38
1.215690 -0.673009 -0.267175 2.341805152028776e-38
1.211919 -0.679775 -0.267175 2.341805152028776e-38
1.209819 -0.687492 -0.267546 2.341805152028776e-38
1.209373 -0.696190 -0.268288 2.341805152028776e-38
1.205432 -0.702990 -0.268291 2.341805152028776e-38
1.198909 -0.708283 -0.267724 2.341805152028776e-38
1.194893 -0.715041 -0.267717 2.341805152028776e-38
1.190838 -0.721779 -0.267702 2.341805152028776e-38
1.185908 -0.727983 -0.267491 2.341805152028776e-38
1.180088 -0.733674 -0.267098 2.341805152028776e-38
1.173383 -0.738838 -0.266522 2.341805152028776e-38
1.171627 -0.747121 -0.267070 2.341805152028776e-38
1.168164 -0.754344 -0.267234 2.341805152028776e-38
1.165479 -0.762093 -0.267579 2.341805152028776e-38
1.158639 -0.767140 -0.266978 2.341805152028776e-38
1.156630 -0.775476 -0.267522 2.341805152028776e-38
1.153750 -0.783266 -0.267870 2.341805152028776e-38
1.148392 -0.789382 -0.267644 2.341805152028776e-38
1.142195 -0.794903 -0.267223 2.341805152028776e-38
1.135170 -0.799816 -0.266605 2.341805152028776e-38
1.132873 -0.808163 -0.267133 2.341805152028776e-38
1.126531 -0.813644 -0.266713 2.341805152028776e-38
1.122542 -0.820820 -0.266851 2.341805152028776e-38
1.116929 -0.826811 -0.266604 2.341805152028776e-38
1.109713 -0.831589 -0.265974 2.341805152028776e-38
1.100876 -0.835170 -0.264974 2.341805152028776e-38
1.095131 -0.841096 -0.264728 2.341805152028776e-38
1.094007 -0.850603 -0.265603 2.341805152028776e-38
1.088178 -0.856483 -0.265342 2.341805152028776e-38
1.081549 -0.861714 -0.264885 2.341805152028776e-38
1.077166 -0.868777 -0.264994 2.341805152028776e-38
1.078026 -0.880208 -0.266423 2.341805152028776e-38
1.075003 -0.888555 -0.266904 2.341805152028776e-38
1.065892 -0.891857 -0.265874 2.341805152028776e-38
1.061278 -0.898893 -0.265965 2.341805152028776e-38
1.064062 -0.912313 -0.267928 2.341805152028776e-38
1.058512 -0.918775 -0.267835 2.341805152028776e-38
1.044805 -0.918073 -0.265669 2.341805152028776e-38
1.032615 -0.918546 -0.263873 2.341805152028776e-38
1.037246 -0.934024 -0.266382 2.341805152028776e-38
1.025757 -0.935037 -0.264760 2.341805152028776e-38
1.019283 -0.940674 -0.264460 2.341805152028776e-38
1.019955 -0.952976 -0.266025 2.341805152028776e-38
1.024082 -0.968700 -0.268517 2.341805152028776e-38
1.015284 -0.972282 -0.267632 2.341805152028776e-38
0.996607 -0.966221 -0.264123 2.341805152028776e-38
0.999022 -0.980664 -0.266228 2.341805152028776e-38
1.012430 -1.006271 -0.271315 2.341805152028776e-38
1.000630 -1.006997 -0.269670 2.341805152028776e-38
0.976473 -0.994995 -0.264662 2.341805152028776e-38
0.977804 -1.008836 -0.266549 2.341805152028776e-38
0.991865 -1.036259 -0.271975 2.341805152028776e-38
0.979272 -1.036077 -0.270132 2.341805152028776e-38
0.951972 -1.019977 -0.264191 2.341805152028776e-38
0.947553 -1.028141 -0.264571 2.341805152028776e-38
0.964894 -1.060273 -0.271073 2.341805152028776e-38
0.947683 -1.054689 -0.267911 2.341805152028776e-38
1.313086 -0.601233 -0.284795 2.341805152028776e-38
1.270666 -0.590127 -0.276302 2.341805152028776e-38
1.260339 -0.593666 -0.274782 2.341805152028776e-38
1.256209 -0.600073 -0.274610 2.341805152028776e-38
1.252047 -0.606457 -0.274430 2.341805152028776e-38
1.246971 -0.612384 -0.274050 2.341805152028776e-38
1.242744 -0.618719 -0.273859 2.341805152028776e-38
1.240196 -0.625981 -0.274078 2.341805152028776e-38
1.236731 -0.632790 -0.274096 2.341805152028776e-38
1.231488 -0.638679 -0.273720 2.341805152028776e-38
1.225348 -0.644077 -0.273143 2.341805152028776e-38
1.224383 -0.652197 -0.273720 2.341805152028776e-38
1.220745 -0.658976 -0.273728 2.341805152028776e-38
1.218775 -0.666707 -0.274128 2.341805152028776e-38
1.211607 -0.671585 -0.273359 2.341805152028776e-38
1.211267 -0.680251 -0.274131 2.341805152028776e-38
1.207456 -0.686996 -0.274121 2.341805152028776e-38
1.206147 -0.695208 -0.274692 2.341805152028776e-38
1.198815 -0.700024 -0.273922 2.341805152028776e-38
1.198223 -0.708777 -0.274694 2.341805152028776e-38
1.190838 -0.713516 -0.273909 2.341805152028776e-38
1.188469 -0.721250 -0.274278 2.341805152028776e-38
1.180201 -0.725387 -0.273285 2.341805152028776e-38
1.175211 -0.731592 -0.273083 2.341805152028776e-38
1.168522 -0.736730 -0.272489 2.341805152028776e-38
1.164293 -0.743402 -0.272469 2.341805152028776e-38
1.162498 -0.751650 -0.273021 2.341805152028776e-38
1.158185 -0.758293 -0.272985 2.341805152028776e-38
1.153804 -0.764952 -0.272956 2.341805152028776e-38
1.154248 -0.774902 -0.274092 2.341805152028776e-38
1.152182 -0.783231 -0.274639 2.341805152028776e-38
1.147633 -0.789895 -0.274599 2.341805152028776e-38
1.138215 -0.793170 -0.273391 2.341805152028776e-38
1.136001 -0.801473 -0.273921 2.341805152028776e-38
1.130491 -0.807551 -0.273689 2.341805152028776e-38
1.123360 -0.812445 -0.273063 2.341805152028776e-38
1.120169 -0.820184 -0.273395 2.341805152028776e-38
1.120867 -0.830837 -0.274685 2.341805152028776e-38
1.113630 -0.835640 -0.274036 2.341805152028776e-38
1.104756 -0.839269 -0.273015 2.341805152028776e-38
1.095877 -0.842827 -0.271988 2.341805152028776e-38
1.092414 -0.850531 -0.272305 2.341805152028776e-38
1.086586 -0.856404 -0.272034 2.341805152028776e-38
1.080727 -0.862240 -0.271757 2.341805152028776e-38
1.080138 -0.872403 -0.272837 2.341805152028776e-38
1.083246 -0.885718 -0.274878 2.341805152028776e-38
1.074895 -0.889718 -0.274020 2.341805152028776e-38
1.064279 -0.891761 -0.272576 2.341805152028776e-38
1.058167 -0.897519 -0.272281 2.341805152028776e-38
1.063162 -0.912860 -0.274876 2.341805152028776e-38
1.056127 -0.918031 -0.274393 2.341805152028776e-38
1.042438 -0.917318 -0.272171 2.341805152028776e-38
1.028064 -0.915821 -0.269751 2.341805152028776e-38
1.021764 -0.921415 -0.269439 2.341805152028776e-38
1.013967 -0.925662 -0.268741 2.341805152028776e-38
1.010433 -0.933895 -0.269201 2.341805152028776e-38
1.011853 -0.946815 -0.270996 2.341805152028776e-38
1.018852 -0.965189 -0.274317 2.341805152028776e-38
1.005123 -0.963986 -0.272066 2.341805152028776e-38
0.991441 -0.962658 -0.269811 2.341805152028776e-38
0.989651 -0.972955 -0.270823 2.341805152028776e-38
1.008639 -1.004043 -0.277568 2.341805152028776e-38
0.998936 -1.006839 -0.276454 2.341805152028776e-38
0.980307 -1.000441 -0.272848 2.341805152028776e-38
0.985004 -1.017834 -0.275734 2.341805152028776e-38
0.999633 -1.046028 -0.281489 2.341805152028776e-38
0.978904 -1.037332 -0.277306 2.341805152028776e-38
0.947617 -1.016927 -0.270069 2.341805152028776e-38
0.939226 -1.020732 -0.269314 2.341805152028776e-38
0.957891 -1.054263 -0.276360 2.341805152028776e-38
0.943341 -1.051578 -0.273884 2.341805152028776e-38
1.270034 -0.590571 -0.283337 2.341805152028776e-38
1.258828 -0.593689 -0.281578 2.341805152028776e-38
1.252046 -0.598821 -0.280803 2.341805152028776e-38
1.247010 -0.604756 -0.280417 2.341805152028776e-38
1.244584 -0.611954 -0.280620 2.341805152028776e-38
1.240341 -0.618309 -0.280435 2.341805152028776e-38
1.239543 -0.626443 -0.281053 2.341805152028776e-38
1.235204 -0.632803 -0.280870 2.341805152028776e-38
1.230832 -0.639137 -0.280679 2.341805152028776e-38
1.226429 -0.645445 -0.280481 2.341805152028776e-38
1.221990 -0.651731 -0.280278 2.341805152028776e-38
1.217476 -0.658059 -0.280097 2.341805152028776e-38
1.214649 -0.665301 -0.280305 2.341805152028776e-38
1.210922 -0.672061 -0.280307 2.341805152028776e-38
1.206303 -0.678322 -0.280103 2.341805152028776e-38
1.203355 -0.685525 -0.280289 2.341805152028776e-38
1.200333 -0.692765 -0.280486 2.341805152028776e-38
1.196404 -0.699528 -0.280487 2.341805152028776e-38
1.194967 -0.707770 -0.281076 2.341805152028776e-38
1.191794 -0.715013 -0.281261 2.341805152028776e-38
1.186065 -0.720718 -0.280843 2.341805152028776e-38
1.181131 -0.726915 -0.280623 2.341805152028776e-38
1.173631 -0.731581 -0.279821 2.341805152028776e-38
1.166946 -0.736711 -0.279210 2.341805152028776e-38
1.162717 -0.743376 -0.279186 2.341805152028776e-38
1.160096 -0.751084 -0.279551 2.341805152028776e-38
1.153327 -0.756102 -0.278918 2.341805152028776e-38
1.152206 -0.764929 -0.279688 2.341805152028776e-38
1.151017 -0.773778 -0.280452 2.341805152028776e-38
1.146522 -0.780435 -0.280416 2.341805152028776e-38
1.138761 -0.784843 -0.279579 2.341805152028776e-38
1.134203 -0.791434 -0.279528 2.341805152028776e-38
1.133577 -0.800871 -0.280474 2.341805152028776e-38
1.128073 -0.806937 -0.280233 2.341805152028776e-38
1.119361 -0.810668 -0.279193 2.341805152028776e-38
