VERSION .7
FIELDS x y z rgb
SIZE 4 4 4 4
TYPE F F F F
COUNT 1 1 1 1
WIDTH 976
HEIGHT 1
VIEWPOINT 0 0 0 1 0 0 0
POINTS 976
DATA ascii
1.158897 0.746746 0.169262 2.341805152028776e-38
1.164786 0.741227 0.169518 2.341805152028776e-38
1.169792 0.735166 0.169654 2.341805152028776e-38
1.176452 0.730120 0.170028 2.341805152028776e-38
1.179708 0.722950 0.169910 2.341805152028776e-38
1.185467 0.717308 0.170152 2.341805152028776e-38
1.190324 0.711156 0.170277 2.341805152028776e-38
1.195124 0.705013 0.170406 2.341805152028776e-38
1.199893 0.698840 0.170530 2.341805152028776e-38
1.207212 0.694120 0.171015 2.341805152028776e-38
1.211062 0.687382 0.171007 2.341805152028776e-38
1.215724 0.681138 0.171123 2.341805152028776e-38
1.219454 0.674436 0.171126 2.341805152028776e-38
1.227504 0.670092 0.171732 2.341805152028776e-38
1.231174 0.663328 0.171724 2.341805152028776e-38
1.237435 0.657942 0.172077 2.341805152028776e-38
1.240150 0.650681 0.171941 2.341805152028776e-38
1.248956 0.646670 0.172671 2.341805152028776e-38
1.254220 0.640778 0.172908 2.341805152028776e-38
1.260342 0.635296 0.173263 2.341805152028776e-38
1.264665 0.628884 0.173368 2.341805152028776e-38
1.269845 0.622884 0.173591 2.341805152028776e-38
1.271382 0.615199 0.173343 2.341805152028776e-38
1.278247 0.610082 0.173822 2.341805152028776e-38
1.283297 0.604065 0.174053 2.341805152028776e-38
1.289220 0.598431 0.174400 2.341805152028776e-38
0.906871 1.002631 0.156961 2.341805152028776e-38
0.911129 0.994709 0.156723 2.341805152028776e-38
0.917350 0.988958 0.156825 2.341805152028776e-38
0.925575 0.985342 0.157270 2.341805152028776e-38
0.932384 0.980257 0.157484 2.341805152028776e-38
0.939824 0.975870 0.157814 2.341805152028776e-38
0.945165 0.969296 0.157792 2.341805152028776e-38
0.951856 0.964107 0.157998 2.341805152028776e-38
0.958520 0.958874 0.158198 2.341805152028776e-38
0.963709 0.952231 0.158167 2.341805152028776e-38
0.970952 0.947676 0.158485 2.341805152028776e-38
0.978176 0.943069 0.158799 2.341805152028776e-38
0.986098 0.939095 0.159224 2.341805152028776e-38
0.990392 0.931656 0.159063 2.341805152028776e-38
0.994605 0.924230 0.158903 2.341805152028776e-38
1.000190 0.918170 0.158976 2.341805152028776e-38
1.004266 0.910743 0.158813 2.341805152028776e-38
1.011249 0.905952 0.159110 2.341805152028776e-38
1.016723 0.899794 0.159169 2.341805152028776e-38
1.022886 0.894281 0.159345 2.341805152028776e-38
1.031233 0.890721 0.159873 2.341805152028776e-38
1.036552 0.884514 0.159931 2.341805152028776e-38
1.041075 0.877637 0.159867 2.341805152028776e-38
1.046316 0.871373 0.159915 2.341805152028776e-38
1.053037 0.866360 0.160195 2.341805152028776e-38
1.060462 0.861977 0.160596 2.341805152028776e-38
1.064775 0.855050 0.160527 2.341805152028776e-38
1.069821 0.848720 0.160569 2.341805152028776e-38
1.074829 0.842362 0.160606 2.341805152028776e-38
1.078219 0.834771 0.160407 2.341805152028776e-38
1.081509 0.827231 0.160215 2.341805152028776e-38
1.087917 0.822077 0.160485 2.341805152028776e-38
1.095098 0.817471 0.160868 2.341805152028776e-38
1.101462 0.812221 0.161129 2.341805152028776e-38
1.106996 0.806346 0.161269 2.341805152028776e-38
1.111641 0.799923 0.161301 2.341805152028776e-38
1.117867 0.794626 0.161563 2.341805152028776e-38
1.126508 0.790997 0.162171 2.341805152028776e-38
1.131064 0.784465 0.162189 2.341805152028776e-38
1.137221 0.779030 0.162436 2.341805152028776e-38
1.139187 0.770843 0.162109 2.341805152028776e-38
1.146050 0.765973 0.162479 2.341805152028776e-38
1.149579 0.758862 0.162377 2.341805152028776e-38
1.153896 0.752279 0.162386 2.341805152028776e-38
1.159845 0.746748 0.162625 2.341805152028776e-38
1.167401 0.742308 0.163108 2.341805152028776e-38
1.172412 0.736233 0.163237 2.341805152028776e-38
1.177393 0.730126 0.163362 2.341805152028776e-38
1.184036 0.725025 0.163715 2.341805152028776e-38
1.188959 0.718845 0.163830 2.341805152028776e-38
1.192107 0.711675 0.163719 2.341805152028776e-38
1.196056 0.705017 0.163724 2.341805152028776e-38
1.201683 0.699338 0.163960 2.341805152028776e-38
1.206424 0.693125 0.164073 2.341805152028776e-38
1.210269 0.686392 0.164064 2.341805152028776e-38
1.214914 0.680172 0.164179 2.341805152028776e-38
1.222116 0.675396 0.164649 2.341805152028776e-38
1.228431 0.670086 0.164996 2.341805152028776e-38
1.232100 0.663317 0.164987 2.341805152028776e-38
1.236610 0.656995 0.165091 2.341805152028776e-38
1.243705 0.652064 0.165550 2.341805152028776e-38
1.248994 0.646209 0.165781 2.341805152028776e-38
1.254256 0.640317 0.166008 2.341805152028776e-38
1.259491 0.634389 0.166230 2.341805152028776e-38
1.262920 0.627539 0.166213 2.341805152028776e-38
1.268083 0.621570 0.166431 2.341805152028776e-38
1.272293 0.615192 0.166544 2.341805152028776e-38
1.279161 0.610071 0.167003 2.341805152028776e-38
1.283314 0.603627 0.167106 2.341805152028776e-38
1.288335 0.597575 0.167321 2.341805152028776e-38
1.295131 0.592322 0.167768 2.341805152028776e-38
1.327220 0.598522 0.171506 2.341805152028776e-38
1.376652 0.612067 0.177463 2.341805152028776e-38
0.907169 1.002001 0.150460 2.341805152028776e-38
0.912764 0.995544 0.150452 2.341805152028776e-38
0.918314 0.989056 0.150439 2.341805152028776e-38
0.926541 0.985435 0.150865 2.341805152028776e-38
0.932655 0.979636 0.150960 2.341805152028776e-38
0.938713 0.973818 0.151054 2.341805152028776e-38
0.944735 0.967963 0.151144 2.341805152028776e-38
0.950022 0.961365 0.151118 2.341805152028776e-38
0.957372 0.956846 0.151420 2.341805152028776e-38
0.964660 0.952317 0.151725 2.341805152028776e-38
0.978308 0.954002 0.153031 2.341805152028776e-38
0.984140 0.947972 0.153109 2.341805152028776e-38
0.987055 0.939167 0.152737 2.341805152028776e-38
0.991347 0.931724 0.152582 2.341805152028776e-38
0.994820 0.923628 0.152318 2.341805152028776e-38
1.001866 0.918911 0.152611 2.341805152028776e-38
1.005209 0.910808 0.152342 2.341805152028776e-38
1.012934 0.906675 0.152737 2.341805152028776e-38
1.016924 0.899191 0.152570 2.341805152028776e-38
1.023821 0.894344 0.152851 2.341805152028776e-38
1.028410 0.887533 0.152799 2.341805152028776e-38
1.035223 0.882634 0.153077 2.341805152028776e-38
1.039734 0.875765 0.153015 2.341805152028776e-38
1.046491 0.870782 0.153284 2.341805152028776e-38
1.053199 0.865781 0.153554 2.341805152028776e-38
1.061394 0.862025 0.154050 2.341805152028776e-38
1.066481 0.855715 0.154094 2.341805152028776e-38
1.069974 0.848142 0.153910 2.341805152028776e-38
1.074978 0.841783 0.153945 2.341805152028776e-38
1.078353 0.834206 0.153756 2.341805152028776e-38
1.083217 0.827872 0.153794 2.341805152028776e-38
1.089630 0.822709 0.154053 2.341805152028776e-38
1.096816 0.818094 0.154419 2.341805152028776e-38
1.103186 0.812834 0.154669 2.341805152028776e-38
1.107106 0.805794 0.154581 2.341805152028776e-38
1.114168 0.801113 0.154948 2.341805152028776e-38
1.120403 0.795801 0.155198 2.341805152028776e-38
1.127427 0.791016 0.155556 2.341805152028776e-38
1.131166 0.783913 0.155460 2.341805152028776e-38
1.137311 0.778492 0.155698 2.341805152028776e-38
1.141741 0.771977 0.155721 2.341805152028776e-38
1.145306 0.764885 0.155626 2.341805152028776e-38
1.151317 0.759421 0.155864 2.341805152028776e-38
1.158135 0.754456 0.156209 2.341805152028776e-38
1.163259 0.748369 0.156326 2.341805152028776e-38
1.169141 0.742854 0.156566 2.341805152028776e-38
1.170790 0.734657 0.156239 2.341805152028776e-38
1.176607 0.729083 0.156470 2.341805152028776e-38
1.182398 0.723468 0.156696 2.341805152028776e-38
1.187313 0.717298 0.156805 2.341805152028776e-38
1.193001 0.711682 0.157038 2.341805152028776e-38
1.199518 0.706533 0.157379 2.341805152028776e-38
1.206015 0.701335 0.157716 2.341805152028776e-38
1.212490 0.696087 0.158049 2.341805152028776e-38
1.214622 0.688340 0.157815 2.341805152028776e-38
1.216666 0.680660 0.157591 2.341805152028776e-38
1.222134 0.674913 0.157816 2.341805152028776e-38
1.226703 0.668653 0.157923 2.341805152028776e-38
1.231240 0.662364 0.158026 2.341805152028776e-38
1.239255 0.657910 0.158573 2.341805152028776e-38
1.243706 0.651602 0.158680 2.341805152028776e-38
1.249876 0.646204 0.159013 2.341805152028776e-38
1.252485 0.638952 0.158893 2.341805152028776e-38
1.257714 0.633033 0.159105 2.341805152028776e-38
1.262915 0.627077 0.159312 2.341805152028776e-38
1.268958 0.621568 0.159638 2.341805152028776e-38
1.274958 0.616050 0.159969 2.341805152028776e-38
1.281832 0.610914 0.160408 2.341805152028776e-38
1.285991 0.604455 0.160505 2.341805152028776e-38
1.290116 0.597971 0.160598 2.341805152028776e-38
1.292386 0.590667 0.160470 2.341805152028776e-38
1.315426 0.592799 0.162933 2.341805152028776e-38
1.353962 0.601564 0.167299 2.341805152028776e-38
0.906757 1.000630 0.143861 2.341805152028776e-38
0.912343 0.994176 0.143852 2.341805152028776e-38
0.920591 0.990606 0.144263 2.341805152028776e-38
0.926786 0.984800 0.144352 2.341805152028776e-38
0.931514 0.977570 0.144232 2.341805152028776e-38
0.937559 0.971760 0.144321 2.341805152028776e-38
0.944263 0.966625 0.144512 2.341805152028776e-38
0.949541 0.960031 0.144486 2.341805152028776e-38
0.958291 0.956922 0.144988 2.341805152028776e-38
0.969818 0.956588 0.145920 2.341805152028776e-38
0.983500 0.958243 0.147170 2.341805152028776e-38
0.989357 0.952183 0.147245 2.341805152028776e-38
0.986530 0.937866 0.146034 2.341805152028776e-38
0.987915 0.927705 0.145459 2.341805152028776e-38
0.995724 0.923698 0.145847 2.341805152028776e-38
1.001306 0.917634 0.145914 2.341805152028776e-38
1.006850 0.911537 0.145976 2.341805152028776e-38
1.013099 0.906069 0.146140 2.341805152028776e-38
1.017084 0.898585 0.145980 2.341805152028776e-38
1.021721 0.891788 0.145929 2.341805152028776e-38
1.029306 0.887588 0.146306 2.341805152028776e-38
1.035364 0.882040 0.146464 2.341805152028776e-38
1.039870 0.875171 0.146404 2.341805152028776e-38
1.042038 0.866374 0.146018 2.341805152028776e-38
1.047175 0.860151 0.146063 2.341805152028776e-38
1.056111 0.857058 0.146645 2.341805152028776e-38
1.063496 0.852646 0.147008 2.341805152028776e-38
1.070086 0.847560 0.147260 2.341805152028776e-38
1.074305 0.840589 0.147185 2.341805152028776e-38
1.080807 0.835462 0.147434 2.341805152028776e-38
1.084098 0.827908 0.147256 2.341805152028776e-38
1.091306 0.823339 0.147611 2.341805152028776e-38
1.097701 0.818120 0.147853 2.341805152028776e-38
1.103272 0.812266 0.147984 2.341805152028776e-38
1.107981 0.805826 0.148009 2.341805152028776e-38
1.114238 0.800559 0.148252 2.341805152028776e-38
1.118038 0.793522 0.148168 2.341805152028776e-38
1.117725 0.783615 0.147543 2.341805152028776e-38
1.124690 0.778833 0.147880 2.341805152028776e-38
1.131617 0.774025 0.148218 2.341805152028776e-38
1.139316 0.769770 0.148668 2.341805152028776e-38
1.145350 0.764348 0.148899 2.341805152028776e-38
1.152189 0.759431 0.149233 2.341805152028776e-38
1.155676 0.752291 0.149133 2.341805152028776e-38
1.161613 0.746772 0.149354 2.341805152028776e-38
1.166649 0.740735 0.149476 2.341805152028776e-38
1.169968 0.733609 0.149377 2.341805152028776e-38
1.174090 0.726993 0.149382 2.341805152028776e-38
1.180719 0.721911 0.149705 2.341805152028776e-38
1.188170 0.717306 0.150134 2.341805152028776e-38
1.190442 0.709652 0.149926 2.341805152028776e-38
1.202947 0.708048 0.151005 2.341805152028776e-38
1.219769 0.708825 0.152618 2.341805152028776e-38
1.221114 0.700532 0.152290 2.341805152028776e-38
1.212885 0.686863 0.150775 2.341805152028776e-38
1.214044 0.678720 0.150455 2.341805152028776e-38
1.221243 0.673950 0.150884 2.341805152028776e-38
1.226680 0.668170 0.151094 2.341805152028776e-38
1.230340 0.661410 0.151084 2.341805152028776e-38
1.236596 0.656029 0.151391 2.341805152028776e-38
1.242788 0.650678 0.151712 2.341805152028776e-38
1.248073 0.644828 0.151923 2.341805152028776e-38
1.251558 0.638038 0.151914 2.341805152028776e-38
1.254119 0.630784 0.151793 2.341805152028776e-38
1.256638 0.623522 0.151668 2.341805152028776e-38
1.265331 0.619378 0.152306 2.341805152028776e-38
1.274007 0.615177 0.152944 2.341805152028776e-38
1.279982 0.609619 0.153256 2.341805152028776e-38
1.284134 0.603170 0.153348 2.341805152028776e-38
1.287351 0.596278 0.153329 2.341805152028776e-38
1.290505 0.589423 0.153318 2.341805152028776e-38
1.308112 0.589116 0.155031 2.341805152028776e-38
1.311213 0.582185 0.155020 2.341805152028776e-38
0.904966 0.997779 0.137075 2.341805152028776e-38
0.913225 0.994269 0.137471 2.341805152028776e-38
0.920121 0.989238 0.137661 2.341805152028776e-38
0.924261 0.981263 0.137441 2.341805152028776e-38
0.930329 0.975499 0.137529 2.341805152028776e-38
0.937743 0.971130 0.137817 2.341805152028776e-38
0.943748 0.965283 0.137898 2.341805152028776e-38
0.950417 0.960108 0.138076 2.341805152028776e-38
0.957058 0.954887 0.138250 2.341805152028776e-38
0.966442 0.952477 0.138836 2.341805152028776e-38
0.979392 0.953460 0.139928 2.341805152028776e-38
0.975899 0.938462 0.138673 2.341805152028776e-38
0.978030 0.929025 0.138229 2.341805152028776e-38
0.987336 0.926404 0.138799 2.341805152028776e-38
0.995129 0.922413 0.139171 2.341805152028776e-38
1.001437 0.917025 0.139336 2.341805152028776e-38
1.006240 0.910260 0.139292 2.341805152028776e-38
1.010257 0.902809 0.139143 2.341805152028776e-38
1.014966 0.896001 0.139090 2.341805152028776e-38
1.024826 0.893806 0.139759 2.341805152028776e-38
1.030917 0.888289 0.139914 2.341805152028776e-38
1.036979 0.882732 0.140065 2.341805152028776e-38
1.035399 0.870733 0.139188 2.341805152028776e-38
1.036773 0.861328 0.138716 2.341805152028776e-38
1.042638 0.855779 0.138862 2.341805152028776e-38
1.053097 0.853968 0.139622 2.341805152028776e-38
1.062019 0.850818 0.140173 2.341805152028776e-38
1.068599 0.845742 0.140413 2.341805152028776e-38
1.075157 0.840618 0.140648 2.341805152028776e-38
1.080863 0.834891 0.140786 2.341805152028776e-38
1.084150 0.827338 0.140615 2.341805152028776e-38
1.090563 0.822170 0.140850 2.341805152028776e-38
1.095356 0.815768 0.140876 2.341805152028776e-38
1.103317 0.811697 0.141308 2.341805152028776e-38
1.107209 0.804685 0.141230 2.341805152028776e-38
1.112652 0.798844 0.141359 2.341805152028776e-38
1.110763 0.787788 0.140560 2.341805152028776e-38
1.112856 0.779636 0.140269 2.341805152028776e-38
1.126344 0.779410 0.141412 2.341805152028776e-38
1.134088 0.775170 0.141840 2.341805152028776e-38
1.138498 0.768674 0.141858 2.341805152028776e-38
1.146182 0.764361 0.142284 2.341805152028776e-38
1.151361 0.758345 0.142397 2.341805152028776e-38
1.155675 0.751753 0.142403 2.341805152028776e-38
1.160764 0.745712 0.142514 2.341805152028776e-38
1.165794 0.739680 0.142629 2.341805152028776e-38
1.169107 0.732559 0.142534 2.341805152028776e-38
1.175760 0.727518 0.142846 2.341805152028776e-38
1.180696 0.721390 0.142948 2.341805152028776e-38
1.186433 0.715774 0.143155 2.341805152028776e-38
1.187841 0.707621 0.142853 2.341805152028776e-38
1.206342 0.709562 0.144603 2.341805152028776e-38
1.212859 0.704325 0.144909 2.341805152028776e-38
1.206411 0.691619 0.143670 2.341805152028776e-38
1.206771 0.682948 0.143253 2.341805152028776e-38
1.213117 0.677751 0.143563 2.341805152028776e-38
1.220313 0.672985 0.143972 2.341805152028776e-38
1.225746 0.667211 0.144171 2.341805152028776e-38
1.230276 0.660927 0.144263 2.341805152028776e-38
1.236525 0.655560 0.144559 2.341805152028776e-38
1.241832 0.649753 0.144764 2.341805152028776e-38
1.247996 0.644365 0.145066 2.341805152028776e-38
1.249707 0.636672 0.144851 2.341805152028776e-38
1.243372 0.624961 0.143708 2.341805152028776e-38
1.246748 0.618202 0.143690 2.341805152028776e-38
1.260769 0.616751 0.144920 2.341805152028776e-38
1.270330 0.613006 0.145631 2.341805152028776e-38
1.278091 0.608323 0.146133 2.341805152028776e-38
1.281336 0.601462 0.146118 2.341805152028776e-38
1.287253 0.595838 0.146406 2.341805152028776e-38
1.289489 0.588592 0.146298 2.341805152028776e-38
1.302565 0.586249 0.147419 2.341805152028776e-38
1.296558 0.575313 0.146381 2.341805152028776e-38
0.905806 0.997871 0.130712 2.341805152028776e-38
0.912046 0.992159 0.130799 2.341805152028776e-38
0.919608 0.987865 0.131076 2.341805152028776e-38
0.925093 0.981351 0.131060 2.341805152028776e-38
0.931849 0.976304 0.131241 2.341805152028776e-38
0.939270 0.971926 0.131515 2.341805152028776e-38
0.944584 0.965360 0.131494 2.341805152028776e-38
0.951254 0.960180 0.131663 2.341805152028776e-38
0.957889 0.954961 0.131830 2.341805152028776e-38
0.963727 0.949058 0.131903 2.341805152028776e-38
0.968103 0.941733 0.131778 2.341805152028776e-38
0.973142 0.935080 0.131747 2.341805152028776e-38
0.980302 0.930456 0.132002 2.341805152028776e-38
0.987438 0.925783 0.132255 2.341805152028776e-38
0.994493 0.921123 0.132512 2.341805152028776e-38
1.002996 0.917756 0.132961 2.341805152028776e-38
1.008542 0.911650 0.133017 2.341805152028776e-38
1.013308 0.904848 0.132971 2.341805152028776e-38
1.018775 0.898681 0.133018 2.341805152028776e-38
1.025644 0.893859 0.133266 2.341805152028776e-38
1.032490 0.888988 0.133511 2.341805152028776e-38
1.036283 0.881488 0.133362 2.341805152028776e-38
1.036976 0.871414 0.132818 2.341805152028776e-38
1.039882 0.863271 0.132562 2.341805152028776e-38
1.045750 0.857716 0.132703 2.341805152028776e-38
1.054678 0.854634 0.133232 2.341805152028776e-38
1.060499 0.848988 0.133366 2.341805152028776e-38
1.069412 0.845774 0.133887 2.341805152028776e-38
1.076755 0.841258 0.134209 2.341805152028776e-38
1.080880 0.834318 0.134145 2.341805152028776e-38
1.084162 0.826765 0.133982 2.341805152028776e-38
1.091368 0.822197 0.134303 2.341805152028776e-38
1.096960 0.816385 0.134425 2.341805152028776e-38
1.100918 0.809358 0.134347 2.341805152028776e-38
1.107201 0.804128 0.134568 2.341805152028776e-38
1.111834 0.797707 0.134593 2.341805152028776e-38
1.113181 0.788958 0.134221 2.341805152028776e-38
1.121801 0.785358 0.134727 2.341805152028776e-38
1.132873 0.783383 0.135522 2.341805152028776e-38
1.137345 0.776873 0.135540 2.341805152028776e-38
1.140115 0.769246 0.135361 2.341805152028776e-38
1.144491 0.762717 0.135374 2.341805152028776e-38
1.150493 0.757258 0.135579 2.341805152028776e-38
1.154801 0.750672 0.135584 2.341805152028776e-38
1.159037 0.744113 0.135594 2.341805152028776e-38
1.166580 0.739689 0.135997 2.341805152028776e-38
1.171579 0.733620 0.136102 2.341805152028776e-38
1.174855 0.726473 0.136006 2.341805152028776e-38
1.180635 0.720868 0.136201 2.341805152028776e-38
1.184656 0.714240 0.136204 2.341805152028776e-38
1.188619 0.707625 0.136209 2.341805152028776e-38
1.200266 0.705527 0.137093 2.341805152028776e-38
1.204180 0.698826 0.137090 2.341805152028776e-38
1.206329 0.691115 0.136888 2.341805152028776e-38
1.210140 0.684422 0.136884 2.341805152028776e-38
1.214758 0.678235 0.136983 2.341805152028776e-38
1.222830 0.673941 0.137471 2.341805152028776e-38
1.226521 0.667202 0.137464 2.341805152028776e-38
1.229298 0.659972 0.137355 2.341805152028776e-38
1.235533 0.654628 0.137640 2.341805152028776e-38
1.241718 0.649288 0.137932 2.341805152028776e-38
1.246997 0.643444 0.138122 2.341805152028776e-38
1.244267 0.633500 0.137426 2.341805152028776e-38
1.242356 0.624051 0.136824 2.341805152028776e-38
1.251959 0.620410 0.137496 2.341805152028776e-38
1.265104 0.618494 0.138570 2.341805152028776e-38
1.273782 0.614294 0.139149 2.341805152028776e-38
1.278857 0.608309 0.139333 2.341805152028776e-38
1.281201 0.601021 0.139220 2.341805152028776e-38
1.285304 0.594573 0.139300 2.341805152028776e-38
1.288434 0.587761 0.139296 2.341805152028776e-38
1.299697 0.584607 0.140169 2.341805152028776e-38
1.305503 0.578930 0.140450 2.341805152028776e-38
0.903927 0.995010 0.123979 2.341805152028776e-38
0.911498 0.990776 0.124245 2.341805152028776e-38
0.918373 0.985758 0.124416 2.341805152028776e-38
0.925203 0.980711 0.124585 2.341805152028776e-38
0.932643 0.976384 0.124849 2.341805152028776e-38
0.940758 0.972718 0.125201 2.341805152028776e-38
0.946076 0.966144 0.125181 2.341805152028776e-38
0.951349 0.959541 0.125158 2.341805152028776e-38
0.956562 0.952926 0.125132 2.341805152028776e-38
0.963807 0.948430 0.125386 2.341805152028776e-38
0.969605 0.942493 0.125451 2.341805152028776e-38
0.976085 0.937210 0.125605 2.341805152028776e-38
0.981814 0.931199 0.125664 2.341805152028776e-38
0.989674 0.927208 0.125997 2.341805152028776e-38
0.997469 0.923212 0.126334 2.341805152028776e-38
1.004518 0.918483 0.126575 2.341805152028776e-38
1.007851 0.910367 0.126350 2.341805152028776e-38
1.012609 0.903570 0.126306 2.341805152028776e-38
1.017313 0.896760 0.126259 2.341805152028776e-38
1.024170 0.891948 0.126494 2.341805152028776e-38
1.030252 0.886437 0.126634 2.341805152028776e-38
1.036304 0.880885 0.126769 2.341805152028776e-38
1.040040 0.873373 0.126623 2.341805152028776e-38
1.044484 0.866490 0.126566 2.341805152028776e-38
1.049598 0.860282 0.126608 2.341805152028776e-38
1.056996 0.855924 0.126924 2.341805152028776e-38
1.063602 0.850887 0.127144 2.341805152028776e-38
1.070967 0.846420 0.127453 2.341805152028776e-38
1.075175 0.839447 0.127387 2.341805152028776e-38
1.083223 0.835567 0.127793 2.341805152028776e-38
1.087303 0.828605 0.127730 2.341805152028776e-38
1.093726 0.823420 0.127942 2.341805152028776e-38
1.095331 0.814624 0.127592 2.341805152028776e-38
1.100883 0.808785 0.127703 2.341805152028776e-38
1.108767 0.804738 0.128101 2.341805152028776e-38
1.115020 0.799469 0.128310 2.341805152028776e-38
1.117188 0.791277 0.128049 2.341805152028776e-38
1.125009 0.787084 0.128436 2.341805152028776e-38
1.131180 0.781694 0.128633 2.341805152028776e-38
1.137278 0.776331 0.128838 2.341805152028776e-38
1.139218 0.768147 0.128574 2.341805152028776e-38
1.146075 0.763280 0.128865 2.341805152028776e-38
1.149585 0.756170 0.128780 2.341805152028776e-38
1.153887 0.749589 0.128784 2.341805152028776e-38
1.158108 0.743050 0.128795 2.341805152028776e-38
1.165647 0.738632 0.129178 2.341805152028776e-38
1.168953 0.731512 0.129090 2.341805152028776e-38
1.175604 0.726473 0.129372 2.341805152028776e-38
1.180535 0.720346 0.129463 2.341805152028776e-38
1.187102 0.715275 0.129748 2.341805152028776e-38
1.191926 0.709155 0.129845 2.341805152028776e-38
1.199294 0.704517 0.130219 2.341805152028776e-38
1.204064 0.698322 0.130309 2.341805152028776e-38
1.207074 0.691106 0.130208 2.341805152028776e-38
1.210008 0.683934 0.130114 2.341805152028776e-38
1.217232 0.679204 0.130488 2.341805152028776e-38
1.220080 0.672015 0.130391 2.341805152028776e-38
1.227259 0.667193 0.130756 2.341805152028776e-38
1.230036 0.659959 0.130652 2.341805152028776e-38
1.237143 0.655094 0.131019 2.341805152028776e-38
1.240685 0.648361 0.131016 2.341805152028776e-38
1.245075 0.642067 0.131103 2.341805152028776e-38
1.246771 0.634391 0.130906 2.341805152028776e-38
1.249310 0.627162 0.130799 2.341805152028776e-38
1.258032 0.623059 0.131348 2.341805152028776e-38
1.266724 0.618925 0.131902 2.341805152028776e-38
1.274511 0.614284 0.132359 2.341805152028776e-38
1.279586 0.608295 0.132534 2.341805152028776e-38
1.281028 0.600580 0.132331 2.341805152028776e-38
1.285120 0.594153 0.132411 2.341805152028776e-38
1.287342 0.586928 0.132313 2.341805152028776e-38
1.302237 0.585413 0.133515 2.341805152028776e-38
1.313511 0.582143 0.134341 2.341805152028776e-38
0.903345 0.993618 0.117456 2.341805152028776e-38
0.911583 0.990122 0.117796 2.341805152028776e-38
0.919134 0.985833 0.118045 2.341805152028776e-38
0.925956 0.980790 0.118206 2.341805152028776e-38
0.933398 0.976459 0.118456 2.341805152028776e-38
0.940822 0.972074 0.118702 2.341805152028776e-38
0.946136 0.965500 0.118683 2.341805152028776e-38
0.952807 0.960313 0.118835 2.341805152028776e-38
0.958721 0.954401 0.118898 2.341805152028776e-38
0.965266 0.949194 0.119051 2.341805152028776e-38
0.970355 0.942554 0.119026 2.341805152028776e-38
0.976835 0.937268 0.119172 2.341805152028776e-38
0.984734 0.933309 0.119489 2.341805152028776e-38
0.990418 0.927268 0.119543 2.341805152028776e-38
0.997484 0.922591 0.119775 2.341805152028776e-38
1.003059 0.916520 0.119828 2.341805152028776e-38
1.007858 0.909748 0.119789 2.341805152028776e-38
1.013355 0.903615 0.119834 2.341805152028776e-38
1.018050 0.896810 0.119791 2.341805152028776e-38
1.025660 0.892649 0.120102 2.341805152028776e-38
1.030236 0.885831 0.120058 2.341805152028776e-38
1.036285 0.880280 0.120186 2.341805152028776e-38
1.042305 0.874689 0.120310 2.341805152028776e-38
1.046748 0.867803 0.120257 2.341805152028776e-38
1.053411 0.862845 0.120473 2.341805152028776e-38
1.059277 0.857212 0.120596 2.341805152028776e-38
1.063558 0.850296 0.120540 2.341805152028776e-38
1.071702 0.846448 0.120921 2.341805152028776e-38
1.077472 0.840707 0.121036 2.341805152028776e-38
1.083163 0.834990 0.121155 2.341805152028776e-38
1.086447 0.827425 0.121007 2.341805152028776e-38
1.091271 0.821048 0.121031 2.341805152028776e-38
1.096058 0.814643 0.121051 2.341805152028776e-38
1.103210 0.809989 0.121334 2.341805152028776e-38
1.110295 0.805346 0.121624 2.341805152028776e-38
1.114934 0.798908 0.121644 2.341805152028776e-38
1.117096 0.790718 0.121396 2.341805152028776e-38
1.124100 0.785954 0.121675 2.341805152028776e-38
1.131082 0.781141 0.121950 2.341805152028776e-38
1.136349 0.775225 0.122057 2.341805152028776e-38
1.139108 0.767604 0.121894 2.341805152028776e-38
1.144304 0.761633 0.121993 2.341805152028776e-38
1.148637 0.755082 0.122000 2.341805152028776e-38
1.155439 0.750133 0.122268 2.341805152028776e-38
1.160493 0.744136 0.122369 2.341805152028776e-38
1.165516 0.738106 0.122466 2.341805152028776e-38
1.169663 0.731516 0.122471 2.341805152028776e-38
1.176315 0.726473 0.122737 2.341805152028776e-38
1.182097 0.720860 0.122912 2.341805152028776e-38
1.186954 0.714767 0.123006 2.341805152028776e-38
1.192631 0.709157 0.123187 2.341805152028776e-38
1.200002 0.704516 0.123541 2.341805152028776e-38
1.201325 0.696318 0.123272 2.341805152028776e-38
1.205187 0.689613 0.123264 2.341805152028776e-38
1.210706 0.683936 0.123442 2.341805152028776e-38
1.217062 0.678717 0.123707 2.341805152028776e-38
1.221652 0.672489 0.123792 2.341805152028776e-38
1.226210 0.666232 0.123872 2.341805152028776e-38
1.231614 0.660416 0.124038 2.341805152028776e-38
1.236076 0.654161 0.124123 2.341805152028776e-38
1.242261 0.648818 0.124385 2.341805152028776e-38
1.244883 0.641602 0.124289 2.341805152028776e-38
1.249240 0.635281 0.124367 2.341805152028776e-38
1.256235 0.630273 0.124706 2.341805152028776e-38
1.259612 0.623498 0.124700 2.341805152028776e-38
1.268309 0.619355 0.125225 2.341805152028776e-38
1.273408 0.613409 0.125393 2.341805152028776e-38
1.278480 0.607426 0.125557 2.341805152028776e-38
1.283524 0.601408 0.125718 2.341805152028776e-38
1.285803 0.594149 0.125620 2.341805152028776e-38
1.288025 0.586921 0.125527 2.341805152028776e-38
1.301109 0.584586 0.126489 2.341805152028776e-38
1.302364 0.576884 0.126300 2.341805152028776e-38
0.906073 0.995907 0.111363 2.341805152028776e-38
0.913652 0.991662 0.111602 2.341805152028776e-38
0.919854 0.985904 0.111672 2.341805152028776e-38
0.928038 0.982313 0.111990 2.341805152028776e-38
0.934113 0.976530 0.112061 2.341805152028776e-38
0.942232 0.972858 0.112376 2.341805152028776e-38
0.948945 0.967699 0.112523 2.341805152028776e-38
0.954929 0.961788 0.112584 2.341805152028776e-38
0.958724 0.953763 0.112396 2.341805152028776e-38
0.965977 0.949255 0.112624 2.341805152028776e-38
0.971780 0.943307 0.112682 2.341805152028776e-38
0.978266 0.938013 0.112819 2.341805152028776e-38
0.984000 0.931990 0.112871 2.341805152028776e-38
0.991123 0.927324 0.113088 2.341805152028776e-38
0.997459 0.921968 0.113224 2.341805152028776e-38
1.003030 0.915898 0.113274 2.341805152028776e-38
1.007825 0.909127 0.113236 2.341805152028776e-38
1.014806 0.904320 0.113445 2.341805152028776e-38
1.020992 0.898833 0.113571 2.341805152028776e-38
1.027113 0.893347 0.113699 2.341805152028776e-38
1.031692 0.886521 0.113656 2.341805152028776e-38
1.036227 0.879672 0.113611 2.341805152028776e-38
1.041480 0.873442 0.113645 2.341805152028776e-38
1.047441 0.867843 0.113762 2.341805152028776e-38
1.051792 0.860987 0.113715 2.341805152028776e-38
1.060747 0.857871 0.114165 2.341805152028776e-38
1.065031 0.850947 0.114112 2.341805152028776e-38
1.071617 0.845856 0.114305 2.341805152028776e-38
1.075804 0.838901 0.114247 2.341805152028776e-38
1.082274 0.833802 0.114443 2.341805152028776e-38
1.087136 0.827450 0.114469 2.341805152028776e-38
1.091164 0.820470 0.114408 2.341805152028776e-38
1.096748 0.814661 0.114511 2.341805152028776e-38
1.104696 0.810604 0.114863 2.341805152028776e-38
1.111786 0.805953 0.115136 2.341805152028776e-38
1.115618 0.798926 0.115072 2.341805152028776e-38
1.121847 0.793610 0.115255 2.341805152028776e-38
1.128869 0.788819 0.115517 2.341805152028776e-38
1.133400 0.782292 0.115528 2.341805152028776e-38
1.136204 0.774679 0.115378 2.341805152028776e-38
1.138959 0.767059 0.115223 2.341805152028776e-38
1.144983 0.761641 0.115400 2.341805152028776e-38
1.151814 0.756728 0.115657 2.341805152028776e-38
1.157782 0.751231 0.115829 2.341805152028776e-38
1.162004 0.744684 0.115840 2.341805152028776e-38
1.167872 0.739178 0.116015 2.341805152028776e-38
1.173715 0.733631 0.116186 2.341805152028776e-38
1.177837 0.726995 0.116186 2.341805152028776e-38
1.181916 0.720344 0.116185 2.341805152028776e-38
1.188474 0.715286 0.116442 2.341805152028776e-38
1.191586 0.708141 0.116361 2.341805152028776e-38
1.197234 0.702497 0.116528 2.341805152028776e-38
1.200269 0.695313 0.116440 2.341805152028776e-38
1.207584 0.690595 0.116767 2.341805152028776e-38
1.213103 0.684917 0.116937 2.341805152028776e-38
1.216854 0.678230 0.116936 2.341805152028776e-38
1.220569 0.671523 0.116932 2.341805152028776e-38
1.226874 0.666222 0.117175 2.341805152028776e-38
1.233157 0.660874 0.117414 2.341805152028776e-38
1.238494 0.655091 0.117580 2.341805152028776e-38
1.242036 0.648351 0.117577 2.341805152028776e-38
1.248198 0.642962 0.117820 2.341805152028776e-38
1.254339 0.637526 0.118060 2.341805152028776e-38
1.256894 0.630256 0.117962 2.341805152028776e-38
1.262942 0.624820 0.118209 2.341805152028776e-38
1.269858 0.619785 0.118538 2.341805152028776e-38
1.274062 0.613398 0.118613 2.341805152028776e-38
1.280935 0.608267 0.118935 2.341805152028776e-38
1.284180 0.601390 0.118919 2.341805152028776e-38
1.289164 0.595399 0.119080 2.341805152028776e-38
1.290485 0.587740 0.118907 2.341805152028776e-38
1.301760 0.584575 0.119650 2.341805152028776e-38
1.291169 0.571626 0.118384 2.341805152028776e-38
0.910779 1.000403 0.105474 2.341805152028776e-38
0.915008 0.992464 0.105310 2.341805152028776e-38
0.919854 0.985241 0.105220 2.341805152028776e-38
0.927343 0.980935 0.105442 2.341805152028776e-38
0.935477 0.977318 0.105743 2.341805152028776e-38
0.942909 0.972922 0.105962 2.341805152028776e-38
0.948227 0.966337 0.105944 2.341805152028776e-38
0.954202 0.960431 0.106001 2.341805152028776e-38
0.959394 0.953824 0.105980 2.341805152028776e-38
0.965225 0.947916 0.106038 2.341805152028776e-38
0.971736 0.942667 0.106171 2.341805152028776e-38
0.977498 0.936685 0.106222 2.341805152028776e-38
0.984672 0.932038 0.106426 2.341805152028776e-38
0.991789 0.927377 0.106632 2.341805152028776e-38
0.997394 0.921341 0.106682 2.341805152028776e-38
1.002225 0.914600 0.106649 2.341805152028776e-38
1.007751 0.908502 0.106692 2.341805152028776e-38
1.015474 0.904360 0.106967 2.341805152028776e-38
1.020905 0.898219 0.107008 2.341805152028776e-38
1.027022 0.892734 0.107128 2.341805152028776e-38
1.032354 0.886559 0.107166 2.341805152028776e-38
1.036128 0.879062 0.107044 2.341805152028776e-38
1.041377 0.872833 0.107076 2.341805152028776e-38
1.047328 0.867244 0.107187 2.341805152028776e-38
1.055532 0.863546 0.107536 2.341805152028776e-38
1.061404 0.857902 0.107645 2.341805152028776e-38
1.064129 0.849730 0.107437 2.341805152028776e-38
1.069927 0.844027 0.107540 2.341805152028776e-38
1.074094 0.837093 0.107487 2.341805152028776e-38
1.080555 0.832004 0.107671 2.341805152028776e-38
1.085407 0.825662 0.107695 2.341805152028776e-38
1.091815 0.820490 0.107873 2.341805152028776e-38
1.098199 0.815271 0.108048 2.341805152028776e-38
1.106145 0.811217 0.108381 2.341805152028776e-38
1.110011 0.804218 0.108323 2.341805152028776e-38
1.113833 0.797202 0.108262 2.341805152028776e-38
1.121681 0.793047 0.108592 2.341805152028776e-38
1.126248 0.786546 0.108603 2.341805152028776e-38
1.132400 0.781178 0.108772 2.341805152028776e-38
1.136845 0.774693 0.108787 2.341805152028776e-38
1.140426 0.767626 0.108720 2.341805152028776e-38
1.147283 0.762753 0.108965 2.341805152028776e-38
1.150789 0.755637 0.108891 2.341805152028776e-38
1.155908 0.749616 0.108975 2.341805152028776e-38
1.160960 0.743617 0.109064 2.341805152028776e-38
1.166823 0.738118 0.109228 2.341805152028776e-38
1.171816 0.732048 0.109310 2.341805152028776e-38
1.176777 0.725947 0.109389 2.341805152028776e-38
1.180843 0.719315 0.109389 2.341805152028776e-38
1.186542 0.713749 0.109552 2.341805152028776e-38
1.191359 0.707632 0.109633 2.341805152028776e-38
1.195285 0.700981 0.109632 2.341805152028776e-38
1.201762 0.695807 0.109864 2.341805152028776e-38
1.206478 0.689609 0.109938 2.341805152028776e-38
1.211992 0.683938 0.110097 2.341805152028776e-38
1.214867 0.676772 0.110017 2.341805152028776e-38
1.220320 0.671036 0.110170 2.341805152028776e-38
1.227500 0.666213 0.110477 2.341805152028776e-38
1.232900 0.660400 0.110625 2.341805152028776e-38
1.238233 0.654622 0.110782 2.341805152028776e-38
1.243540 0.648807 0.110936 2.341805152028776e-38
1.249707 0.643410 0.111165 2.341805152028776e-38
1.253185 0.636611 0.111154 2.341805152028776e-38
1.258406 0.630692 0.111299 2.341805152028776e-38
1.264452 0.625258 0.111532 2.341805152028776e-38
1.268684 0.618904 0.111606 2.341805152028776e-38
1.274680 0.613388 0.111833 2.341805152028776e-38
1.280654 0.607825 0.112057 2.341805152028776e-38
1.285702 0.601795 0.112199 2.341805152028776e-38
1.289777 0.595395 0.112274 2.341805152028776e-38
1.291097 0.587733 0.112111 2.341805152028776e-38
1.300557 0.583748 0.112653 2.341805152028776e-38
1.288132 0.569998 0.111301 2.341805152028776e-38
0.912092 1.001209 0.099161 2.341805152028776e-38
0.914973 0.991797 0.098861 2.341805152028776e-38
0.920494 0.985304 0.098849 2.341805152028776e-38
0.927977 0.981000 0.099059 2.341805152028776e-38
0.934734 0.975940 0.099194 2.341805152028776e-38
0.941463 0.970833 0.099326 2.341805152028776e-38
0.948165 0.965681 0.099456 2.341805152028776e-38
0.954136 0.959777 0.099509 2.341805152028776e-38
0.959317 0.953178 0.099490 2.341805152028776e-38
0.967279 0.949368 0.099764 2.341805152028776e-38
0.971651 0.942024 0.099668 2.341805152028776e-38
0.976689 0.935353 0.099642 2.341805152028776e-38
0.984580 0.931397 0.099908 2.341805152028776e-38
0.990230 0.925383 0.099954 2.341805152028776e-38
0.996555 0.920034 0.100074 2.341805152028776e-38
1.002115 0.913971 0.100117 2.341805152028776e-38
1.009119 0.909209 0.100304 2.341805152028776e-38
1.014613 0.903071 0.100341 2.341805152028776e-38
1.021527 0.898261 0.100527 2.341805152028776e-38
1.027645 0.892773 0.100640 2.341805152028776e-38
1.032976 0.886594 0.100676 2.341805152028776e-38
1.038271 0.880384 0.100708 2.341805152028776e-38
1.041999 0.872862 0.100590 2.341805152028776e-38
1.048711 0.867914 0.100769 2.341805152028776e-38
1.055378 0.862946 0.100948 2.341805152028776e-38
1.059695 0.856050 0.100903 2.341805152028776e-38
1.063188 0.848511 0.100781 2.341805152028776e-38
1.068195 0.842196 0.100803 2.341805152028776e-38
1.074704 0.837120 0.100976 2.341805152028776e-38
1.081957 0.832637 0.101223 2.341805152028776e-38
1.086812 0.826287 0.101245 2.341805152028776e-38
1.093224 0.821107 0.101412 2.341805152028776e-38
1.100415 0.816475 0.101649 2.341805152028776e-38
1.106753 0.811238 0.101815 2.341805152028776e-38
1.109003 0.803067 0.101613 2.341805152028776e-38
1.113629 0.796637 0.101629 2.341805152028776e-38
1.119846 0.791333 0.101790 2.341805152028776e-38
1.126858 0.786554 0.102022 2.341805152028776e-38
1.131361 0.780062 0.102033 2.341805152028776e-38
1.137448 0.774706 0.102195 2.341805152028776e-38
1.142683 0.768749 0.102280 2.341805152028776e-38
1.147057 0.762207 0.102288 2.341805152028776e-38
1.151393 0.755640 0.102292 2.341805152028776e-38
1.155668 0.749085 0.102298 2.341805152028776e-38
1.160717 0.743087 0.102381 2.341805152028776e-38
1.165735 0.737057 0.102461 2.341805152028776e-38
1.169876 0.730465 0.102463 2.341805152028776e-38
1.176527 0.725421 0.102685 2.341805152028776e-38
1.182286 0.719840 0.102834 2.341805152028776e-38
1.188844 0.714780 0.103061 2.341805152028776e-38
1.191952 0.707633 0.102989 2.341805152028776e-38
1.195878 0.700978 0.102987 2.341805152028776e-38
1.201493 0.695301 0.103131 2.341805152028776e-38
1.206199 0.689118 0.103201 2.341805152028776e-38
1.211711 0.683448 0.103351 2.341805152028776e-38
1.216325 0.677254 0.103423 2.341805152028776e-38
1.220909 0.671030 0.103492 2.341805152028776e-38
1.228966 0.666678 0.103854 2.341805152028776e-38
1.234362 0.660871 0.103995 2.341805152028776e-38
1.239699 0.655086 0.104142 2.341805152028776e-38
1.243240 0.648340 0.104137 2.341805152028776e-38
1.251179 0.643857 0.104500 2.341805152028776e-38
1.255549 0.637501 0.104564 2.341805152028776e-38
1.260768 0.631584 0.104701 2.341805152028776e-38
1.263244 0.624370 0.104624 2.341805152028776e-38
1.270161 0.619334 0.104914 2.341805152028776e-38
1.275262 0.613377 0.105053 2.341805152028776e-38
1.279435 0.606956 0.105115 2.341805152028776e-38
1.284473 0.600946 0.105250 2.341805152028776e-38
1.290353 0.595390 0.105469 2.341805152028776e-38
1.293488 0.588551 0.105463 2.341805152028776e-38
1.303865 0.584961 0.106046 2.341805152028776e-38
1.299648 0.574825 0.105441 2.341805152028776e-38
0.911350 0.999798 0.092633 2.341805152028776e-38
0.916249 0.992591 0.092557 2.341805152028776e-38
0.922457 0.986819 0.092614 2.341805152028776e-38
0.929258 0.981786 0.092742 2.341805152028776e-38
0.933949 0.974558 0.092663 2.341805152028776e-38
0.940670 0.969457 0.092786 2.341805152028776e-38
0.948063 0.965022 0.092976 2.341805152028776e-38
0.955437 0.960534 0.093162 2.341805152028776e-38
0.960615 0.953935 0.093145 2.341805152028776e-38
0.967159 0.948720 0.093264 2.341805152028776e-38
0.971526 0.941378 0.093174 2.341805152028776e-38
0.978722 0.936777 0.093356 2.341805152028776e-38
0.983724 0.930068 0.093329 2.341805152028776e-38
0.989359 0.924067 0.093373 2.341805152028776e-38
0.997142 0.920077 0.093622 2.341805152028776e-38
1.001965 0.913339 0.093593 2.341805152028776e-38
1.008225 0.907911 0.093699 2.341805152028776e-38
1.014456 0.902442 0.093802 2.341805152028776e-38
1.021361 0.897641 0.093977 2.341805152028776e-38
1.028228 0.892809 0.094151 2.341805152028776e-38
1.032046 0.885328 0.094046 2.341805152028776e-38
1.036572 0.878479 0.094007 2.341805152028776e-38
1.040288 0.870967 0.093896 2.341805152028776e-38
1.049289 0.867946 0.094271 2.341805152028776e-38
1.055184 0.862344 0.094370 2.341805152028776e-38
1.058721 0.854823 0.094258 2.341805152028776e-38
1.062206 0.847290 0.094143 2.341805152028776e-38
1.069556 0.842834 0.094371 2.341805152028776e-38
1.077638 0.838984 0.094671 2.341805152028776e-38
1.083321 0.833268 0.094764 2.341805152028776e-38
1.087385 0.826307 0.094715 2.341805152028776e-38
1.093001 0.820525 0.094802 2.341805152028776e-38
1.097785 0.814112 0.094816 2.341805152028776e-38
1.104909 0.809489 0.095041 2.341805152028776e-38
1.109572 0.803084 0.095059 2.341805152028776e-38
1.115009 0.797232 0.095143 2.341805152028776e-38
1.119601 0.790768 0.095155 2.341805152028776e-38
1.125792 0.785420 0.095302 2.341805152028776e-38
1.131925 0.780076 0.095452 2.341805152028776e-38
1.137188 0.774156 0.095534 2.341805152028776e-38
1.141593 0.767645 0.095544 2.341805152028776e-38
1.146791 0.761661 0.095620 2.341805152028776e-38
1.152792 0.756190 0.095762 2.341805152028776e-38
1.157901 0.750180 0.095838 2.341805152028776e-38
1.160436 0.742556 0.095707 2.341805152028776e-38
1.164608 0.735995 0.095712 2.341805152028776e-38
1.170436 0.730466 0.095853 2.341805152028776e-38
1.177088 0.725419 0.096060 2.341805152028776e-38
1.182840 0.719846 0.096201 2.341805152028776e-38
1.186834 0.713241 0.096205 2.341805152028776e-38
1.189934 0.706105 0.096136 2.341805152028776e-38
1.195572 0.700471 0.096273 2.341805152028776e-38
1.200322 0.694296 0.096338 2.341805152028776e-38
1.206748 0.689120 0.096543 2.341805152028776e-38
1.210523 0.682468 0.096544 2.341805152028776e-38
1.217748 0.677735 0.096819 2.341805152028776e-38
1.224083 0.672464 0.097022 2.341805152028776e-38
1.230397 0.667144 0.097222 2.341805152028776e-38
1.234909 0.660871 0.097286 2.341805152028776e-38
1.239364 0.654617 0.097353 2.341805152028776e-38
1.244673 0.648795 0.097487 2.341805152028776e-38
1.249954 0.642935 0.097618 2.341805152028776e-38
1.254319 0.636586 0.097677 2.341805152028776e-38
1.258635 0.630242 0.097738 2.341805152028776e-38
1.262893 0.623924 0.097804 2.341805152028776e-38
1.269809 0.618889 0.098075 2.341805152028776e-38
1.274009 0.612502 0.098136 2.341805152028776e-38
1.279981 0.606943 0.098332 2.341805152028776e-38
1.283205 0.600098 0.098321 2.341805152028776e-38
1.288176 0.594132 0.098456 2.341805152028776e-38
1.291304 0.587304 0.098450 2.341805152028776e-38
1.300767 0.583318 0.098925 2.341805152028776e-38
1.294713 0.572391 0.098221 2.341805152028776e-38
0.909629 1.010012 0.086572 2.341805152028776e-38
0.913256 1.001333 0.086377 2.341805152028776e-38
0.918841 0.994847 0.086369 2.341805152028776e-38
0.925063 0.989060 0.086423 2.341805152028776e-38
0.929813 0.981843 0.086351 2.341805152028776e-38
0.933122 0.973171 0.086150 2.341805152028776e-38
0.941921 0.970225 0.086456 2.341805152028776e-38
0.948620 0.965071 0.086568 2.341805152028776e-38
0.954587 0.959165 0.086614 2.341805152028776e-38
0.959750 0.952578 0.086598 2.341805152028776e-38
0.968424 0.949465 0.086900 2.341805152028776e-38
0.973511 0.942810 0.086880 2.341805152028776e-38
0.979275 0.936819 0.086921 2.341805152028776e-38
0.984276 0.930107 0.086896 2.341805152028776e-38
0.992823 0.926834 0.087193 2.341805152028776e-38
0.994756 0.917411 0.086913 2.341805152028776e-38
1.002513 0.913376 0.087142 2.341805152028776e-38
1.006548 0.905943 0.087048 2.341805152028776e-38
1.014260 0.901810 0.087272 2.341805152028776e-38
1.019655 0.895701 0.087307 2.341805152028776e-38
1.025005 0.889571 0.087340 2.341805152028776e-38
1.030317 0.883410 0.087370 2.341805152028776e-38
1.037877 0.879152 0.087591 2.341805152028776e-38
1.043127 0.872913 0.087616 2.341805152028776e-38
1.050597 0.868612 0.087837 2.341805152028776e-38
1.053405 0.860477 0.087671 2.341805152028776e-38
1.058483 0.854220 0.087696 2.341805152028776e-38
1.064304 0.848555 0.087782 2.341805152028776e-38
1.071664 0.844087 0.087994 2.341805152028776e-38
1.076598 0.837782 0.088016 2.341805152028776e-38
1.083065 0.832681 0.088166 2.341805152028776e-38
1.086331 0.825118 0.088056 2.341805152028776e-38
1.092739 0.819941 0.088201 2.341805152028776e-38
1.098321 0.814124 0.088279 2.341805152028776e-38
1.105439 0.809508 0.088489 2.341805152028776e-38
1.109294 0.802514 0.088440 2.341805152028776e-38
1.115541 0.797244 0.088583 2.341805152028776e-38
1.119317 0.790203 0.088529 2.341805152028776e-38
1.126324 0.785427 0.088730 2.341805152028776e-38
1.129986 0.778391 0.088677 2.341805152028776e-38
1.136890 0.773605 0.088882 2.341805152028776e-38
1.141292 0.767096 0.088891 2.341805152028776e-38
1.148981 0.762769 0.089155 2.341805152028776e-38
1.153321 0.756192 0.089158 2.341805152028776e-38
1.157586 0.749646 0.089165 2.341805152028776e-38
1.159276 0.741487 0.088978 2.341805152028776e-38
1.166817 0.737064 0.089241 2.341805152028776e-38
1.170958 0.730467 0.089243 2.341805152028776e-38
1.177611 0.725417 0.089435 2.341805152028776e-38
1.182506 0.719332 0.089502 2.341805152028776e-38
1.187352 0.713243 0.089570 2.341805152028776e-38
1.191309 0.706614 0.089571 2.341805152028776e-38
1.196091 0.700467 0.089633 2.341805152028776e-38
1.200840 0.694289 0.089693 2.341805152028776e-38
1.207261 0.689122 0.089886 2.341805152028776e-38
1.211905 0.682957 0.089950 2.341805152028776e-38
1.220879 0.679187 0.090335 2.341805152028776e-38
1.225473 0.672938 0.090395 2.341805152028776e-38
1.230036 0.666659 0.090451 2.341805152028776e-38
1.232780 0.659459 0.090383 2.341805152028776e-38
1.238993 0.654148 0.090574 2.341805152028776e-38
1.243414 0.647867 0.090634 2.341805152028776e-38
1.248692 0.642014 0.090756 2.341805152028776e-38
1.251272 0.634768 0.090681 2.341805152028776e-38
1.258249 0.629794 0.090933 2.341805152028776e-38
1.263399 0.623919 0.091058 2.341805152028776e-38
1.269419 0.618445 0.091246 2.341805152028776e-38
1.272719 0.611627 0.091237 2.341805152028776e-38
1.279589 0.606502 0.091484 2.341805152028776e-38
1.280995 0.598828 0.091347 2.341805152028776e-38
1.287773 0.593709 0.091601 2.341805152028776e-38
1.289990 0.586470 0.091530 2.341805152028776e-38
1.301273 0.583307 0.092101 2.341805152028776e-38
1.291564 0.570764 0.091187 2.341805152028776e-38
0.920506 1.008762 0.080572 2.341805152028776e-38
0.920040 0.995633 0.080035 2.341805152028776e-38
0.924903 0.988381 0.079966 2.341805152028776e-38
0.928956 0.980447 0.079841 2.341805152028776e-38
0.932946 0.972501 0.079713 2.341805152028776e-38
0.940350 0.968124 0.079878 2.341805152028776e-38
0.947037 0.962981 0.079982 2.341805152028776e-38
0.955104 0.959208 0.080201 2.341805152028776e-38
0.960261 0.952624 0.080187 2.341805152028776e-38
0.967511 0.948111 0.080348 2.341805152028776e-38
0.973307 0.942157 0.080389 2.341805152028776e-38
0.981231 0.938237 0.080605 2.341805152028776e-38
0.986241 0.931513 0.080581 2.341805152028776e-38
0.991143 0.924830 0.080560 2.341805152028776e-38
0.995263 0.917448 0.080478 2.341805152028776e-38
1.000807 0.911394 0.080512 2.341805152028776e-38
1.005572 0.904639 0.080484 2.341805152028776e-38
1.011784 0.899186 0.080572 2.341805152028776e-38
1.016409 0.892441 0.080545 2.341805152028776e-38
1.025509 0.889602 0.080873 2.341805152028776e-38
1.031579 0.884087 0.080960 2.341805152028776e-38
1.037621 0.878532 0.081045 2.341805152028776e-38
1.042867 0.872296 0.081068 2.341805152028776e-38
1.048790 0.866731 0.081155 2.341805152028776e-38
1.053905 0.860502 0.081179 2.341805152028776e-38
1.060537 0.855495 0.081321 2.341805152028776e-38
1.064805 0.848575 0.081281 2.341805152028776e-38
1.071381 0.843486 0.081418 2.341805152028776e-38
1.077094 0.837804 0.081498 2.341805152028776e-38
1.081979 0.831483 0.081518 2.341805152028776e-38
1.088418 0.826342 0.081654 2.341805152028776e-38
1.094833 0.821153 0.081788 2.341805152028776e-38
1.100423 0.815324 0.081860 2.341805152028776e-38
1.105127 0.808935 0.081876 2.341805152028776e-38
1.109787 0.802528 0.081891 2.341805152028776e-38
1.116846 0.797836 0.082082 2.341805152028776e-38
1.119810 0.790211 0.081972 2.341805152028776e-38
1.126819 0.785434 0.082158 2.341805152028776e-38
1.129652 0.777837 0.082050 2.341805152028776e-38
1.136554 0.773053 0.082240 2.341805152028776e-38
1.141781 0.767103 0.082307 2.341805152028776e-38
1.146145 0.760566 0.082312 2.341805152028776e-38
1.149637 0.753457 0.082255 2.341805152028776e-38
1.154718 0.747484 0.082322 2.341805152028776e-38
1.160601 0.742030 0.082448 2.341805152028776e-38
1.166458 0.736534 0.082571 2.341805152028776e-38
1.170596 0.729938 0.082572 2.341805152028776e-38
1.176397 0.724367 0.082690 2.341805152028776e-38
1.181280 0.718299 0.082753 2.341805152028776e-38
1.188689 0.713759 0.082995 2.341805152028776e-38
1.193507 0.707631 0.083055 2.341805152028776e-38
1.198295 0.701472 0.083113 2.341805152028776e-38
1.203915 0.695782 0.083227 2.341805152028776e-38
1.209472 0.690113 0.083347 2.341805152028776e-38
1.214991 0.684425 0.083467 2.341805152028776e-38
1.219613 0.678213 0.083524 2.341805152028776e-38
1.222452 0.671010 0.083459 2.341805152028776e-38
1.228760 0.665699 0.083631 2.341805152028776e-38
1.232373 0.658987 0.083628 2.341805152028776e-38
1.239467 0.654145 0.083865 2.341805152028776e-38
1.243003 0.647400 0.083860 2.341805152028776e-38
1.250054 0.642461 0.084092 2.341805152028776e-38
1.253527 0.635660 0.084082 2.341805152028776e-38
1.259612 0.630238 0.084256 2.341805152028776e-38
1.261184 0.622589 0.084134 2.341805152028776e-38
1.268096 0.617563 0.084367 2.341805152028776e-38
1.273190 0.611617 0.084478 2.341805152028776e-38
1.277355 0.605207 0.084526 2.341805152028776e-38
1.281461 0.598826 0.084580 2.341805152028776e-38
1.287334 0.593286 0.084755 2.341805152028776e-38
1.291366 0.586876 0.084809 2.341805152028776e-38
1.298099 0.581664 0.085039 2.341805152028776e-38
1.299334 0.573978 0.084908 2.341805152028776e-38
