VERSION .7
FIELDS x y z rgb
SIZE 4 4 4 4
TYPE F F F F
COUNT 1 1 1 1
WIDTH 961
HEIGHT 1
VIEWPOINT 0 0 0 1 0 0 0
POINTS 961
DATA ascii
1.379951 -0.202789 0.354022 2.341805152028776e-38
1.380863 -0.209917 0.354450 2.341805152028776e-38
1.377897 -0.216476 0.353921 2.341805152028776e-38
1.380636 -0.223952 0.354878 2.341805152028776e-38
1.379511 -0.230824 0.354848 2.341805152028776e-38
1.382174 -0.238351 0.355800 2.341805152028776e-38
1.381932 -0.245405 0.356010 2.341805152028776e-38
1.384516 -0.252988 0.356956 2.341805152028776e-38
1.382295 -0.259710 0.356669 2.341805152028776e-38
1.382897 -0.266971 0.357117 2.341805152028776e-38
1.382510 -0.274057 0.357315 2.341805152028776e-38
1.383021 -0.281373 0.357796 2.341805152028776e-38
1.380643 -0.288117 0.357543 2.341805152028776e-38
1.381077 -0.295457 0.358024 2.341805152028776e-38
1.379578 -0.302397 0.358010 2.341805152028776e-38
1.381827 -0.310182 0.358975 2.341805152028776e-38
1.383088 -0.317785 0.359690 2.341805152028776e-38
1.383364 -0.325189 0.360156 2.341805152028776e-38
1.379828 -0.331707 0.359640 2.341805152028776e-38
1.380006 -0.339166 0.360146 2.341805152028776e-38
1.382964 -0.347350 0.361384 2.341805152028776e-38
1.383058 -0.354854 0.361881 2.341805152028776e-38
1.383111 -0.362373 0.362373 2.341805152028776e-38
1.384060 -0.370157 0.363106 2.341805152028776e-38
1.382160 -0.377199 0.363098 2.341805152028776e-38
1.380224 -0.384235 0.363085 2.341805152028776e-38
1.378225 -0.391316 0.363113 2.341805152028776e-38
1.386432 -0.401359 0.365840 2.341805152028776e-38
1.395501 -0.411775 0.368808 2.341805152028776e-38
1.397073 -0.420068 0.369804 2.341805152028776e-38
1.341132 -0.410792 0.355560 2.341805152028776e-38
1.377219 0.098812 0.344139 2.341805152028776e-38
1.358318 0.090715 0.339340 2.341805152028776e-38
1.350994 0.083525 0.337439 2.341805152028776e-38
1.349444 0.076740 0.336987 2.341805152028776e-38
1.350769 0.070123 0.337258 2.341805152028776e-38
1.352061 0.063495 0.337527 2.341805152028776e-38
1.353322 0.056856 0.337792 2.341805152028776e-38
1.355520 0.050242 0.338298 2.341805152028776e-38
1.353807 0.043483 0.337832 2.341805152028776e-38
1.354002 0.036795 0.337848 2.341805152028776e-38
1.356104 0.030150 0.338345 2.341805152028776e-38
1.358174 0.023484 0.338840 2.341805152028776e-38
1.355361 0.016739 0.338122 2.341805152028776e-38
1.350574 0.010007 0.336917 2.341805152028776e-38
1.350607 0.003336 0.336920 2.341805152028776e-38
1.360309 -0.003360 0.339340 2.341805152028776e-38
1.363187 -0.010101 0.340063 2.341805152028776e-38
1.364092 -0.016847 0.340300 2.341805152028776e-38
1.365935 -0.023618 0.340776 2.341805152028776e-38
1.368714 -0.030430 0.341492 2.341805152028776e-38
1.367581 -0.037164 0.341236 2.341805152028776e-38
1.367384 -0.043919 0.341220 2.341805152028776e-38
1.370064 -0.050781 0.341927 2.341805152028776e-38
1.370771 -0.057589 0.342148 2.341805152028776e-38
1.370476 -0.064360 0.342124 2.341805152028776e-38
1.369179 -0.071079 0.341855 2.341805152028776e-38
1.368819 -0.077841 0.341825 2.341805152028776e-38
1.373268 -0.084902 0.343003 2.341805152028776e-38
1.371872 -0.091620 0.342726 2.341805152028776e-38
1.371412 -0.098396 0.342688 2.341805152028776e-38
1.370920 -0.105169 0.342648 2.341805152028776e-38
1.374263 -0.112256 0.343572 2.341805152028776e-38
1.374670 -0.119128 0.343768 2.341805152028776e-38
1.374076 -0.125917 0.343719 2.341805152028776e-38
1.374416 -0.132797 0.343910 2.341805152028776e-38
1.376653 -0.139879 0.344581 2.341805152028776e-38
1.375960 -0.146679 0.344524 2.341805152028776e-38
1.378122 -0.153803 0.345202 2.341805152028776e-38
1.377356 -0.160618 0.345157 2.341805152028776e-38
1.379446 -0.167781 0.345835 2.341805152028776e-38
1.378611 -0.174605 0.345786 2.341805152028776e-38
1.378706 -0.181552 0.345976 2.341805152028776e-38
1.377804 -0.188373 0.345922 2.341805152028776e-38
1.381673 -0.195872 0.347072 2.341805152028776e-38
1.379741 -0.202569 0.346771 2.341805152028776e-38
1.380655 -0.209690 0.347191 2.341805152028776e-38
1.380575 -0.216675 0.347368 2.341805152028776e-38
1.381416 -0.223824 0.347787 2.341805152028776e-38
1.382207 -0.231013 0.348243 2.341805152028776e-38
1.382960 -0.238219 0.348697 2.341805152028776e-38
1.383676 -0.245440 0.349147 2.341805152028776e-38
1.385309 -0.252852 0.349836 2.341805152028776e-38
1.384042 -0.259751 0.349798 2.341805152028776e-38
1.381787 -0.266463 0.349517 2.341805152028776e-38
1.382356 -0.273727 0.349955 2.341805152028776e-38
1.382888 -0.281006 0.350390 2.341805152028776e-38
1.382419 -0.288124 0.350608 2.341805152028776e-38
1.381906 -0.295264 0.350843 2.341805152028776e-38
1.384200 -0.303033 0.351797 2.341805152028776e-38
1.385504 -0.310624 0.352506 2.341805152028776e-38
1.386766 -0.318240 0.353212 2.341805152028776e-38
1.383263 -0.324771 0.352708 2.341805152028776e-38
1.381617 -0.331732 0.352683 2.341805152028776e-38
1.384648 -0.339846 0.353860 2.341805152028776e-38
1.383843 -0.347103 0.354116 2.341805152028776e-38
1.382060 -0.354126 0.354126 2.341805152028776e-38
1.384936 -0.362372 0.355336 2.341805152028776e-38
1.386826 -0.370411 0.356300 2.341805152028776e-38
1.383052 -0.376952 0.355815 2.341805152028776e-38
1.382052 -0.384249 0.356047 2.341805152028776e-38
1.382880 -0.392081 0.356758 2.341805152028776e-38
1.387367 -0.401065 0.358474 2.341805152028776e-38
1.389936 -0.409562 0.359702 2.341805152028776e-38
1.394313 -0.418660 0.361407 2.341805152028776e-38
1.352228 -0.413624 0.351059 2.341805152028776e-38
1.396311 0.100101 0.341726 2.341805152028776e-38
1.356068 0.090491 0.331802 2.341805152028776e-38
1.352611 0.083557 0.330887 2.341805152028776e-38
1.351060 0.076770 0.330444 2.341805152028776e-38
1.351415 0.070100 0.330472 2.341805152028776e-38
1.354650 0.063566 0.331210 2.341805152028776e-38
1.355912 0.056919 0.331471 2.341805152028776e-38
1.354229 0.050154 0.331017 2.341805152028776e-38
1.353485 0.043438 0.330798 2.341805152028776e-38
1.354650 0.036783 0.331051 2.341805152028776e-38
1.355783 0.030118 0.331301 2.341805152028776e-38
1.357856 0.023460 0.331786 2.341805152028776e-38
1.348239 0.016637 0.329420 2.341805152028776e-38
1.346361 0.009968 0.328951 2.341805152028776e-38
1.352222 0.003337 0.330377 2.341805152028776e-38
1.362907 -0.003364 0.332988 2.341805152028776e-38
1.364818 -0.010105 0.333460 2.341805152028776e-38
1.368638 -0.016889 0.334404 2.341805152028776e-38
1.367568 -0.023627 0.334159 2.341805152028776e-38
1.369380 -0.030420 0.334623 2.341805152028776e-38
1.368245 -0.037153 0.334373 2.341805152028776e-38
1.369020 -0.043937 0.334594 2.341805152028776e-38
1.368791 -0.050693 0.334576 2.341805152028776e-38
1.368529 -0.057449 0.334555 2.341805152028776e-38
1.369205 -0.064249 0.334769 2.341805152028776e-38
1.366938 -0.070905 0.334268 2.341805152028776e-38
1.368518 -0.077762 0.334714 2.341805152028776e-38
1.372003 -0.084755 0.335631 2.341805152028776e-38
1.370607 -0.091462 0.335359 2.341805152028776e-38
1.371117 -0.098295 0.335560 2.341805152028776e-38
1.371594 -0.105136 0.335757 2.341805152028776e-38
1.374941 -0.112221 0.336664 2.341805152028776e-38
1.372446 -0.118839 0.336145 2.341805152028776e-38
1.371854 -0.125612 0.336097 2.341805152028776e-38
1.374131 -0.132662 0.336758 2.341805152028776e-38
1.377339 -0.139836 0.337653 2.341805152028776e-38
1.377611 -0.146736 0.337834 2.341805152028776e-38
1.378816 -0.153750 0.338250 2.341805152028776e-38
1.377090 -0.160442 0.337952 2.341805152028776e-38
1.381116 -0.167828 0.339082 2.341805152028776e-38
1.379317 -0.174532 0.338798 2.341805152028776e-38
1.380376 -0.181604 0.339222 2.341805152028776e-38
1.379474 -0.188428 0.339170 2.341805152028776e-38
1.381424 -0.195657 0.339825 2.341805152028776e-38
1.382376 -0.202770 0.340241 2.341805152028776e-38
1.382332 -0.209752 0.340418 2.341805152028776e-38
1.382252 -0.216740 0.340592 2.341805152028776e-38
1.385015 -0.224199 0.341472 2.341805152028776e-38
1.383906 -0.231051 0.341404 2.341805152028776e-38
1.384668 -0.238247 0.341833 2.341805152028776e-38
1.386343 -0.245641 0.342514 2.341805152028776e-38
1.387022 -0.252886 0.342955 2.341805152028776e-38
1.383845 -0.259431 0.342448 2.341805152028776e-38
1.382545 -0.266320 0.342411 2.341805152028776e-38
1.380257 -0.273017 0.342135 2.341805152028776e-38
1.380794 -0.280280 0.342564 2.341805152028776e-38
1.382245 -0.287755 0.343226 2.341805152028776e-38
1.382698 -0.295067 0.343667 2.341805152028776e-38
1.384048 -0.302628 0.344369 2.341805152028776e-38
1.386306 -0.310425 0.345305 2.341805152028776e-38
1.386626 -0.317823 0.345764 2.341805152028776e-38
1.384068 -0.324570 0.345510 2.341805152028776e-38
1.382423 -0.331530 0.345489 2.341805152028776e-38
1.383574 -0.339179 0.346173 2.341805152028776e-38
1.380913 -0.345908 0.345908 2.341805152028776e-38
1.385726 -0.354597 0.347576 2.341805152028776e-38
1.384845 -0.361875 0.347822 2.341805152028776e-38
1.384864 -0.369409 0.348300 2.341805152028776e-38
1.383906 -0.376701 0.348536 2.341805152028776e-38
1.384781 -0.384517 0.349241 2.341805152028776e-38
1.383743 -0.391827 0.349468 2.341805152028776e-38
1.388263 -0.400766 0.351114 2.341805152028776e-38
1.386179 -0.407893 0.351142 2.341805152028776e-38
1.384058 -0.415014 0.351165 2.341805152028776e-38
1.362384 -0.416167 0.346223 2.341805152028776e-38
1.406680 0.100765 0.337043 2.341805152028776e-38
1.355717 0.090397 0.324759 2.341805152028776e-38
1.353226 0.083530 0.324095 2.341805152028776e-38
1.351673 0.076744 0.323660 2.341805152028776e-38
1.352999 0.070127 0.323920 2.341805152028776e-38
1.354294 0.063499 0.324178 2.341805152028776e-38
1.354585 0.056819 0.324201 2.341805152028776e-38
1.354844 0.050137 0.324222 2.341805152028776e-38
1.354099 0.043424 0.324007 2.341805152028776e-38
1.355265 0.036771 0.324255 2.341805152028776e-38
1.354454 0.030065 0.324035 2.341805152028776e-38
1.355556 0.023401 0.324278 2.341805152028776e-38
1.348846 0.016632 0.322657 2.341805152028776e-38
1.351828 0.010001 0.323360 2.341805152028776e-38
1.357695 0.003348 0.324758 2.341805152028776e-38
1.364503 -0.003365 0.326387 2.341805152028776e-38
1.365443 -0.010102 0.326617 2.341805152028776e-38
1.367323 -0.016860 0.327077 2.341805152028776e-38
1.367225 -0.023603 0.327069 2.341805152028776e-38
1.368067 -0.030367 0.327291 2.341805152028776e-38
1.367904 -0.037114 0.327279 2.341805152028776e-38
1.369652 -0.043922 0.327728 2.341805152028776e-38
1.369423 -0.050677 0.327710 2.341805152028776e-38
1.370133 -0.057471 0.327922 2.341805152028776e-38
1.366924 -0.064091 0.327202 2.341805152028776e-38
1.366597 -0.070832 0.327176 2.341805152028776e-38
1.366238 -0.077571 0.327148 2.341805152028776e-38
1.364875 -0.084249 0.326884 2.341805152028776e-38
1.362510 -0.090850 0.326386 2.341805152028776e-38
1.366905 -0.097916 0.327513 2.341805152028776e-38
1.371263 -0.105028 0.328636 2.341805152028776e-38
1.373647 -0.112027 0.329292 2.341805152028776e-38
1.373088 -0.118801 0.329248 2.341805152028776e-38
1.373465 -0.125660 0.329434 2.341805152028776e-38
1.374777 -0.132620 0.329849 2.341805152028776e-38
1.376054 -0.139595 0.330262 2.341805152028776e-38
1.377296 -0.146587 0.330672 2.341805152028776e-38
1.376570 -0.153378 0.330615 2.341805152028776e-38
1.377743 -0.160391 0.331020 2.341805152028776e-38
1.379847 -0.167536 0.331654 2.341805152028776e-38
1.379985 -0.174462 0.331821 2.341805152028776e-38
1.381049 -0.181527 0.332228 2.341805152028776e-38
1.380147 -0.188348 0.332178 2.341805152028776e-38
1.380175 -0.195303 0.332357 2.341805152028776e-38
1.380169 -0.202263 0.332534 2.341805152028776e-38
1.383013 -0.209667 0.333404 2.341805152028776e-38
1.382935 -0.216652 0.333576 2.341805152028776e-38
1.384743 -0.223954 0.334208 2.341805152028776e-38
1.383634 -0.230799 0.334142 2.341805152028776e-38
1.383451 -0.237805 0.334306 2.341805152028776e-38
1.385146 -0.245161 0.334938 2.341805152028776e-38
1.384873 -0.252220 0.335142 2.341805152028776e-38
1.383609 -0.259106 0.335111 2.341805152028776e-38
1.380400 -0.265621 0.334614 2.341805152028776e-38
1.381932 -0.273057 0.335272 2.341805152028776e-38
1.383425 -0.280516 0.335927 2.341805152028776e-38
1.382021 -0.287406 0.335884 2.341805152028776e-38
1.382485 -0.294696 0.336300 2.341805152028776e-38
1.383857 -0.302218 0.336956 2.341805152028776e-38
1.384223 -0.309585 0.337413 2.341805152028776e-38
1.382653 -0.316534 0.337404 2.341805152028776e-38
1.380101 -0.323256 0.337160 2.341805152028776e-38
1.380354 -0.330645 0.337606 2.341805152028776e-38
1.385293 -0.339204 0.339204 2.341805152028776e-38
1.386406 -0.346881 0.339874 2.341805152028776e-38
1.385590 -0.354101 0.340077 2.341805152028776e-38
1.387537 -0.362111 0.341017 2.341805152028776e-38
1.387558 -0.369654 0.341490 2.341805152028776e-38
1.385660 -0.376700 0.341495 2.341805152028776e-38
1.386539 -0.384522 0.342189 2.341805152028776e-38
1.387374 -0.392366 0.342879 2.341805152028776e-38
1.385361 -0.399425 0.342869 2.341805152028776e-38
1.385170 -0.407042 0.343331 2.341805152028776e-38
1.383986 -0.414433 0.343590 2.341805152028776e-38
1.366942 -0.417002 0.339909 2.341805152028776e-38
1.396640 0.099969 0.327485 2.341805152028776e-38
1.355330 0.090301 0.317727 2.341805152028776e-38
1.352836 0.083441 0.317076 2.341805152028776e-38
1.352251 0.076718 0.316878 2.341805152028776e-38
1.352607 0.070053 0.316905 2.341805152028776e-38
1.354875 0.063477 0.317386 2.341805152028776e-38
1.355166 0.056799 0.317408 2.341805152028776e-38
1.354452 0.050084 0.317200 2.341805152028776e-38
1.354678 0.043409 0.317218 2.341805152028776e-38
1.353899 0.036706 0.317005 2.341805152028776e-38
1.356007 0.030076 0.317473 2.341805152028776e-38
1.358084 0.023427 0.317939 2.341805152028776e-38
1.355260 0.016698 0.317263 2.341805152028776e-38
1.360193 0.010055 0.318407 2.341805152028776e-38
1.363146 0.003359 0.319093 2.341805152028776e-38
1.367041 -0.003368 0.320005 2.341805152028776e-38
1.368956 -0.010120 0.320458 2.341805152028776e-38
1.366943 -0.016842 0.319998 2.341805152028776e-38
1.366845 -0.023578 0.319990 2.341805152028776e-38
1.368662 -0.030357 0.320436 2.341805152028776e-38
1.369472 -0.037128 0.320651 2.341805152028776e-38
1.369276 -0.043877 0.320636 2.341805152028776e-38
1.370020 -0.050660 0.320846 2.341805152028776e-38
1.369758 -0.057411 0.320826 2.341805152028776e-38
1.368492 -0.064115 0.320576 2.341805152028776e-38
1.371082 -0.071010 0.321234 2.341805152028776e-38
1.373639 -0.077931 0.321890 2.341805152028776e-38
1.378104 -0.085000 0.322998 2.341805152028776e-38
1.372818 -0.091467 0.321827 2.341805152028776e-38
1.371388 -0.098162 0.321564 2.341805152028776e-38
1.374780 -0.105216 0.322437 2.341805152028776e-38
1.375225 -0.112069 0.322624 2.341805152028776e-38
1.374666 -0.118846 0.322581 2.341805152028776e-38
1.371165 -0.125353 0.321853 2.341805152028776e-38
1.374419 -0.132483 0.322715 2.341805152028776e-38
1.376668 -0.139550 0.323347 2.341805152028776e-38
1.376944 -0.146436 0.323521 2.341805152028776e-38
1.377186 -0.153328 0.323693 2.341805152028776e-38
1.377395 -0.160226 0.323862 2.341805152028776e-38
1.379503 -0.167365 0.324483 2.341805152028776e-38
1.380609 -0.174406 0.324874 2.341805152028776e-38
1.380713 -0.181335 0.325035 2.341805152028776e-38
1.378854 -0.188007 0.324739 2.341805152028776e-38
1.378887 -0.194947 0.324911 2.341805152028776e-38
1.377920 -0.201754 0.324858 2.341805152028776e-38
1.380771 -0.209141 0.325711 2.341805152028776e-38
1.383583 -0.216562 0.326562 2.341805152028776e-38
1.383472 -0.223551 0.326728 2.341805152028776e-38
1.384287 -0.230705 0.327119 2.341805152028776e-38
1.384105 -0.237709 0.327280 2.341805152028776e-38
1.383888 -0.244717 0.327439 2.341805152028776e-38
1.384595 -0.251905 0.327821 2.341805152028776e-38
1.381420 -0.258421 0.327333 2.341805152028776e-38
1.382994 -0.265839 0.327983 2.341805152028776e-38
1.384529 -0.273282 0.328630 2.341805152028776e-38
1.383160 -0.280169 0.328593 2.341805152028776e-38
1.381758 -0.287052 0.328554 2.341805152028776e-38
1.382226 -0.294337 0.328964 2.341805152028776e-38
1.383608 -0.301843 0.329598 2.341805152028776e-38
1.383997 -0.309166 0.330008 2.341805152028776e-38
1.381479 -0.315891 0.329777 2.341805152028776e-38
1.383671 -0.323713 0.330674 2.341805152028776e-38
1.383924 -0.331115 0.331115 2.341805152028776e-38
1.385085 -0.338763 0.331778 2.341805152028776e-38
1.385258 -0.346198 0.332210 2.341805152028776e-38
1.387279 -0.354129 0.333091 2.341805152028776e-38
1.385483 -0.361114 0.333066 2.341805152028776e-38
1.384570 -0.368392 0.333307 2.341805152028776e-38
1.389259 -0.377206 0.334903 2.341805152028776e-38
1.388261 -0.384522 0.335134 2.341805152028776e-38
1.386288 -0.391577 0.335133 2.341805152028776e-38
1.388023 -0.399704 0.336034 2.341805152028776e-38
1.385972 -0.406766 0.336024 2.341805152028776e-38
1.383872 -0.413848 0.336030 2.341805152028776e-38
1.367745 -0.416698 0.332658 2.341805152028776e-38
1.419600 0.101536 0.325615 2.341805152028776e-38
1.359770 0.090529 0.311822 2.341805152028776e-38
1.353382 0.083412 0.310292 2.341805152028776e-38
1.351823 0.076636 0.309875 2.341805152028776e-38
1.354125 0.070079 0.310348 2.341805152028776e-38
1.354448 0.063409 0.310372 2.341805152028776e-38
1.354739 0.056739 0.310394 2.341805152028776e-38
1.355971 0.050103 0.310637 2.341805152028776e-38
1.355224 0.043394 0.310431 2.341805152028776e-38
1.357366 0.036772 0.310892 2.341805152028776e-38
1.359477 0.030131 0.311350 2.341805152028776e-38
1.359607 0.023436 0.311360 2.341805152028776e-38
1.359704 0.016740 0.311367 2.341805152028776e-38
1.361718 0.010059 0.311819 2.341805152028776e-38
1.360776 0.003351 0.311598 2.341805152028776e-38
1.367599 -0.003367 0.313160 2.341805152028776e-38
1.366592 -0.010095 0.312935 2.341805152028776e-38
1.366527 -0.016824 0.312930 2.341805152028776e-38
1.367404 -0.023570 0.313146 2.341805152028776e-38
1.368248 -0.030325 0.313359 2.341805152028776e-38
1.369059 -0.037089 0.313570 2.341805152028776e-38
1.370812 -0.043893 0.314002 2.341805152028776e-38
1.368635 -0.050571 0.313538 2.341805152028776e-38
1.367400 -0.057269 0.313295 2.341805152028776e-38
1.366133 -0.063956 0.313050 2.341805152028776e-38
1.374568 -0.071137 0.315033 2.341805152028776e-38
1.385886 -0.078567 0.317683 2.341805152028776e-38
1.383543 -0.085271 0.317207 2.341805152028776e-38
1.378251 -0.091759 0.316060 2.341805152028776e-38
1.376818 -0.098476 0.315802 2.341805152028776e-38
1.375353 -0.105181 0.315542 2.341805152028776e-38
1.377742 -0.112190 0.316171 2.341805152028776e-38
1.375240 -0.118806 0.315683 2.341805152028776e-38
1.373678 -0.125488 0.315416 2.341805152028776e-38
1.374995 -0.132438 0.315815 2.341805152028776e-38
1.378217 -0.139601 0.316656 2.341805152028776e-38
1.377524 -0.146387 0.316604 2.341805152028776e-38
1.376799 -0.153169 0.316550 2.341805152028776e-38
1.376042 -0.159948 0.316492 2.341805152028776e-38
1.378154 -0.167075 0.317101 2.341805152028776e-38
1.378296 -0.173982 0.317261 2.341805152028776e-38
1.375504 -0.180514 0.316751 2.341805152028776e-38
1.376546 -0.187550 0.317129 2.341805152028776e-38
1.377552 -0.194600 0.317505 2.341805152028776e-38
1.380452 -0.201948 0.318325 2.341805152028776e-38
1.381378 -0.209051 0.318717 2.341805152028776e-38
1.381306 -0.216018 0.318883 2.341805152028776e-38
1.385048 -0.223612 0.319937 2.341805152028776e-38
1.383941 -0.230448 0.319876 2.341805152028776e-38
1.383762 -0.237445 0.320035 2.341805152028776e-38
1.384508 -0.244616 0.320413 2.341805152028776e-38
1.384258 -0.251627 0.320566 2.341805152028776e-38
1.381097 -0.258105 0.320051 2.341805152028776e-38
1.384599 -0.265869 0.321114 2.341805152028776e-38
1.383267 -0.272749 0.321084 2.341805152028776e-38
1.382857 -0.279819 0.321273 2.341805152028776e-38
1.380502 -0.286497 0.321015 2.341805152028776e-38
1.383836 -0.294379 0.322086 2.341805152028776e-38
1.384269 -0.301681 0.322487 2.341805152028776e-38
1.382760 -0.308572 0.322441 2.341805152028776e-38
1.383116 -0.315896 0.322839 2.341805152028776e-38
1.381514 -0.322834 0.322834 2.341805152028776e-38
1.381774 -0.330221 0.323269 2.341805152028776e-38
1.384837 -0.338317 0.324366 2.341805152028776e-38
1.385961 -0.345983 0.325014 2.341805152028776e-38
1.384208 -0.352949 0.324993 2.341805152028776e-38
1.386195 -0.360893 0.325855 2.341805152028776e-38
1.387190 -0.368628 0.326499 2.341805152028776e-38
1.388121 -0.376431 0.327179 2.341805152028776e-38
1.386188 -0.383478 0.327187 2.341805152028776e-38
1.386097 -0.391048 0.327635 2.341805152028776e-38
1.386902 -0.398901 0.328299 2.341805152028776e-38
1.385791 -0.406228 0.328515 2.341805152028776e-38
1.385576 -0.413837 0.328947 2.341805152028776e-38
1.368509 -0.416388 0.325413 2.341805152028776e-38
1.427974 0.102060 0.320256 2.341805152028776e-38
1.364185 0.090756 0.305881 2.341805152028776e-38
1.356816 0.083562 0.304165 2.341805152028776e-38
1.356230 0.076829 0.303976 2.341805152028776e-38
1.354637 0.070053 0.303565 2.341805152028776e-38
1.355935 0.063432 0.303807 2.341805152028776e-38
1.356225 0.056759 0.303829 2.341805152028776e-38
1.357459 0.050121 0.304066 2.341805152028776e-38
1.357686 0.043440 0.304083 2.341805152028776e-38
1.360806 0.036838 0.304753 2.341805152028776e-38
1.361944 0.030163 0.304983 2.341805152028776e-38
1.363050 0.023478 0.305211 2.341805152028776e-38
1.361195 0.016746 0.304781 2.341805152028776e-38
1.363212 0.010062 0.305223 2.341805152028776e-38
1.364220 0.003357 0.305444 2.341805152028776e-38
1.369099 -0.003369 0.306536 2.341805152028776e-38
1.367115 -0.010091 0.306097 2.341805152028776e-38
1.367050 -0.016818 0.306092 2.341805152028776e-38
1.367928 -0.023562 0.306303 2.341805152028776e-38
1.369749 -0.030336 0.306731 2.341805152028776e-38
1.369586 -0.037076 0.306719 2.341805152028776e-38
1.371341 -0.043877 0.307141 2.341805152028776e-38
1.369161 -0.050553 0.306687 2.341805152028776e-38
1.369875 -0.057330 0.306887 2.341805152028776e-38
1.370556 -0.064116 0.307083 2.341805152028776e-38
1.375103 -0.071112 0.308151 2.341805152028776e-38
1.382536 -0.078319 0.309872 2.341805152028776e-38
1.378245 -0.084882 0.308969 2.341805152028776e-38
1.373922 -0.091404 0.308064 2.341805152028776e-38
1.376384 -0.098372 0.308685 2.341805152028776e-38
1.377837 -0.105293 0.309086 2.341805152028776e-38
1.379256 -0.112230 0.309483 2.341805152028776e-38
1.377724 -0.118932 0.309224 2.341805152028776e-38
1.377132 -0.125711 0.309180 2.341805152028776e-38
1.376507 -0.132486 0.309134 2.341805152028776e-38
1.378762 -0.139553 0.309740 2.341805152028776e-38
1.377100 -0.146234 0.309471 2.341805152028776e-38
1.377346 -0.153117 0.309636 2.341805152028776e-38
1.377557 -0.160006 0.309798 2.341805152028776e-38
1.380642 -0.167252 0.310611 2.341805152028776e-38
1.379816 -0.174045 0.310551 2.341805152028776e-38
1.380892 -0.181087 0.310923 2.341805152028776e-38
1.385802 -0.188671 0.312164 2.341805152028776e-38
1.385838 -0.195625 0.312313 2.341805152028776e-38
1.383909 -0.202302 0.312025 2.341805152028776e-38
1.381948 -0.208964 0.311733 2.341805152028776e-38
1.384773 -0.216375 0.312542 2.341805152028776e-38
1.386592 -0.223670 0.313138 2.341805152028776e-38
1.385485 -0.230509 0.313080 2.341805152028776e-38
1.385306 -0.237509 0.313236 2.341805152028776e-38
1.384131 -0.244343 0.313172 2.341805152028776e-38
1.384844 -0.251522 0.313541 2.341805152028776e-38
1.385520 -0.258714 0.313907 2.341805152028776e-38
1.387118 -0.266104 0.314487 2.341805152028776e-38
1.383881 -0.272590 0.313996 2.341805152028776e-38
1.383472 -0.279658 0.314184 2.341805152028776e-38
1.383028 -0.286732 0.314368 2.341805152028776e-38
1.386367 -0.294622 0.315419 2.341805152028776e-38
1.386800 -0.301932 0.315814 2.341805152028776e-38
1.385290 -0.308831 0.315771 2.341805152028776e-38
1.383746 -0.315725 0.315725 2.341805152028776e-38
1.383116 -0.322839 0.315896 2.341805152028776e-38
1.384328 -0.330457 0.316543 2.341805152028776e-38
1.387394 -0.338561 0.317619 2.341805152028776e-38
1.385679 -0.345528 0.317606 2.341805152028776e-38
1.385820 -0.352971 0.318023 2.341805152028776e-38
1.385922 -0.360427 0.318436 2.341805152028776e-38
1.389758 -0.368899 0.319712 2.341805152028776e-38
1.387882 -0.375907 0.319697 2.341805152028776e-38
1.388775 -0.383729 0.320361 2.341805152028776e-38
1.385866 -0.390515 0.320152 2.341805152028776e-38
1.388554 -0.398903 0.321240 2.341805152028776e-38
1.388381 -0.406509 0.321672 2.341805152028776e-38
1.385360 -0.413291 0.321448 2.341805152028776e-38
1.371099 -0.416650 0.318615 2.341805152028776e-38
1.450945 0.103627 0.318026 2.341805152028776e-38
1.369549 0.091047 0.300118 2.341805152028776e-38
1.356322 0.083471 0.297158 2.341805152028776e-38
1.354760 0.076690 0.296759 2.341805152028776e-38
1.355115 0.070028 0.296784 2.341805152028776e-38
1.357389 0.063455 0.297235 2.341805152028776e-38
1.356704 0.056738 0.297042 2.341805152028776e-38
1.356963 0.050066 0.297061 2.341805152028776e-38
1.358166 0.043425 0.297291 2.341805152028776e-38
1.360313 0.036798 0.297732 2.341805152028776e-38
1.360475 0.030109 0.297744 2.341805152028776e-38
1.362558 0.023452 0.298181 2.341805152028776e-38
1.363632 0.016764 0.298402 2.341805152028776e-38
1.364673 0.010066 0.298620 2.341805152028776e-38
1.366660 0.003360 0.299050 2.341805152028776e-38
1.368613 -0.003365 0.299477 2.341805152028776e-38
1.366627 -0.010080 0.299048 2.341805152028776e-38
1.367539 -0.016812 0.299257 2.341805152028776e-38
1.367441 -0.023536 0.299250 2.341805152028776e-38
1.370241 -0.030325 0.299881 2.341805152028776e-38
1.371054 -0.037089 0.300083 2.341805152028776e-38
1.371835 -0.043862 0.300283 2.341805152028776e-38
1.368678 -0.050499 0.299625 2.341805152028776e-38
1.371345 -0.057351 0.300248 2.341805152028776e-38
1.373003 -0.064185 0.300654 2.341805152028776e-38
1.373651 -0.070986 0.300844 2.341805152028776e-38
1.373291 -0.077740 0.300818 2.341805152028776e-38
1.372899 -0.084492 0.300790 2.341805152028776e-38
1.372473 -0.091242 0.300759 2.341805152028776e-38
1.372990 -0.098059 0.300940 2.341805152028776e-38
1.376395 -0.105107 0.301759 2.341805152028776e-38
1.380738 -0.112270 0.302788 2.341805152028776e-38
1.379205 -0.118974 0.302535 2.341805152028776e-38
1.376667 -0.125578 0.302065 2.341805152028776e-38
1.379933 -0.132720 0.302874 2.341805152028776e-38
1.380246 -0.139603 0.303040 2.341805152028776e-38
1.378582 -0.146285 0.302776 2.341805152028776e-38
1.376886 -0.152955 0.302511 2.341805152028776e-38
1.376130 -0.159724 0.302456 2.341805152028776e-38
1.380190 -0.167077 0.303466 2.341805152028776e-38
1.382272 -0.174228 0.304046 2.341805152028776e-38
1.386256 -0.181659 0.305050 2.341805152028776e-38
1.390201 -0.189132 0.306051 2.341805152028776e-38
1.386366 -0.195558 0.305344 2.341805152028776e-38
1.383469 -0.202091 0.304849 2.341805152028776e-38
1.381509 -0.208746 0.304564 2.341805152028776e-38
1.383378 -0.215990 0.305129 2.341805152028776e-38
1.387137 -0.223571 0.306120 2.341805152028776e-38
1.386031 -0.230408 0.306064 2.341805152028776e-38
1.385854 -0.237405 0.306218 2.341805152028776e-38
1.388528 -0.244916 0.307008 2.341805152028776e-38
1.388279 -0.251937 0.307156 2.341805152028776e-38
1.388955 -0.259142 0.307515 2.341805152028776e-38
1.388634 -0.266176 0.307658 2.341805152028776e-38
1.385402 -0.272649 0.307161 2.341805152028776e-38
1.382136 -0.279108 0.306674 2.341805152028776e-38
1.380738 -0.285972 0.306644 2.341805152028776e-38
1.382175 -0.293440 0.307249 2.341805152028776e-38
1.384526 -0.301140 0.308063 2.341805152028776e-38
1.385881 -0.308661 0.308661 2.341805152028776e-38
1.384337 -0.315554 0.308618 2.341805152028776e-38
1.383711 -0.322663 0.308785 2.341805152028776e-38
1.386848 -0.330688 0.309803 2.341805152028776e-38
1.386122 -0.337876 0.310010 2.341805152028776e-38
1.386306 -0.345305 0.310425 2.341805152028776e-38
1.385504 -0.352506 0.310624 2.341805152028776e-38
1.387502 -0.360449 0.311456 2.341805152028776e-38
1.387565 -0.367923 0.311859 2.341805152028776e-38
1.387589 -0.375410 0.312257 2.341805152028776e-38
1.387560 -0.382937 0.312673 2.341805152028776e-38
1.386536 -0.390243 0.312897 2.341805152028776e-38
1.389230 -0.398631 0.313966 2.341805152028776e-38
1.389999 -0.406512 0.314605 2.341805152028776e-38
1.386977 -0.413298 0.314389 2.341805152028776e-38
1.438811 0.102688 0.308063 2.341805152028776e-38
1.366107 0.090754 0.292431 2.341805152028776e-38
1.355793 0.083380 0.290163 2.341805152028776e-38
1.356180 0.076717 0.290190 2.341805152028776e-38
1.356536 0.070052 0.290215 2.341805152028776e-38
1.357835 0.063431 0.290447 2.341805152028776e-38
1.357149 0.056717 0.290258 2.341805152028776e-38
1.358385 0.050084 0.290486 2.341805152028776e-38
1.358611 0.043408 0.290501 2.341805152028776e-38
1.360760 0.036785 0.290933 2.341805152028776e-38
1.360922 0.030098 0.290945 2.341805152028776e-38
1.363007 0.023444 0.291372 2.341805152028776e-38
1.363105 0.016746 0.291378 2.341805152028776e-38
1.366103 0.010069 0.292010 2.341805152028776e-38
1.365158 0.003354 0.291803 2.341805152028776e-38
1.370047 -0.003366 0.292849 2.341805152028776e-38
1.368059 -0.010084 0.292428 2.341805152028776e-38
1.367016 -0.016794 0.292215 2.341805152028776e-38
1.370829 -0.023578 0.293044 2.341805152028776e-38
1.372654 -0.030357 0.293453 2.341805152028776e-38
1.371513 -0.037075 0.293232 2.341805152028776e-38
1.370340 -0.043783 0.293009 2.341805152028776e-38
1.372067 -0.050588 0.293411 2.341805152028776e-38
1.372782 -0.057370 0.293602 2.341805152028776e-38
1.372488 -0.064115 0.293581 2.341805152028776e-38
1.374115 -0.070960 0.293976 2.341805152028776e-38
1.374731 -0.077766 0.294160 2.341805152028776e-38
1.374339 -0.084521 0.294132 2.341805152028776e-38
1.371962 -0.091143 0.293684 2.341805152028776e-38
1.375406 -0.098162 0.294487 2.341805152028776e-38
1.378815 -0.105218 0.295288 2.341805152028776e-38
1.383163 -0.112388 0.296295 2.341805152028776e-38
1.380654 -0.119015 0.295838 2.341805152028776e-38
1.381035 -0.125887 0.296005 2.341805152028776e-38
1.379436 -0.132579 0.295752 2.341805152028776e-38
1.381696 -0.139651 0.296332 2.341805152028776e-38
1.379059 -0.146233 0.295866 2.341805152028776e-38
1.378335 -0.153008 0.295815 2.341805152028776e-38
1.375635 -0.159554 0.295344 2.341805152028776e-38
1.378729 -0.166782 0.296123 2.341805152028776e-38
1.379846 -0.173800 0.296482 2.341805152028776e-38
1.379958 -0.180706 0.296630 2.341805152028776e-38
1.382944 -0.188012 0.297401 2.341805152028776e-38
1.383954 -0.195079 0.297752 2.341805152028776e-38
1.383961 -0.202019 0.297893 2.341805152028776e-38
1.384901 -0.209110 0.298239 2.341805152028776e-38
1.385805 -0.216215 0.298583 2.341805152028776e-38
1.387639 -0.223490 0.299133 2.341805152028776e-38
1.387505 -0.230467 0.299263 2.341805152028776e-38
1.388294 -0.237629 0.299619 2.341805152028776e-38
1.388082 -0.244638 0.299768 2.341805152028776e-38
1.389760 -0.252002 0.300331 2.341805152028776e-38
1.391399 -0.259388 0.300890 2.341805152028776e-38
1.390118 -0.266246 0.300823 2.341805152028776e-38
1.382084 -0.271777 0.299299 2.341805152028776e-38
1.384578 -0.279365 0.300058 2.341805152028776e-38
1.393733 -0.288380 0.302277 2.341805152028776e-38
1.398988 -0.296720 0.303702 2.341805152028776e-38
1.390812 -0.302215 0.302215 2.341805152028776e-38
1.385481 -0.308276 0.301348 2.341805152028776e-38
1.383939 -0.315162 0.301309 2.341805152028776e-38
1.384269 -0.322487 0.301681 2.341805152028776e-38
1.385511 -0.330052 0.302258 2.341805152028776e-38
1.386709 -0.337650 0.302841 2.341805152028776e-38
1.388795 -0.345550 0.303665 2.341805152028776e-38
1.386096 -0.352279 0.303448 2.341805152028776e-38
1.383365 -0.358993 0.303227 2.341805152028776e-38
1.384384 -0.366693 0.303831 2.341805152028776e-38
1.386305 -0.374671 0.304639 2.341805152028776e-38
1.386294 -0.382161 0.305027 2.341805152028776e-38
1.385284 -0.389437 0.305234 2.341805152028776e-38
1.389868 -0.398355 0.306698 2.341805152028776e-38
1.386886 -0.405139 0.306496 2.341805152028776e-38
1.386683 -0.412744 0.306912 2.341805152028776e-38
1.377077 -0.417523 0.305248 2.341805152028776e-38
1.371414 0.091044 0.286621 2.341805152028776e-38
1.360113 0.083588 0.284200 2.341805152028776e-38
1.358547 0.076798 0.283819 2.341805152028776e-38
1.357925 0.070076 0.283639 2.341805152028776e-38
1.357270 0.063361 0.283457 2.341805152028776e-38
1.357561 0.056695 0.283477 2.341805152028776e-38
1.358797 0.050065 0.283699 2.341805152028776e-38
1.360002 0.043423 0.283919 2.341805152028776e-38
1.361174 0.036771 0.284137 2.341805152028776e-38
1.359379 0.030043 0.283739 2.341805152028776e-38
1.363423 0.023435 0.284565 2.341805152028776e-38
1.364499 0.016752 0.284776 2.341805152028776e-38
1.365543 0.010058 0.284985 2.341805152028776e-38
1.365575 0.003353 0.284987 2.341805152028776e-38
1.370470 -0.003365 0.286009 2.341805152028776e-38
1.368480 -0.010080 0.285598 2.341805152028776e-38
1.369393 -0.016812 0.285798 2.341805152028776e-38
1.371253 -0.023569 0.286199 2.341805152028776e-38
1.372102 -0.030324 0.286395 2.341805152028776e-38
1.370960 -0.037035 0.286179 2.341805152028776e-38
1.372721 -0.043829 0.286574 2.341805152028776e-38
1.372493 -0.050569 0.286559 2.341805152028776e-38
1.373210 -0.057349 0.286745 2.341805152028776e-38
1.374871 -0.064183 0.287133 2.341805152028776e-38
1.375522 -0.070984 0.287315 2.341805152028776e-38
1.373207 -0.077627 0.286882 2.341805152028776e-38
1.374769 -0.084489 0.287263 2.341805152028776e-38
1.372390 -0.091109 0.286825 2.341805152028776e-38
1.376815 -0.098196 0.287815 2.341805152028776e-38
1.380228 -0.105253 0.288597 2.341805152028776e-38
1.382629 -0.112267 0.289173 2.341805152028776e-38
1.381094 -0.118971 0.288931 2.341805152028776e-38
1.379527 -0.125663 0.288686 2.341805152028776e-38
1.379877 -0.132530 0.288847 2.341805152028776e-38
1.381167 -0.139501 0.289209 2.341805152028776e-38
1.377554 -0.145972 0.288550 2.341805152028776e-38
1.377804 -0.152843 0.288704 2.341805152028776e-38
1.377048 -0.159608 0.288652 2.341805152028776e-38
1.380147 -0.166838 0.289413 2.341805152028776e-38
1.375437 -0.173125 0.288541 2.341805152028776e-38
1.378466 -0.180385 0.289297 2.341805152028776e-38
1.383397 -0.187944 0.290458 2.341805152028776e-38
1.384410 -0.195008 0.290802 2.341805152028776e-38
1.385387 -0.202087 0.291143 2.341805152028776e-38
1.385360 -0.209035 0.291278 2.341805152028776e-38
1.384332 -0.215836 0.291207 2.341805152028776e-38
1.387137 -0.223254 0.291948 2.341805152028776e-38
1.386040 -0.230064 0.291872 2.341805152028776e-38
1.388770 -0.237528 0.292608 2.341805152028776e-38
1.386634 -0.244188 0.292338 2.341805152028776e-38
1.389281 -0.251714 0.293092 2.341805152028776e-38
1.389962 -0.258915 0.293437 2.341805152028776e-38
1.387721 -0.265577 0.293169 2.341805152028776e-38
1.379684 -0.271091 0.291680 2.341805152028776e-38
1.399462 -0.282146 0.296079 2.341805152028776e-38
1.414371 -0.292411 0.299458 2.341805152028776e-38
1.408136 -0.298374 0.298374 2.341805152028776e-38
1.393246 -0.302456 0.295503 2.341805152028776e-38
1.385998 -0.308099 0.294252 2.341805152028776e-38
1.385412 -0.315201 0.294419 2.341805152028776e-38
1.386697 -0.322752 0.294988 2.341805152028776e-38
1.387942 -0.330325 0.295554 2.341805152028776e-38
1.392000 -0.338615 0.296724 2.341805152028776e-38
1.390300 -0.345556 0.296690 2.341805152028776e-38
1.384753 -0.351566 0.295872 2.341805152028776e-38
1.383921 -0.358761 0.296065 2.341805152028776e-38
1.383050 -0.365960 0.296253 2.341805152028776e-38
1.384979 -0.373928 0.297045 2.341805152028776e-38
1.384030 -0.381148 0.297225 2.341805152028776e-38
1.388700 -0.389959 0.298617 2.341805152028776e-38
1.387644 -0.397266 0.298829 2.341805152028776e-38
1.384666 -0.404036 0.298636 2.341805152028776e-38
1.386348 -0.412186 0.299451 2.341805152028776e-38
1.375799 -0.416676 0.297626 2.341805152028776e-38
1.449546 0.103313 0.295690 2.341805152028776e-38
1.376696 0.091334 0.280767 2.341805152028776e-38
1.362451 0.083676 0.277804 2.341805152028776e-38
1.359905 0.076823 0.277232 2.341805152028776e-38
1.357325 0.069998 0.276657 2.341805152028776e-38
1.358626 0.063382 0.276879 2.341805152028776e-38
1.357938 0.056673 0.276699 2.341805152028776e-38
1.359175 0.050045 0.276915 2.341805152028776e-38
1.360381 0.043406 0.277130 2.341805152028776e-38
1.360575 0.036730 0.277143 2.341805152028776e-38
1.361716 0.030074 0.277354 2.341805152028776e-38
1.364785 0.023442 0.277961 2.341805152028776e-38
1.365862 0.016757 0.278167 2.341805152028776e-38
1.366907 0.010062 0.278371 2.341805152028776e-38
1.368899 0.003359 0.278772 2.341805152028776e-38
1.372818 -0.003368 0.279570 2.341805152028776e-38
1.371806 -0.010098 0.279369 2.341805152028776e-38
1.372720 -0.016841 0.279564 2.341805152028776e-38
1.370663 -0.023543 0.279158 2.341805152028776e-38
1.372492 -0.030312 0.279548 2.341805152028776e-38
1.371350 -0.037021 0.279338 2.341805152028776e-38
1.374092 -0.043843 0.279923 2.341805152028776e-38
1.372885 -0.050550 0.279709 2.341805152028776e-38
1.374582 -0.057368 0.280090 2.341805152028776e-38
1.373309 -0.064067 0.279871 2.341805152028776e-38
1.373961 -0.070856 0.280048 2.341805152028776e-38
1.372623 -0.077542 0.279825 2.341805152028776e-38
1.377122 -0.084577 0.280796 2.341805152028776e-38
1.376696 -0.091334 0.280767 2.341805152028776e-38
1.379170 -0.098298 0.281334 2.341805152028776e-38
1.381609 -0.105288 0.281899 2.341805152028776e-38
1.384013 -0.112304 0.282462 2.341805152028776e-38
1.379548 -0.118758 0.281627 2.341805152028776e-38
1.381884 -0.125793 0.282185 2.341805152028776e-38
1.379308 -0.132386 0.281745 2.341805152028776e-38
1.380600 -0.139350 0.282099 2.341805152028776e-38
1.380884 -0.146227 0.282252 2.341805152028776e-38
1.381134 -0.153110 0.282402 2.341805152028776e-38
1.380376 -0.159886 0.282351 2.341805152028776e-38
1.381532 -0.166893 0.282696 2.341805152028776e-38
1.381680 -0.173793 0.282840 2.341805152028776e-38
1.384709 -0.181080 0.283578 2.341805152028776e-38
1.384787 -0.188005 0.283717 2.341805152028776e-38
1.385801 -0.195072 0.284053 2.341805152028776e-38
1.383870 -0.201730 0.283789 2.341805152028776e-38
1.385785 -0.208957 0.284319 2.341805152028776e-38
1.383788 -0.215605 0.284051 2.341805152028776e-38
1.383696 -0.222550 0.284179 2.341805152028776e-38
1.383569 -0.229498 0.284304 2.341805152028776e-38
1.387272 -0.237111 0.285221 2.341805152028776e-38
1.387073 -0.244087 0.285341 2.341805152028776e-38
1.390693 -0.251773 0.286263 2.341805152028776e-38
1.386558 -0.258080 0.285608 2.341805152028776e-38
1.388171 -0.265457 0.286142 2.341805152028776e-38
1.384937 -0.271913 0.285681 2.341805152028776e-38
1.398968 -0.281829 0.288787 2.341805152028776e-38
1.404296 -0.290106 0.290106 2.341805152028776e-38
1.396152 -0.295600 0.288645 2.341805152028776e-38
1.387985 -0.301031 0.287190 2.341805152028776e-38
1.387436 -0.308132 0.287359 2.341805152028776e-38
1.385895 -0.315020 0.287326 2.341805152028776e-38
1.387185 -0.322569 0.287884 2.341805152028776e-38
1.387479 -0.329914 0.288241 2.341805152028776e-38
1.389640 -0.337735 0.288990 2.341805152028776e-38
1.387953 -0.344643 0.288944 2.341805152028776e-38
1.387170 -0.351813 0.289114 2.341805152028776e-38
1.394877 -0.361229 0.291087 2.341805152028776e-38
1.401577 -0.370484 0.292858 2.341805152028776e-38
1.393076 -0.375734 0.291457 2.341805152028776e-38
1.389284 -0.382211 0.291041 2.341805152028776e-38
1.386406 -0.388927 0.290820 2.341805152028776e-38
1.387261 -0.396713 0.291391 2.341805152028776e-38
1.388049 -0.404576 0.291998 2.341805152028776e-38
1.387853 -0.412182 0.292402 2.341805152028776e-38
1.372604 -0.415258 0.289634 2.341805152028776e-38
1.429435 0.101813 0.284376 2.341805152028776e-38
1.374124 0.091104 0.273311 2.341805152028776e-38
1.360843 0.083523 0.270613 2.341805152028776e-38
1.358293 0.076682 0.270054 2.341805152028776e-38
1.356689 0.069919 0.269688 2.341805152028776e-38
1.356031 0.063219 0.269515 2.341805152028776e-38
1.357301 0.056610 0.269728 2.341805152028776e-38
1.359520 0.050025 0.270135 2.341805152028776e-38
1.360726 0.043389 0.270344 2.341805152028776e-38
1.361900 0.036742 0.270552 2.341805152028776e-38
1.363043 0.030084 0.270757 2.341805152028776e-38
1.366114 0.023450 0.271350 2.341805152028776e-38
1.365231 0.016738 0.271162 2.341805152028776e-38
1.368238 0.010065 0.271750 2.341805152028776e-38
1.371213 0.003362 0.272337 2.341805152028776e-38
1.374156 -0.003369 0.272921 2.341805152028776e-38
1.369219 -0.010072 0.271945 2.341805152028776e-38
1.369154 -0.016786 0.271941 2.341805152028776e-38
1.371018 -0.023534 0.272324 2.341805152028776e-38
1.371868 -0.030279 0.272510 2.341805152028776e-38
1.370725 -0.036980 0.272305 2.341805152028776e-38
1.373471 -0.043795 0.272876 2.341805152028776e-38
1.372262 -0.050494 0.272667 2.341805152028776e-38
1.372981 -0.057264 0.272844 2.341805152028776e-38
1.373668 -0.064042 0.273020 2.341805152028776e-38
1.373341 -0.070777 0.272999 2.341805152028776e-38
1.374941 -0.077622 0.273364 2.341805152028776e-38
1.377486 -0.084544 0.273923 2.341805152028776e-38
1.378039 -0.091363 0.274090 2.341805152028776e-38
1.380516 -0.098329 0.274643 2.341805152028776e-38
1.380023 -0.105098 0.274611 2.341805152028776e-38
1.383409 -0.112182 0.275355 2.341805152028776e-38
1.380895 -0.118797 0.274929 2.341805152028776e-38
1.381280 -0.125656 0.275085 2.341805152028776e-38
1.378703 -0.132241 0.274655 2.341805152028776e-38
1.380974 -0.139296 0.275195 2.341805152028776e-38
1.383210 -0.146377 0.275734 2.341805152028776e-38
1.381510 -0.153051 0.275492 2.341805152028776e-38
1.381727 -0.159937 0.275636 2.341805152028776e-38
1.382884 -0.166947 0.275973 2.341805152028776e-38
1.384006 -0.173972 0.276308 2.341805152028776e-38
1.384120 -0.180884 0.276446 2.341805152028776e-38
1.383228 -0.187670 0.276387 2.341805152028776e-38
1.385217 -0.194862 0.276909 2.341805152028776e-38
1.385228 -0.201795 0.277040 2.341805152028776e-38
1.386175 -0.208878 0.277363 2.341805152028776e-38
1.384178 -0.215524 0.277102 2.341805152028776e-38
1.385055 -0.222621 0.277420 2.341805152028776e-38
1.385897 -0.229732 0.277736 2.341805152028776e-38
1.388636 -0.237188 0.278438 2.341805152028776e-38
1.388438 -0.244166 0.278555 2.341805152028776e-38
1.387239 -0.250973 0.278476 2.341805152028776e-38
1.387934 -0.258139 0.278790 2.341805152028776e-38
1.386659 -0.264966 0.278731 2.341805152028776e-38
1.388239 -0.272355 0.279250 2.341805152028776e-38
1.392665 -0.280347 0.280347 2.341805152028776e-38
1.394163 -0.287796 0.280861 2.341805152028776e-38
1.392743 -0.294657 0.280791 2.341805152028776e-38
1.389372 -0.301097 0.280332 2.341805152028776e-38
1.389798 -0.308374 0.280655 2.341805152028776e-38
1.387299 -0.315053 0.280432 2.341805152028776e-38
1.386680 -0.322162 0.280592 2.341805152028776e-38
1.387933 -0.329727 0.281136 2.341805152028776e-38
1.387239 -0.336853 0.281289 2.341805152028776e-38
1.386508 -0.343981 0.281439 2.341805152028776e-38
1.396203 -0.353764 0.283712 2.341805152028776e-38
1.413417 -0.365659 0.287557 2.341805152028776e-38
1.406822 -0.371497 0.286584 2.341805152028776e-38
1.395468 -0.376005 0.284639 2.341805152028776e-38
1.387888 -0.381451 0.283464 2.341805152028776e-38
1.386902 -0.388687 0.283636 2.341805152028776e-38
1.388709 -0.396734 0.284384 2.341805152028776e-38
1.387632 -0.404015 0.284567 2.341805152028776e-38
1.382738 -0.410221 0.283999 2.341805152028776e-38
1.366546 -0.412985 0.281108 2.341805152028776e-38
1.418064 0.100939 0.274972 2.341805152028776e-38
1.371513 0.090873 0.265886 2.341805152028776e-38
1.362137 0.083549 0.264014 2.341805152028776e-38
1.359584 0.076706 0.263469 2.341805152028776e-38
1.358959 0.069992 0.263302 2.341805152028776e-38
1.360262 0.063376 0.263512 2.341805152028776e-38
1.360553 0.056709 0.263531 2.341805152028776e-38
1.362774 0.050113 0.263927 2.341805152028776e-38
1.363000 0.043433 0.263942 2.341805152028776e-38
1.363194 0.036753 0.263954 2.341805152028776e-38
1.363356 0.030072 0.263965 2.341805152028776e-38
1.364467 0.023407 0.264163 2.341805152028776e-38
1.365546 0.016732 0.264359 2.341805152028776e-38
1.368556 0.010061 0.264933 2.341805152028776e-38
1.370552 0.003358 0.265316 2.341805152028776e-38
1.371534 -0.003361 0.265506 2.341805152028776e-38
1.369538 -0.010068 0.265124 2.341805152028776e-38
1.371436 -0.016804 0.265499 2.341805152028776e-38
1.371338 -0.023525 0.265493 2.341805152028776e-38
1.373171 -0.030288 0.265865 2.341805152028776e-38
1.374971 -0.037071 0.266235 2.341805152028776e-38
1.373794 -0.043777 0.266032 2.341805152028776e-38
1.373566 -0.050510 0.266018 2.341805152028776e-38
1.374286 -0.057282 0.266191 2.341805152028776e-38
1.375954 -0.064107 0.266552 2.341805152028776e-38
1.374647 -0.070800 0.266341 2.341805152028776e-38
1.375268 -0.077591 0.266508 2.341805152028776e-38
1.378796 -0.084571 0.267243 2.341805152028776e-38
1.377391 -0.091262 0.267026 2.341805152028776e-38
1.380850 -0.098290 0.267756 2.341805152028776e-38
1.381336 -0.105131 0.267915 2.341805152028776e-38
1.385704 -0.112296 0.268830 2.341805152028776e-38
1.383188 -0.118918 0.268415 2.341805152028776e-38
1.381618 -0.125607 0.268187 2.341805152028776e-38
1.379039 -0.132189 0.267768 2.341805152028776e-38
1.381313 -0.139242 0.268295 2.341805152028776e-38
1.380623 -0.146010 0.268251 2.341805152028776e-38
1.383803 -0.153207 0.268963 2.341805152028776e-38
1.383045 -0.159987 0.268915 2.341805152028776e-38
1.384203 -0.166999 0.269243 2.341805152028776e-38
1.384353 -0.173904 0.269380 2.341805152028776e-38
1.386415 -0.181068 0.269894 2.341805152028776e-38
1.387468 -0.188125 0.270216 2.341805152028776e-38
1.387514 -0.195060 0.270346 2.341805152028776e-38
1.385581 -0.201717 0.270095 2.341805152028776e-38
1.387501 -0.208944 0.270600 2.341805152028776e-38
1.386473 -0.215742 0.270534 2.341805152028776e-38
1.389290 -0.223158 0.271223 2.341805152028776e-38
1.389162 -0.230126 0.271342 2.341805152028776e-38
1.389968 -0.237262 0.271648 2.341805152028776e-38
1.388803 -0.244072 0.271573 2.341805152028776e-38
1.386638 -0.250702 0.271308 2.341805152028776e-38
1.386374 -0.257675 0.271418 2.341805152028776e-38
1.388966 -0.265210 0.272098 2.341805152028776e-38
1.390547 -0.272606 0.272606 2.341805152028776e-38
1.392089 -0.280025 0.273110 2.341805152028776e-38
1.391669 -0.287069 0.273235 2.341805152028776e-38
1.394096 -0.294727 0.273923 2.341805152028776e-38
1.390723 -0.301169 0.273476 2.341805152028776e-38
1.390196 -0.308224 0.273592 2.341805152028776e-38
1.388669 -0.315083 0.273534 2.341805152028776e-38
1.387094 -0.321973 0.273504 2.341805152028776e-38
1.386440 -0.329084 0.273659 2.341805152028776e-38
1.389567 -0.337124 0.274565 2.341805152028776e-38
1.387883 -0.344025 0.274525 2.341805152028776e-38
1.396637 -0.353570 0.276555 2.341805152028776e-38
1.402478 -0.362476 0.278016 2.341805152028776e-38
1.396847 -0.368499 0.277252 2.341805152028776e-38
1.390239 -0.374230 0.276301 2.341805152028776e-38
1.389292 -0.381468 0.276477 2.341805152028776e-38
1.391144 -0.389502 0.277213 2.341805152028776e-38
1.393895 -0.397837 0.278134 2.341805152028776e-38
1.389996 -0.404293 0.277731 2.341805152028776e-38
1.386047 -0.410768 0.277356 2.341805152028776e-38
1.364197 -0.411844 0.273409 2.341805152028776e-38
1.417418 0.100831 0.267723 2.341805152028776e-38
1.368861 0.090641 0.258494 2.341805152028776e-38
1.360456 0.083394 0.256853 2.341805152028776e-38
1.358881 0.076619 0.256507 2.341805152028776e-38
1.359236 0.069962 0.256529 2.341805152028776e-38
1.359559 0.063304 0.256549 2.341805152028776e-38
1.360831 0.056686 0.256752 2.341805152028776e-38
1.362071 0.050056 0.256954 2.341805152028776e-38
1.363280 0.043415 0.257153 2.341805152028776e-38
1.363474 0.036738 0.257165 2.341805152028776e-38
1.364618 0.030081 0.257361 2.341805152028776e-38
1.364747 0.023397 0.257369 2.341805152028776e-38
1.365827 0.016725 0.257560 2.341805152028776e-38
1.366874 0.010042 0.257749 2.341805152028776e-38
1.367889 0.003350 0.257937 2.341805152028776e-38
1.369855 -0.003355 0.258307 2.341805152028776e-38
1.370805 -0.010071 0.258490 2.341805152028776e-38
1.372705 -0.016809 0.258857 2.341805152028776e-38
1.371625 -0.023515 0.258666 2.341805152028776e-38
1.371495 -0.030233 0.258658 2.341805152028776e-38
1.372315 -0.036976 0.258833 2.341805152028776e-38
1.373102 -0.043728 0.259006 2.341805152028776e-38
1.374838 -0.050525 0.259362 2.341805152028776e-38
1.376540 -0.057340 0.259716 2.341805152028776e-38
1.377228 -0.064127 0.259883 2.341805152028776e-38
1.375920 -0.070821 0.259678 2.341805152028776e-38
1.377523 -0.077670 0.260026 2.341805152028776e-38
1.378112 -0.084476 0.260187 2.341805152028776e-38
1.378667 -0.091290 0.260345 2.341805152028776e-38
1.381149 -0.098251 0.260872 2.341805152028776e-38
1.382617 -0.105163 0.261212 2.341805152028776e-38
1.383071 -0.112013 0.261364 2.341805152028776e-38
