VERSION .7
FIELDS x y z rgb
SIZE 4 4 4 4
TYPE F F F F
COUNT 1 1 1 1
WIDTH 957
HEIGHT 1
VIEWPOINT 0 0 0 1 0 0 0
POINTS 957
DATA ascii
1.279052 0.437585 -0.139379 2.341805152028776e-38
1.281257 0.431087 -0.139374 2.341805152028776e-38
1.283403 0.424650 -0.139389 2.341805152028776e-38
1.285517 0.418204 -0.139401 2.341805152028776e-38
1.287598 0.411748 -0.139411 2.341805152028776e-38
1.289647 0.405283 -0.139417 2.341805152028776e-38
1.291664 0.398808 -0.139421 2.341805152028776e-38
1.293624 0.392392 -0.139445 2.341805152028776e-38
1.295549 0.385980 -0.139472 2.341805152028776e-38
1.297442 0.379559 -0.139496 2.341805152028776e-38
1.299304 0.373130 -0.139518 2.341805152028776e-38
1.301133 0.366692 -0.139538 2.341805152028776e-38
1.302918 0.360287 -0.139571 2.341805152028776e-38
1.304659 0.353912 -0.139617 2.341805152028776e-38
1.306369 0.347529 -0.139661 2.341805152028776e-38
1.308048 0.341137 -0.139704 2.341805152028776e-38
1.309696 0.334738 -0.139745 2.341805152028776e-38
1.311311 0.328337 -0.139787 2.341805152028776e-38
1.312885 0.321961 -0.139842 2.341805152028776e-38
1.314428 0.315578 -0.139896 2.341805152028776e-38
1.315940 0.309188 -0.139948 2.341805152028776e-38
1.317421 0.302790 -0.140000 2.341805152028776e-38
1.318872 0.296386 -0.140050 2.341805152028776e-38
1.320291 0.289974 -0.140100 2.341805152028776e-38
1.314871 0.282095 -0.139426 2.341805152028776e-38
1.229577 0.257554 -0.130292 2.341805152028776e-38
1.210344 0.247394 -0.128168 2.341805152028776e-38
0.924942 0.594622 -0.118924 2.341805152028776e-38
0.883799 0.561147 -0.113236 2.341805152028776e-38
0.859998 0.539247 -0.109801 2.341805152028776e-38
0.851194 0.527057 -0.108299 2.341805152028776e-38
0.850762 0.520170 -0.107869 2.341805152028776e-38
0.869850 0.525134 -0.109912 2.341805152028776e-38
0.936811 0.558456 -0.117984 2.341805152028776e-38
1.039298 0.611725 -0.130463 2.341805152028776e-38
1.087391 0.631898 -0.136055 2.341805152028776e-38
1.075374 0.616923 -0.134114 2.341805152028776e-38
1.060626 0.600638 -0.131847 2.341805152028776e-38
1.057841 0.591394 -0.131097 2.341805152028776e-38
1.069785 0.590366 -0.132172 2.341805152028776e-38
1.106195 0.602542 -0.136253 2.341805152028776e-38
1.137517 0.611510 -0.139685 2.341805152028776e-38
1.162822 0.616891 -0.142360 2.341805152028776e-38
1.182895 0.619320 -0.144401 2.341805152028776e-38
1.194193 0.616991 -0.145364 2.341805152028776e-38
1.202842 0.613203 -0.146001 2.341805152028776e-38
1.207045 0.607107 -0.146095 2.341805152028776e-38
1.210326 0.600543 -0.146078 2.341805152028776e-38
1.213539 0.594026 -0.146072 2.341805152028776e-38
1.216708 0.587509 -0.146066 2.341805152028776e-38
1.219843 0.580976 -0.146055 2.341805152028776e-38
1.222942 0.574427 -0.146041 2.341805152028776e-38
1.226006 0.567863 -0.146022 2.341805152028776e-38
1.229009 0.561336 -0.146012 2.341805152028776e-38
1.231964 0.554823 -0.146006 2.341805152028776e-38
1.234884 0.548295 -0.145996 2.341805152028776e-38
1.237770 0.541752 -0.145981 2.341805152028776e-38
1.240621 0.535196 -0.145963 2.341805152028776e-38
1.243420 0.528664 -0.145950 2.341805152028776e-38
1.246166 0.522161 -0.145946 2.341805152028776e-38
1.248877 0.515645 -0.145937 2.341805152028776e-38
1.251554 0.509117 -0.145925 2.341805152028776e-38
1.254197 0.502575 -0.145909 2.341805152028776e-38
1.256796 0.496043 -0.145895 2.341805152028776e-38
1.259337 0.489558 -0.145895 2.341805152028776e-38
1.261844 0.483060 -0.145891 2.341805152028776e-38
1.264317 0.476551 -0.145883 2.341805152028776e-38
1.266757 0.470031 -0.145872 2.341805152028776e-38
1.269162 0.463503 -0.145858 2.341805152028776e-38
1.271502 0.457041 -0.145864 2.341805152028776e-38
1.273810 0.450568 -0.145867 2.341805152028776e-38
1.276085 0.444084 -0.145867 2.341805152028776e-38
1.278327 0.437591 -0.145864 2.341805152028776e-38
1.280535 0.431087 -0.145856 2.341805152028776e-38
1.282688 0.424636 -0.145867 2.341805152028776e-38
1.284801 0.418192 -0.145881 2.341805152028776e-38
1.286883 0.411739 -0.145892 2.341805152028776e-38
1.288932 0.405277 -0.145900 2.341805152028776e-38
1.290948 0.398806 -0.145905 2.341805152028776e-38
1.292919 0.392364 -0.145920 2.341805152028776e-38
1.294843 0.385954 -0.145949 2.341805152028776e-38
1.296736 0.379535 -0.145975 2.341805152028776e-38
1.298598 0.373108 -0.145999 2.341805152028776e-38
1.300427 0.366673 -0.146020 2.341805152028776e-38
1.302221 0.360239 -0.146043 2.341805152028776e-38
1.303962 0.353865 -0.146091 2.341805152028776e-38
1.305672 0.347484 -0.146138 2.341805152028776e-38
1.307351 0.341094 -0.146183 2.341805152028776e-38
1.308998 0.334697 -0.146227 2.341805152028776e-38
1.310615 0.328292 -0.146269 2.341805152028776e-38
1.312192 0.321906 -0.146321 2.341805152028776e-38
1.313735 0.315524 -0.146377 2.341805152028776e-38
1.315247 0.309135 -0.146432 2.341805152028776e-38
1.316728 0.302738 -0.146486 2.341805152028776e-38
1.318178 0.296335 -0.146539 2.341805152028776e-38
1.319597 0.289924 -0.146591 2.341805152028776e-38
1.314181 0.282046 -0.145886 2.341805152028776e-38
1.225039 0.256694 -0.135897 2.341805152028776e-38
1.204839 0.246355 -0.133566 2.341805152028776e-38
0.930941 0.598910 -0.125106 2.341805152028776e-38
0.884823 0.562203 -0.118491 2.341805152028776e-38
0.862732 0.541354 -0.115130 2.341805152028776e-38
0.853948 0.529148 -0.113561 2.341805152028776e-38
0.849292 0.519652 -0.112551 2.341805152028776e-38
0.869222 0.525128 -0.114795 2.341805152028776e-38
0.942113 0.562015 -0.124013 2.341805152028776e-38
1.002595 0.590543 -0.131543 2.341805152028776e-38
1.021333 0.593937 -0.133565 2.341805152028776e-38
1.023766 0.587741 -0.133448 2.341805152028776e-38
1.034806 0.586436 -0.134451 2.341805152028776e-38
1.047564 0.586056 -0.135688 2.341805152028776e-38
1.064692 0.587967 -0.137485 2.341805152028776e-38
1.097576 0.598268 -0.141300 2.341805152028776e-38
1.127980 0.606814 -0.144773 2.341805152028776e-38
1.160266 0.615975 -0.148466 2.341805152028776e-38
1.183853 0.620244 -0.151044 2.341805152028776e-38
1.190737 0.615628 -0.151490 2.341805152028776e-38
1.182558 0.603280 -0.150022 2.341805152028776e-38
1.179606 0.593720 -0.149224 2.341805152028776e-38
1.195275 0.593492 -0.150779 2.341805152028776e-38
1.210953 0.593156 -0.152340 2.341805152028776e-38
1.215907 0.587517 -0.152560 2.341805152028776e-38
1.219042 0.580988 -0.152550 2.341805152028776e-38
1.222141 0.574444 -0.152536 2.341805152028776e-38
1.225205 0.567884 -0.152518 2.341805152028776e-38
1.228219 0.561340 -0.152503 2.341805152028776e-38
1.231174 0.554830 -0.152497 2.341805152028776e-38
1.234094 0.548307 -0.152488 2.341805152028776e-38
1.236980 0.541769 -0.152474 2.341805152028776e-38
1.239831 0.535217 -0.152456 2.341805152028776e-38
1.242641 0.528666 -0.152437 2.341805152028776e-38
1.245386 0.522167 -0.152434 2.341805152028776e-38
1.248097 0.515655 -0.152426 2.341805152028776e-38
1.250775 0.509131 -0.152415 2.341805152028776e-38
1.253418 0.502593 -0.152399 2.341805152028776e-38
1.256027 0.496043 -0.152379 2.341805152028776e-38
1.258568 0.489559 -0.152379 2.341805152028776e-38
1.261075 0.483066 -0.152376 2.341805152028776e-38
1.263548 0.476560 -0.152370 2.341805152028776e-38
1.265988 0.470044 -0.152359 2.341805152028776e-38
1.268395 0.463516 -0.152344 2.341805152028776e-38
1.270744 0.457035 -0.152345 2.341805152028776e-38
1.273052 0.450566 -0.152350 2.341805152028776e-38
1.275327 0.444086 -0.152351 2.341805152028776e-38
1.277569 0.437595 -0.152348 2.341805152028776e-38
1.279777 0.431095 -0.152342 2.341805152028776e-38
1.281940 0.424620 -0.152344 2.341805152028776e-38
1.284054 0.418179 -0.152360 2.341805152028776e-38
1.286135 0.411729 -0.152372 2.341805152028776e-38
1.288184 0.405270 -0.152382 2.341805152028776e-38
1.290200 0.398802 -0.152388 2.341805152028776e-38
1.292181 0.392333 -0.152394 2.341805152028776e-38
1.294106 0.385925 -0.152424 2.341805152028776e-38
1.295998 0.379509 -0.152452 2.341805152028776e-38
1.297859 0.373085 -0.152478 2.341805152028776e-38
1.299689 0.366652 -0.152501 2.341805152028776e-38
1.301486 0.360211 -0.152522 2.341805152028776e-38
1.303234 0.353817 -0.152563 2.341805152028776e-38
1.304944 0.347437 -0.152612 2.341805152028776e-38
1.306622 0.341049 -0.152660 2.341805152028776e-38
1.308270 0.334653 -0.152706 2.341805152028776e-38
1.309886 0.328250 -0.152750 2.341805152028776e-38
1.311468 0.321848 -0.152796 2.341805152028776e-38
1.313011 0.315467 -0.152855 2.341805152028776e-38
1.314522 0.309079 -0.152913 2.341805152028776e-38
1.316003 0.302683 -0.152969 2.341805152028776e-38
1.317453 0.296281 -0.153024 2.341805152028776e-38
1.318872 0.289872 -0.153078 2.341805152028776e-38
1.313459 0.281995 -0.152342 2.341805152028776e-38
1.220477 0.255832 -0.141460 2.341805152028776e-38
1.199311 0.245315 -0.138913 2.341805152028776e-38
0.931049 0.599442 -0.130545 2.341805152028776e-38
0.889169 0.565390 -0.124234 2.341805152028776e-38
0.867114 0.544517 -0.120730 2.341805152028776e-38
0.857513 0.531762 -0.118979 2.341805152028776e-38
0.852031 0.521727 -0.117809 2.341805152028776e-38
0.869410 0.525646 -0.119798 2.341805152028776e-38
0.900476 0.537574 -0.123667 2.341805152028776e-38
0.931691 0.549187 -0.127536 2.341805152028776e-38
0.968213 0.563467 -0.132105 2.341805152028776e-38
1.011812 0.581315 -0.137606 2.341805152028776e-38
1.012445 0.574198 -0.137247 2.341805152028776e-38
1.027737 0.575381 -0.138885 2.341805152028776e-38
1.056096 0.583646 -0.142282 2.341805152028776e-38
1.086320 0.592568 -0.145909 2.341805152028776e-38
1.121045 0.603529 -0.150116 2.341805152028776e-38
1.152415 0.612263 -0.153851 2.341805152028776e-38
1.164544 0.610561 -0.155013 2.341805152028776e-38
1.145793 0.592815 -0.152083 2.341805152028776e-38
1.111848 0.567616 -0.147160 2.341805152028776e-38
1.116690 0.562461 -0.147383 2.341805152028776e-38
1.151748 0.572298 -0.151582 2.341805152028776e-38
1.188716 0.582668 -0.156015 2.341805152028776e-38
1.212389 0.586227 -0.158702 2.341805152028776e-38
1.218206 0.581000 -0.159045 2.341805152028776e-38
1.221305 0.574460 -0.159031 2.341805152028776e-38
1.224369 0.567905 -0.159013 2.341805152028776e-38
1.227394 0.561343 -0.158993 2.341805152028776e-38
1.230349 0.554838 -0.158989 2.341805152028776e-38
1.233270 0.548318 -0.158980 2.341805152028776e-38
1.236156 0.541784 -0.158967 2.341805152028776e-38
1.239007 0.535237 -0.158949 2.341805152028776e-38
1.231772 0.524397 -0.157641 2.341805152028776e-38
1.211604 0.508340 -0.154712 2.341805152028776e-38
1.204147 0.497831 -0.153419 2.341805152028776e-38
1.228807 0.500527 -0.156215 2.341805152028776e-38
1.249839 0.501501 -0.158539 2.341805152028776e-38
1.255213 0.496065 -0.158871 2.341805152028776e-38
1.257766 0.489560 -0.158864 2.341805152028776e-38
1.260273 0.483070 -0.158862 2.341805152028776e-38
1.262746 0.476569 -0.158856 2.341805152028776e-38
1.265186 0.470056 -0.158847 2.341805152028776e-38
1.267593 0.463532 -0.158833 2.341805152028776e-38
1.269953 0.457028 -0.158825 2.341805152028776e-38
1.272261 0.450562 -0.158831 2.341805152028776e-38
1.274536 0.444086 -0.158834 2.341805152028776e-38
1.276777 0.437599 -0.158832 2.341805152028776e-38
1.278986 0.431103 -0.158827 2.341805152028776e-38
1.281160 0.424602 -0.158821 2.341805152028776e-38
1.283273 0.418165 -0.158838 2.341805152028776e-38
1.285354 0.411718 -0.158852 2.341805152028776e-38
1.287403 0.405262 -0.158863 2.341805152028776e-38
1.289419 0.398797 -0.158870 2.341805152028776e-38
1.291403 0.392323 -0.158875 2.341805152028776e-38
1.293336 0.385895 -0.158898 2.341805152028776e-38
1.295228 0.379481 -0.158928 2.341805152028776e-38
1.297089 0.373059 -0.158956 2.341805152028776e-38
1.298918 0.366629 -0.158981 2.341805152028776e-38
1.300716 0.360191 -0.159003 2.341805152028776e-38
1.302474 0.353765 -0.159032 2.341805152028776e-38
1.304184 0.347387 -0.159084 2.341805152028776e-38
1.305862 0.341001 -0.159134 2.341805152028776e-38
1.307509 0.334607 -0.159182 2.341805152028776e-38
1.309125 0.328205 -0.159228 2.341805152028776e-38
1.310710 0.321796 -0.159273 2.341805152028776e-38
1.312255 0.315407 -0.159330 2.341805152028776e-38
1.313766 0.309021 -0.159390 2.341805152028776e-38
1.315247 0.302626 -0.159448 2.341805152028776e-38
1.316696 0.296225 -0.159506 2.341805152028776e-38
1.318115 0.289817 -0.159562 2.341805152028776e-38
1.312706 0.281942 -0.158795 2.341805152028776e-38
1.216862 0.255173 -0.147100 2.341805152028776e-38
1.197652 0.245070 -0.144680 2.341805152028776e-38
0.931957 0.600515 -0.136117 2.341805152028776e-38
0.889291 0.565911 -0.129424 2.341805152028776e-38
0.868100 0.545565 -0.125900 2.341805152028776e-38
0.858515 0.532805 -0.124078 2.341805152028776e-38
0.849660 0.520690 -0.122374 2.341805152028776e-38
0.858530 0.519483 -0.123226 2.341805152028776e-38
0.886140 0.529422 -0.126763 2.341805152028776e-38
0.936950 0.552714 -0.133594 2.341805152028776e-38
0.952882 0.554976 -0.135425 2.341805152028776e-38
0.961123 0.552625 -0.136154 2.341805152028776e-38
0.994400 0.564408 -0.140414 2.341805152028776e-38
1.017432 0.570041 -0.143212 2.341805152028776e-38
1.044874 0.577882 -0.146627 2.341805152028776e-38
1.084629 0.592097 -0.151743 2.341805152028776e-38
1.121076 0.604009 -0.156368 2.341805152028776e-38
1.146292 0.609482 -0.159403 2.341805152028776e-38
1.138196 0.597187 -0.157806 2.341805152028776e-38
1.093828 0.566350 -0.151224 2.341805152028776e-38
1.064186 0.543691 -0.146710 2.341805152028776e-38
1.045854 0.527180 -0.143776 2.341805152028776e-38
1.110914 0.552428 -0.152291 2.341805152028776e-38
1.176278 0.576987 -0.160800 2.341805152028776e-38
1.207947 0.584504 -0.164694 2.341805152028776e-38
1.216439 0.580583 -0.165417 2.341805152028776e-38
1.220434 0.574475 -0.165527 2.341805152028776e-38
1.223499 0.567925 -0.165509 2.341805152028776e-38
1.226528 0.561360 -0.165487 2.341805152028776e-38
1.229490 0.554844 -0.165480 2.341805152028776e-38
1.232411 0.548328 -0.165472 2.341805152028776e-38
1.235297 0.541799 -0.165460 2.341805152028776e-38
1.237237 0.534862 -0.165321 2.341805152028776e-38
1.219962 0.519752 -0.162622 2.341805152028776e-38
1.176917 0.494127 -0.156525 2.341805152028776e-38
1.182235 0.489111 -0.156885 2.341805152028776e-38
1.215106 0.495294 -0.160892 2.341805152028776e-38
1.246231 0.500408 -0.164650 2.341805152028776e-38
1.253443 0.495721 -0.165240 2.341805152028776e-38
1.256930 0.489559 -0.165348 2.341805152028776e-38
1.259437 0.483073 -0.165347 2.341805152028776e-38
1.261911 0.476576 -0.165343 2.341805152028776e-38
1.264351 0.470067 -0.165334 2.341805152028776e-38
1.266757 0.463548 -0.165321 2.341805152028776e-38
1.269129 0.457020 -0.165305 2.341805152028776e-38
1.271437 0.450557 -0.165312 2.341805152028776e-38
1.273711 0.444085 -0.165316 2.341805152028776e-38
1.275014 0.437280 -0.165195 2.341805152028776e-38
1.258411 0.424447 -0.162758 2.341805152028776e-38
1.238885 0.410859 -0.159953 2.341805152028776e-38
1.257925 0.410148 -0.162152 2.341805152028776e-38
1.281706 0.410796 -0.164965 2.341805152028776e-38
1.286590 0.405252 -0.165343 2.341805152028776e-38
1.288606 0.398790 -0.165352 2.341805152028776e-38
1.290590 0.392319 -0.165358 2.341805152028776e-38
1.292534 0.385863 -0.165370 2.341805152028776e-38
1.294426 0.379452 -0.165402 2.341805152028776e-38
1.296287 0.373032 -0.165432 2.341805152028776e-38
1.298116 0.366604 -0.165459 2.341805152028776e-38
1.299913 0.360169 -0.165483 2.341805152028776e-38
1.301679 0.353726 -0.165505 2.341805152028776e-38
1.303393 0.347335 -0.165552 2.341805152028776e-38
1.305071 0.340950 -0.165605 2.341805152028776e-38
1.306717 0.334558 -0.165655 2.341805152028776e-38
1.308333 0.328159 -0.165704 2.341805152028776e-38
1.309917 0.321752 -0.165751 2.341805152028776e-38
1.311468 0.315346 -0.165800 2.341805152028776e-38
1.312979 0.308960 -0.165863 2.341805152028776e-38
1.314459 0.302567 -0.165924 2.341805152028776e-38
1.315909 0.296167 -0.165984 2.341805152028776e-38
1.317327 0.289760 -0.166042 2.341805152028776e-38
1.310951 0.281679 -0.165122 2.341805152028776e-38
1.215164 0.254919 -0.152951 2.341805152028776e-38
1.194020 0.244425 -0.150189 2.341805152028776e-38
0.928663 0.598898 -0.141074 2.341805152028776e-38
0.891056 0.567497 -0.134876 2.341805152028776e-38
0.870734 0.547669 -0.131341 2.341805152028776e-38
0.858644 0.533323 -0.129069 2.341805152028776e-38
0.847265 0.519651 -0.126919 2.341805152028776e-38
0.859518 0.520513 -0.128313 2.341805152028776e-38
0.892230 0.533487 -0.132746 2.341805152028776e-38
0.928503 0.548171 -0.137692 2.341805152028776e-38
0.961539 0.560470 -0.142129 2.341805152028776e-38
0.998178 0.574397 -0.147068 2.341805152028776e-38
0.999640 0.567846 -0.146809 2.341805152028776e-38
1.001920 0.561789 -0.146674 2.341805152028776e-38
1.031901 0.571157 -0.150603 2.341805152028776e-38
1.073331 0.586394 -0.156175 2.341805152028776e-38
1.105355 0.596015 -0.160349 2.341805152028776e-38
1.123506 0.597846 -0.162492 2.341805152028776e-38
1.111849 0.583818 -0.160323 2.341805152028776e-38
1.078899 0.559051 -0.155129 2.341805152028776e-38
1.048359 0.536021 -0.150313 2.341805152028776e-38
1.040629 0.524957 -0.148785 2.341805152028776e-38
1.120727 0.557748 -0.159787 2.341805152028776e-38
1.186073 0.582253 -0.168631 2.341805152028776e-38
1.207046 0.584509 -0.171155 2.341805152028776e-38
1.215535 0.580592 -0.171907 2.341805152028776e-38
1.219529 0.574489 -0.172022 2.341805152028776e-38
1.222593 0.567944 -0.172006 2.341805152028776e-38
1.225623 0.561384 -0.171985 2.341805152028776e-38
1.228597 0.554849 -0.171971 2.341805152028776e-38
1.231517 0.548338 -0.171964 2.341805152028776e-38
1.234403 0.541813 -0.171953 2.341805152028776e-38
1.235434 0.534487 -0.171684 2.341805152028776e-38
1.230947 0.524833 -0.170651 2.341805152028776e-38
1.187058 0.498740 -0.164182 2.341805152028776e-38
1.215310 0.503157 -0.167719 2.341805152028776e-38
1.235374 0.503922 -0.170114 2.341805152028776e-38
1.246274 0.500794 -0.171239 2.341805152028776e-38
1.252563 0.495742 -0.171727 2.341805152028776e-38
1.256060 0.489558 -0.171832 2.341805152028776e-38
1.258568 0.483075 -0.171832 2.341805152028776e-38
1.261042 0.476582 -0.171829 2.341805152028776e-38
1.263482 0.470077 -0.171821 2.341805152028776e-38
1.265888 0.463562 -0.171810 2.341805152028776e-38
1.268261 0.457036 -0.171794 2.341805152028776e-38
1.270579 0.450551 -0.171793 2.341805152028776e-38
1.272854 0.444082 -0.171798 2.341805152028776e-38
1.272281 0.436637 -0.171420 2.341805152028776e-38
1.232190 0.415887 -0.165729 2.341805152028776e-38
1.259709 0.418054 -0.169136 2.341805152028776e-38
1.273127 0.415361 -0.170652 2.341805152028776e-38
1.280862 0.410781 -0.171428 2.341805152028776e-38
1.285745 0.405240 -0.171822 2.341805152028776e-38
1.287761 0.398781 -0.171833 2.341805152028776e-38
1.289745 0.392314 -0.171840 2.341805152028776e-38
1.291696 0.385839 -0.171844 2.341805152028776e-38
1.293592 0.379420 -0.171874 2.341805152028776e-38
1.295453 0.373003 -0.171906 2.341805152028776e-38
1.297282 0.366578 -0.171935 2.341805152028776e-38
1.299079 0.360145 -0.171961 2.341805152028776e-38
1.277871 0.347458 -0.168947 2.341805152028776e-38
1.246978 0.332459 -0.164676 2.341805152028776e-38
1.260100 0.329359 -0.166248 2.341805152028776e-38
1.292441 0.331061 -0.170352 2.341805152028776e-38
1.305585 0.327627 -0.171923 2.341805152028776e-38
1.309093 0.321704 -0.172226 2.341805152028776e-38
1.310646 0.315292 -0.172273 2.341805152028776e-38
1.312161 0.308897 -0.172332 2.341805152028776e-38
1.313640 0.302505 -0.172396 2.341805152028776e-38
1.315089 0.296107 -0.172458 2.341805152028776e-38
1.316507 0.289701 -0.172519 2.341805152028776e-38
1.310136 0.281621 -0.171562 2.341805152028776e-38
1.210526 0.254052 -0.158409 2.341805152028776e-38
1.190364 0.243778 -0.155665 2.341805152028776e-38
0.922844 0.595668 -0.145608 2.341805152028776e-38
0.888608 0.566417 -0.139699 2.341805152028776e-38
0.868301 0.546602 -0.136032 2.341805152028776e-38
0.856218 0.532270 -0.133675 2.341805152028776e-38
0.849915 0.521723 -0.132234 2.341805152028776e-38
0.853693 0.517432 -0.132366 2.341805152028776e-38
0.888924 0.531951 -0.137358 2.341805152028776e-38
0.958446 0.566320 -0.147619 2.341805152028776e-38
1.003545 0.585445 -0.154064 2.341805152028776e-38
1.015383 0.584790 -0.155379 2.341805152028776e-38
0.997082 0.566873 -0.152088 2.341805152028776e-38
0.995039 0.558398 -0.151290 2.341805152028776e-38
1.029322 0.570194 -0.156023 2.341805152028776e-38
1.069846 0.584970 -0.161675 2.341805152028776e-38
1.095732 0.591315 -0.165088 2.341805152028776e-38
1.105970 0.589005 -0.166130 2.341805152028776e-38
1.116215 0.586603 -0.167167 2.341805152028776e-38
1.108841 0.575026 -0.165583 2.341805152028776e-38
1.089004 0.557251 -0.162163 2.341805152028776e-38
1.130069 0.570539 -0.167806 2.341805152028776e-38
1.172196 0.583840 -0.173574 2.341805152028776e-38
1.194926 0.587084 -0.176446 2.341805152028776e-38
1.207894 0.585377 -0.177877 2.341805152028776e-38
1.214595 0.580601 -0.178397 2.341805152028776e-38
1.218589 0.574503 -0.178518 2.341805152028776e-38
1.221653 0.567962 -0.178502 2.341805152028776e-38
1.224683 0.561407 -0.178482 2.341805152028776e-38
1.227669 0.554852 -0.178461 2.341805152028776e-38
1.230590 0.548346 -0.178456 2.341805152028776e-38
1.233476 0.541826 -0.178446 2.341805152028776e-38
1.235417 0.534899 -0.178300 2.341805152028776e-38
1.234585 0.526801 -0.177755 2.341805152028776e-38
1.231874 0.517959 -0.176943 2.341805152028776e-38
1.235482 0.511891 -0.177069 2.341805152028776e-38
1.242729 0.507304 -0.177718 2.341805152028776e-38
1.248122 0.501918 -0.178100 2.341805152028776e-38
1.251649 0.495761 -0.178215 2.341805152028776e-38
1.255146 0.489582 -0.178325 2.341805152028776e-38
1.257665 0.483075 -0.178316 2.341805152028776e-38
1.260139 0.476586 -0.178315 2.341805152028776e-38
1.262579 0.470086 -0.178309 2.341805152028776e-38
1.264986 0.463575 -0.178298 2.341805152028776e-38
1.267359 0.457054 -0.178283 2.341805152028776e-38
1.269689 0.450543 -0.178272 2.341805152028776e-38
1.271964 0.444078 -0.178279 2.341805152028776e-38
1.271393 0.436636 -0.177889 2.341805152028776e-38
1.268901 0.428580 -0.177232 2.341805152028776e-38
1.272005 0.422436 -0.177359 2.341805152028776e-38
1.277906 0.417196 -0.177874 2.341805152028776e-38
1.281874 0.411370 -0.178152 2.341805152028776e-38
1.284866 0.405226 -0.178300 2.341805152028776e-38
1.286883 0.398771 -0.178312 2.341805152028776e-38
1.288867 0.392308 -0.178322 2.341805152028776e-38
1.290818 0.385836 -0.178328 2.341805152028776e-38
1.292726 0.379385 -0.178344 2.341805152028776e-38
1.294587 0.372971 -0.178378 2.341805152028776e-38
1.296416 0.366549 -0.178409 2.341805152028776e-38
1.297257 0.359854 -0.178306 2.341805152028776e-38
1.248323 0.339628 -0.171372 2.341805152028776e-38
1.257650 0.335483 -0.172444 2.341805152028776e-38
1.283252 0.335576 -0.175778 2.341805152028776e-38
1.297356 0.332485 -0.177541 2.341805152028776e-38
1.304731 0.327575 -0.178383 2.341805152028776e-38
1.308238 0.321655 -0.178697 2.341805152028776e-38
1.309791 0.315244 -0.178747 2.341805152028776e-38
1.311311 0.308832 -0.178797 2.341805152028776e-38
1.312790 0.302441 -0.178863 2.341805152028776e-38
1.314239 0.296044 -0.178928 2.341805152028776e-38
1.315657 0.289640 -0.178991 2.341805152028776e-38
1.309290 0.281562 -0.177999 2.341805152028776e-38
1.214595 0.255017 -0.165011 2.341805152028776e-38
1.208047 0.247507 -0.164010 2.341805152028776e-38
0.925326 0.597813 -0.151446 2.341805152028776e-38
0.889473 0.567472 -0.145049 2.341805152028776e-38
0.868357 0.547119 -0.141112 2.341805152028776e-38
0.857973 0.533833 -0.138943 2.341805152028776e-38
0.852531 0.523795 -0.137587 2.341805152028776e-38
0.853780 0.517946 -0.137316 2.341805152028776e-38
0.884736 0.529919 -0.141809 2.341805152028776e-38
0.959314 0.567322 -0.153258 2.341805152028776e-38
1.006093 0.587440 -0.160211 2.341805152028776e-38
1.003343 0.578360 -0.159258 2.341805152028776e-38
0.982442 0.559040 -0.155440 2.341805152028776e-38
0.983816 0.552587 -0.155160 2.341805152028776e-38
1.017184 0.563947 -0.159925 2.341805152028776e-38
1.060249 0.580216 -0.166193 2.341805152028776e-38
1.077374 0.581906 -0.168369 2.341805152028776e-38
1.093674 0.582959 -0.170403 2.341805152028776e-38
1.112648 0.585236 -0.172842 2.341805152028776e-38
1.130786 0.586892 -0.175146 2.341805152028776e-38
1.153358 0.590674 -0.178140 2.341805152028776e-38
1.175120 0.593782 -0.180992 2.341805152028776e-38
1.189855 0.593137 -0.182750 2.341805152028776e-38
1.201062 0.590602 -0.183958 2.341805152028776e-38
1.208706 0.586245 -0.184618 2.341805152028776e-38
1.213621 0.580608 -0.184886 2.341805152028776e-38
1.217614 0.574515 -0.185013 2.341805152028776e-38
1.220678 0.567980 -0.184999 2.341805152028776e-38
1.223708 0.561430 -0.184980 2.341805152028776e-38
1.226702 0.554865 -0.184955 2.341805152028776e-38
1.229628 0.548353 -0.184948 2.341805152028776e-38
1.232514 0.541838 -0.184939 2.341805152028776e-38
1.235365 0.535309 -0.184925 2.341805152028776e-38
1.237271 0.528378 -0.184770 2.341805152028776e-38
1.239138 0.521444 -0.184611 2.341805152028776e-38
1.241861 0.514931 -0.184598 2.341805152028776e-38
1.245452 0.508812 -0.184728 2.341805152028776e-38
1.248093 0.502302 -0.184717 2.341805152028776e-38
1.251622 0.496144 -0.184838 2.341805152028776e-38
1.254197 0.489605 -0.184818 2.341805152028776e-38
1.256729 0.483074 -0.184800 2.341805152028776e-38
1.259203 0.476590 -0.184800 2.341805152028776e-38
1.261643 0.470094 -0.184795 2.341805152028776e-38
1.264050 0.463587 -0.184786 2.341805152028776e-38
1.266423 0.457070 -0.184773 2.341805152028776e-38
1.268762 0.450543 -0.184755 2.341805152028776e-38
1.271041 0.444072 -0.184760 2.341805152028776e-38
1.272346 0.437278 -0.184629 2.341805152028776e-38
1.273614 0.430485 -0.184494 2.341805152028776e-38
1.275787 0.424004 -0.184490 2.341805152028776e-38
1.278869 0.417822 -0.184619 2.341805152028776e-38
1.281908 0.411654 -0.184758 2.341805152028776e-38
1.283956 0.405211 -0.184776 2.341805152028776e-38
1.285972 0.398759 -0.184791 2.341805152028776e-38
1.287956 0.392299 -0.184802 2.341805152028776e-38
1.289907 0.385831 -0.184810 2.341805152028776e-38
1.291826 0.379355 -0.184814 2.341805152028776e-38
1.293689 0.372937 -0.184847 2.341805152028776e-38
1.295517 0.366518 -0.184881 2.341805152028776e-38
1.294450 0.359296 -0.184503 2.341805152028776e-38
1.289520 0.351053 -0.183578 2.341805152028776e-38
1.289326 0.344148 -0.183331 2.341805152028776e-38
1.294839 0.338779 -0.183909 2.341805152028776e-38
1.301273 0.333660 -0.184647 2.341805152028776e-38
1.304806 0.327763 -0.184975 2.341805152028776e-38
1.307351 0.321603 -0.185165 2.341805152028776e-38
1.308903 0.315195 -0.185217 2.341805152028776e-38
1.310425 0.308779 -0.185267 2.341805152028776e-38
1.311909 0.302375 -0.185327 2.341805152028776e-38
1.313357 0.295979 -0.185393 2.341805152028776e-38
1.314774 0.289576 -0.185459 2.341805152028776e-38
1.308413 0.281500 -0.184431 2.341805152028776e-38
1.239958 0.260459 -0.174661 2.341805152028776e-38
1.228588 0.251828 -0.172942 2.341805152028776e-38
0.931096 0.602107 -0.157886 2.341805152028776e-38
0.890298 0.568535 -0.150420 2.341805152028776e-38
0.869222 0.548162 -0.146342 2.341805152028776e-38
0.859696 0.535394 -0.144239 2.341805152028776e-38
0.853428 0.524827 -0.142695 2.341805152028776e-38
0.850452 0.516405 -0.141711 2.341805152028776e-38
0.877977 0.526359 -0.145799 2.341805152028776e-38
0.946517 0.560254 -0.156659 2.341805152028776e-38
0.997491 0.582940 -0.164562 2.341805152028776e-38
0.995580 0.574402 -0.163719 2.341805152028776e-38
0.977260 0.556596 -0.160191 2.341805152028776e-38
0.977758 0.549686 -0.159761 2.341805152028776e-38
1.010229 0.560580 -0.164548 2.341805152028776e-38
1.054109 0.577363 -0.171178 2.341805152028776e-38
1.074689 0.580969 -0.173996 2.341805152028776e-38
1.090972 0.582038 -0.176104 2.341805152028776e-38
1.116060 0.587557 -0.179616 2.341805152028776e-38
1.147389 0.596018 -0.184110 2.341805152028776e-38
1.171755 0.600613 -0.187493 2.341805152028776e-38
1.188254 0.600940 -0.189601 2.341805152028776e-38
1.197703 0.597571 -0.190577 2.341805152028776e-38
1.204486 0.592808 -0.191124 2.341805152028776e-38
1.209471 0.587125 -0.191383 2.341805152028776e-38
1.213504 0.581042 -0.191517 2.341805152028776e-38
1.216604 0.574526 -0.191509 2.341805152028776e-38
1.219668 0.567996 -0.191496 2.341805152028776e-38
1.222698 0.561451 -0.191478 2.341805152028776e-38
1.225692 0.554892 -0.191454 2.341805152028776e-38
1.228631 0.548359 -0.191439 2.341805152028776e-38
1.231517 0.541849 -0.191432 2.341805152028776e-38
1.234369 0.535325 -0.191419 2.341805152028776e-38
1.237186 0.528788 -0.191402 2.341805152028776e-38
1.239969 0.522238 -0.191379 2.341805152028776e-38
1.242708 0.515693 -0.191358 2.341805152028776e-38
1.245386 0.509194 -0.191353 2.341805152028776e-38
1.248029 0.502684 -0.191344 2.341805152028776e-38
1.250639 0.496161 -0.191330 2.341805152028776e-38
1.253214 0.489627 -0.191311 2.341805152028776e-38
1.255755 0.483082 -0.191288 2.341805152028776e-38
1.258234 0.476591 -0.191285 2.341805152028776e-38
1.260674 0.470100 -0.191282 2.341805152028776e-38
1.263080 0.463598 -0.191275 2.341805152028776e-38
1.265454 0.457085 -0.191263 2.341805152028776e-38
1.267793 0.450563 -0.191246 2.341805152028776e-38
1.270085 0.444064 -0.191239 2.341805152028776e-38
1.272327 0.437597 -0.191246 2.341805152028776e-38
1.274536 0.431120 -0.191249 2.341805152028776e-38
1.276711 0.424634 -0.191247 2.341805152028776e-38
1.278854 0.418138 -0.191241 2.341805152028776e-38
1.280964 0.411634 -0.191232 2.341805152028776e-38
1.283013 0.405193 -0.191251 2.341805152028776e-38
1.285029 0.398745 -0.191268 2.341805152028776e-38
1.287013 0.392289 -0.191281 2.341805152028776e-38
1.288964 0.385824 -0.191291 2.341805152028776e-38
1.290883 0.379352 -0.191297 2.341805152028776e-38
1.292758 0.372901 -0.191315 2.341805152028776e-38
1.294587 0.366485 -0.191350 2.341805152028776e-38
1.295429 0.359795 -0.191243 2.341805152028776e-38
1.296238 0.353108 -0.191132 2.341805152028776e-38
1.297012 0.346423 -0.191018 2.341805152028776e-38
1.299667 0.340241 -0.191183 2.341805152028776e-38
1.302275 0.334094 -0.191374 2.341805152028776e-38
1.304849 0.327948 -0.191574 2.341805152028776e-38
1.306432 0.321549 -0.191630 2.341805152028776e-38
1.307984 0.315142 -0.191685 2.341805152028776e-38
1.309505 0.308729 -0.191737 2.341805152028776e-38
1.310995 0.302309 -0.191787 2.341805152028776e-38
1.312444 0.295912 -0.191855 2.341805152028776e-38
1.313861 0.289510 -0.191923 2.341805152028776e-38
1.309440 0.281852 -0.191141 2.341805152028776e-38
1.264287 0.265693 -0.184422 2.341805152028776e-38
1.252951 0.256942 -0.182645 2.341805152028776e-38
0.925196 0.598872 -0.162361 2.341805152028776e-38
0.891091 0.569597 -0.155809 2.341805152028776e-38
0.870892 0.549732 -0.151736 2.341805152028776e-38
0.861387 0.536954 -0.149563 2.341805152028776e-38
0.855979 0.526896 -0.148114 2.341805152028776e-38
0.854712 0.519486 -0.147389 2.341805152028776e-38
0.874596 0.524835 -0.150305 2.341805152028776e-38
0.931160 0.551671 -0.159488 2.341805152028776e-38
0.981187 0.573944 -0.167515 2.341805152028776e-38
0.979231 0.565496 -0.166644 2.341805152028776e-38
0.964319 0.549740 -0.163581 2.341805152028776e-38
0.964782 0.542903 -0.163138 2.341805152028776e-38
0.992874 0.551450 -0.167355 2.341805152028776e-38
1.037536 0.568802 -0.174356 2.341805152028776e-38
1.060663 0.573911 -0.177709 2.341805152028776e-38
1.084751 0.579251 -0.181201 2.341805152028776e-38
1.117681 0.588956 -0.186147 2.341805152028776e-38
1.144605 0.595122 -0.190065 2.341805152028776e-38
1.165438 0.597906 -0.192975 2.341805152028776e-38
1.184558 0.599607 -0.195594 2.341805152028776e-38
1.196650 0.597585 -0.197041 2.341805152028776e-38
1.204317 0.593264 -0.197755 2.341805152028776e-38
1.209303 0.587582 -0.198025 2.341805152028776e-38
1.212459 0.581047 -0.198010 2.341805152028776e-38
1.215559 0.574536 -0.198004 2.341805152028776e-38
1.218624 0.568011 -0.197992 2.341805152028776e-38
1.221653 0.561471 -0.197975 2.341805152028776e-38
1.224648 0.554918 -0.197953 2.341805152028776e-38
1.227600 0.548363 -0.197930 2.341805152028776e-38
1.230487 0.541858 -0.197924 2.341805152028776e-38
1.233338 0.535339 -0.197913 2.341805152028776e-38
1.236156 0.528807 -0.197897 2.341805152028776e-38
1.238938 0.522263 -0.197876 2.341805152028776e-38
1.241686 0.515706 -0.197849 2.341805152028776e-38
1.244369 0.509200 -0.197842 2.341805152028776e-38
1.247013 0.502694 -0.197835 2.341805152028776e-38
1.249622 0.496177 -0.197822 2.341805152028776e-38
1.252198 0.489648 -0.197805 2.341805152028776e-38
1.254739 0.483108 -0.197782 2.341805152028776e-38
1.257231 0.476591 -0.197769 2.341805152028776e-38
1.259671 0.470104 -0.197768 2.341805152028776e-38
1.262078 0.463606 -0.197762 2.341805152028776e-38
1.264451 0.457099 -0.197752 2.341805152028776e-38
1.266791 0.450581 -0.197737 2.341805152028776e-38
1.269096 0.444054 -0.197718 2.341805152028776e-38
1.271338 0.437591 -0.197726 2.341805152028776e-38
1.273546 0.431118 -0.197731 2.341805152028776e-38
1.275722 0.424636 -0.197731 2.341805152028776e-38
1.277865 0.418145 -0.197728 2.341805152028776e-38
1.279975 0.411645 -0.197719 2.341805152028776e-38
1.282038 0.405174 -0.197725 2.341805152028776e-38
1.284054 0.398729 -0.197744 2.341805152028776e-38
1.286037 0.392276 -0.197759 2.341805152028776e-38
1.287988 0.385815 -0.197771 2.341805152028776e-38
1.289907 0.379346 -0.197779 2.341805152028776e-38
1.291794 0.372870 -0.197783 2.341805152028776e-38
1.293624 0.366449 -0.197818 2.341805152028776e-38
1.295421 0.360028 -0.197853 2.341805152028776e-38
1.297186 0.353599 -0.197885 2.341805152028776e-38
1.298918 0.347162 -0.197915 2.341805152028776e-38
1.300619 0.340719 -0.197941 2.341805152028776e-38
1.302285 0.334280 -0.197972 2.341805152028776e-38
1.303899 0.327890 -0.198032 2.341805152028776e-38
1.305482 0.321492 -0.198091 2.341805152028776e-38
1.307034 0.315088 -0.198148 2.341805152028776e-38
1.308555 0.308676 -0.198203 2.341805152028776e-38
1.310044 0.302258 -0.198255 2.341805152028776e-38
1.311499 0.295842 -0.198312 2.341805152028776e-38
1.312916 0.289442 -0.198382 2.341805152028776e-38
1.310433 0.282203 -0.197866 2.341805152028776e-38
1.289518 0.271127 -0.194573 2.341805152028776e-38
1.271433 0.260858 -0.191715 2.341805152028776e-38
0.924253 0.598862 -0.167681 2.341805152028776e-38
0.888521 0.568526 -0.160615 2.341805152028776e-38
0.870021 0.549716 -0.156706 2.341805152028776e-38
0.861368 0.537466 -0.154613 2.341805152028776e-38
0.855129 0.526888 -0.152968 2.341805152028776e-38
0.854711 0.519997 -0.152371 2.341805152028776e-38
0.862717 0.518219 -0.153276 2.341805152028776e-38
0.910695 0.540068 -0.161253 2.341805152028776e-38
0.964882 0.564945 -0.170295 2.341805152028776e-38
0.963737 0.557083 -0.169547 2.341805152028776e-38
0.953089 0.543863 -0.167138 2.341805152028776e-38
0.956967 0.539028 -0.167285 2.341805152028776e-38
0.986742 0.548580 -0.171943 2.341805152028776e-38
1.027893 0.564044 -0.178567 2.341805152028776e-38
1.055323 0.571560 -0.182783 2.341805152028776e-38
1.084609 0.579724 -0.187296 2.341805152028776e-38
1.117514 0.589430 -0.192405 2.341805152028776e-38
1.141788 0.594229 -0.196002 2.341805152028776e-38
1.170528 0.601068 -0.200356 2.341805152028776e-38
1.188769 0.602295 -0.202912 2.341805152028776e-38
1.198215 0.598922 -0.203957 2.341805152028776e-38
1.204112 0.593719 -0.204395 2.341805152028776e-38
1.208209 0.587605 -0.204526 2.341805152028776e-38
1.211380 0.581049 -0.204503 2.341805152028776e-38
1.214479 0.574544 -0.204499 2.341805152028776e-38
1.217544 0.568024 -0.204489 2.341805152028776e-38
1.220574 0.561490 -0.204473 2.341805152028776e-38
1.223568 0.554942 -0.204452 2.341805152028776e-38
1.226528 0.548380 -0.204426 2.341805152028776e-38
1.229421 0.541865 -0.204416 2.341805152028776e-38
1.232273 0.535352 -0.204407 2.341805152028776e-38
1.235090 0.528825 -0.204393 2.341805152028776e-38
1.237873 0.522286 -0.204373 2.341805152028776e-38
1.240621 0.515735 -0.204348 2.341805152028776e-38
1.243319 0.509204 -0.204330 2.341805152028776e-38
1.245962 0.502703 -0.204325 2.341805152028776e-38
1.248572 0.496191 -0.204314 2.341805152028776e-38
1.251147 0.489667 -0.204298 2.341805152028776e-38
1.253689 0.483132 -0.204277 2.341805152028776e-38
1.256195 0.476589 -0.204252 2.341805152028776e-38
1.258635 0.470106 -0.204253 2.341805152028776e-38
1.261042 0.463614 -0.204249 2.341805152028776e-38
1.263415 0.457110 -0.204241 2.341805152028776e-38
1.265754 0.450597 -0.204228 2.341805152028776e-38
1.268060 0.444074 -0.204209 2.341805152028776e-38
1.270316 0.437583 -0.204206 2.341805152028776e-38
1.272524 0.431115 -0.204212 2.341805152028776e-38
1.274700 0.424637 -0.204215 2.341805152028776e-38
1.276843 0.418150 -0.204213 2.341805152028776e-38
1.278953 0.411655 -0.204207 2.341805152028776e-38
1.281030 0.405152 -0.204196 2.341805152028776e-38
1.283046 0.398711 -0.204218 2.341805152028776e-38
1.285029 0.392262 -0.204235 2.341805152028776e-38
1.286980 0.385804 -0.204249 2.341805152028776e-38
1.288899 0.379339 -0.204260 2.341805152028776e-38
1.290785 0.372867 -0.204266 2.341805152028776e-38
1.292630 0.366411 -0.204282 2.341805152028776e-38
1.294426 0.359993 -0.204320 2.341805152028776e-38
1.296191 0.353566 -0.204355 2.341805152028776e-38
1.297924 0.347133 -0.204387 2.341805152028776e-38
1.299625 0.340693 -0.204416 2.341805152028776e-38
1.301293 0.334245 -0.204441 2.341805152028776e-38
1.302918 0.327829 -0.204487 2.341805152028776e-38
1.304501 0.321433 -0.204548 2.341805152028776e-38
1.306052 0.315031 -0.204608 2.341805152028776e-38
1.307573 0.308621 -0.204665 2.341805152028776e-38
1.309062 0.302205 -0.204720 2.341805152028776e-38
1.310520 0.295783 -0.204773 2.341805152028776e-38
1.311940 0.289372 -0.204836 2.341805152028776e-38
1.311393 0.282550 -0.204605 2.341805152028776e-38
1.299202 0.273299 -0.202563 2.341805152028776e-38
1.283079 0.263378 -0.199914 2.341805152028776e-38
0.924108 0.599388 -0.173157 2.341805152028776e-38
0.891748 0.571184 -0.166489 2.341805152028776e-38
0.874960 0.553405 -0.162766 2.341805152028776e-38
0.866346 0.541116 -0.160605 2.341805152028776e-38
0.860138 0.530510 -0.158908 2.341805152028776e-38
0.855524 0.521020 -0.157518 2.341805152028776e-38
0.861838 0.518219 -0.158142 2.341805152028776e-38
0.902125 0.535535 -0.164975 2.341805152028776e-38
0.944316 0.553448 -0.172125 2.341805152028776e-38
0.943966 0.546195 -0.171511 2.341805152028776e-38
0.934986 0.534065 -0.169338 2.341805152028776e-38
0.942251 0.531272 -0.170112 2.341805152028776e-38
0.973683 0.541866 -0.175230 2.341805152028776e-38
1.006115 0.552626 -0.180506 2.341805152028776e-38
1.036063 0.561674 -0.185324 2.341805152028776e-38
1.069625 0.572274 -0.190758 2.341805152028776e-38
1.105081 0.583446 -0.196497 2.341805152028776e-38
1.139816 0.593790 -0.202075 2.341805152028776e-38
1.164150 0.598358 -0.205784 2.341805152028776e-38
1.183244 0.600065 -0.208579 2.341805152028776e-38
1.194438 0.597607 -0.209970 2.341805152028776e-38
1.202983 0.593735 -0.210889 2.341805152028776e-38
1.207080 0.587627 -0.211026 2.341805152028776e-38
1.210256 0.581068 -0.211002 2.341805152028776e-38
1.213365 0.574551 -0.210993 2.341805152028776e-38
1.216430 0.568036 -0.210985 2.341805152028776e-38
1.219459 0.561508 -0.210971 2.341805152028776e-38
1.222454 0.554965 -0.210952 2.341805152028776e-38
1.225414 0.548409 -0.210926 2.341805152028776e-38
1.228322 0.541871 -0.210908 2.341805152028776e-38
1.231174 0.535363 -0.210900 2.341805152028776e-38
1.233991 0.528842 -0.210888 2.341805152028776e-38
1.236774 0.522308 -0.210870 2.341805152028776e-38
1.239522 0.515762 -0.210846 2.341805152028776e-38
1.242234 0.509207 -0.210818 2.341805152028776e-38
1.244878 0.502711 -0.210814 2.341805152028776e-38
1.247487 0.496203 -0.210805 2.341805152028776e-38
1.250063 0.489685 -0.210791 2.341805152028776e-38
1.252604 0.483155 -0.210772 2.341805152028776e-38
1.255112 0.476614 -0.210748 2.341805152028776e-38
1.257565 0.470107 -0.210738 2.341805152028776e-38
1.259972 0.463619 -0.210736 2.341805152028776e-38
1.262345 0.457120 -0.210729 2.341805152028776e-38
1.264685 0.450612 -0.210718 2.341805152028776e-38
1.266991 0.444094 -0.210702 2.341805152028776e-38
1.269261 0.437574 -0.210684 2.341805152028776e-38
1.271469 0.431109 -0.210692 2.341805152028776e-38
1.273645 0.424635 -0.210697 2.341805152028776e-38
1.275788 0.418153 -0.210697 2.341805152028776e-38
1.277898 0.411662 -0.210693 2.341805152028776e-38
1.279975 0.405163 -0.210685 2.341805152028776e-38
1.282005 0.398690 -0.210690 2.341805152028776e-38
1.283988 0.392245 -0.210710 2.341805152028776e-38
1.285940 0.385791 -0.210726 2.341805152028776e-38
1.287858 0.379330 -0.210739 2.341805152028776e-38
1.289745 0.372861 -0.210747 2.341805152028776e-38
1.291599 0.366385 -0.210752 2.341805152028776e-38
1.293400 0.359955 -0.210784 2.341805152028776e-38
1.295164 0.353532 -0.210822 2.341805152028776e-38
1.296897 0.347101 -0.210856 2.341805152028776e-38
1.298598 0.340664 -0.210887 2.341805152028776e-38
1.300266 0.334220 -0.210915 2.341805152028776e-38
1.301903 0.327769 -0.210941 2.341805152028776e-38
1.303487 0.321372 -0.211002 2.341805152028776e-38
1.305039 0.314971 -0.211063 2.341805152028776e-38
1.306559 0.308564 -0.211123 2.341805152028776e-38
1.308048 0.302150 -0.211180 2.341805152028776e-38
1.309505 0.295730 -0.211236 2.341805152028776e-38
1.310932 0.289303 -0.211289 2.341805152028776e-38
1.311352 0.282688 -0.211203 2.341805152028776e-38
1.308839 0.275468 -0.210652 2.341805152028776e-38
1.287902 0.264505 -0.207142 2.341805152028776e-38
0.931383 0.604750 -0.180081 2.341805152028776e-38
0.894106 0.573307 -0.172249 2.341805152028776e-38
0.877351 0.555514 -0.168414 2.341805152028776e-38
0.870448 0.544240 -0.166503 2.341805152028776e-38
0.863426 0.533092 -0.164595 2.341805152028776e-38
0.857150 0.522556 -0.162843 2.341805152028776e-38
0.856703 0.515672 -0.162207 2.341805152028776e-38
0.895240 0.532009 -0.168932 2.341805152028776e-38
0.939936 0.551440 -0.176777 2.341805152028776e-38
0.942141 0.545695 -0.176626 2.341805152028776e-38
0.932314 0.533084 -0.174228 2.341805152028776e-38
0.932692 0.526424 -0.173746 2.341805152028776e-38
0.954583 0.531788 -0.177263 2.341805152028776e-38
0.993861 0.546438 -0.183976 2.341805152028776e-38
1.024616 0.556023 -0.189104 2.341805152028776e-38
1.065078 0.570415 -0.195989 2.341805152028776e-38
1.109219 0.586224 -0.203508 2.341805152028776e-38
1.145688 0.597458 -0.209579 2.341805152028776e-38
1.172658 0.603343 -0.213883 2.341805152028776e-38
1.186494 0.602302 -0.215798 2.341805152028776e-38
1.195927 0.598942 -0.216914 2.341805152028776e-38
1.201820 0.593749 -0.217384 2.341805152028776e-38
1.205916 0.587648 -0.217527 2.341805152028776e-38
1.209092 0.581094 -0.217505 2.341805152028776e-38
1.212216 0.574555 -0.217487 2.341805152028776e-38
1.215280 0.568046 -0.217481 2.341805152028776e-38
1.218310 0.561523 -0.217469 2.341805152028776e-38
1.221305 0.554987 -0.217451 2.341805152028776e-38
1.224265 0.548436 -0.217427 2.341805152028776e-38
1.227188 0.541875 -0.217399 2.341805152028776e-38
1.230040 0.535372 -0.217393 2.341805152028776e-38
1.232857 0.528856 -0.217383 2.341805152028776e-38
1.235640 0.522328 -0.217366 2.341805152028776e-38
1.238388 0.515787 -0.217344 2.341805152028776e-38
1.241102 0.509235 -0.217317 2.341805152028776e-38
1.243759 0.502716 -0.217303 2.341805152028776e-38
1.246369 0.496214 -0.217296 2.341805152028776e-38
1.248945 0.489700 -0.217284 2.341805152028776e-38
1.251486 0.483176 -0.217267 2.341805152028776e-38
1.253994 0.476640 -0.217244 2.341805152028776e-38
1.256462 0.470105 -0.217221 2.341805152028776e-38
1.258869 0.463622 -0.217221 2.341805152028776e-38
1.261242 0.457128 -0.217217 2.341805152028776e-38
1.263582 0.450625 -0.217208 2.341805152028776e-38
1.265888 0.444112 -0.217193 2.341805152028776e-38
1.268161 0.437590 -0.217174 2.341805152028776e-38
1.270382 0.431101 -0.217171 2.341805152028776e-38
1.272557 0.424632 -0.217178 2.341805152028776e-38
1.274700 0.418154 -0.217181 2.341805152028776e-38
1.276810 0.411667 -0.217179 2.341805152028776e-38
1.278887 0.405172 -0.217172 2.341805152028776e-38
1.280931 0.398670 -0.217161 2.341805152028776e-38
1.282915 0.392225 -0.217183 2.341805152028776e-38
1.284866 0.385775 -0.217201 2.341805152028776e-38
1.286785 0.379318 -0.217216 2.341805152028776e-38
1.288671 0.372853 -0.217227 2.341805152028776e-38
1.290525 0.366381 -0.217235 2.341805152028776e-38
1.292341 0.359915 -0.217246 2.341805152028776e-38
1.294106 0.353495 -0.217286 2.341805152028776e-38
1.295838 0.347067 -0.217323 2.341805152028776e-38
1.297539 0.340633 -0.217356 2.341805152028776e-38
1.299207 0.334192 -0.217387 2.341805152028776e-38
1.300844 0.327744 -0.217415 2.341805152028776e-38
1.302443 0.321308 -0.217451 2.341805152028776e-38
1.303994 0.314910 -0.217515 2.341805152028776e-38
1.305514 0.308505 -0.217577 2.341805152028776e-38
1.307002 0.302093 -0.217637 2.341805152028776e-38
1.308460 0.295674 -0.217694 2.341805152028776e-38
1.309886 0.289250 -0.217750 2.341805152028776e-38
1.311279 0.282822 -0.217806 2.341805152028776e-38
1.309735 0.275804 -0.217398 2.341805152028776e-38
1.287850 0.264635 -0.213621 2.341805152028776e-38
0.927857 0.603121 -0.184957 2.341805152028776e-38
0.893937 0.573830 -0.177553 2.341805152028776e-38
0.880540 0.558149 -0.174264 2.341805152028776e-38
0.873674 0.546840 -0.172292 2.341805152028776e-38
0.866679 0.535673 -0.170329 2.341805152028776e-38
0.855376 0.522035 -0.167537 2.341805152028776e-38
0.859998 0.518215 -0.167872 2.341805152028776e-38
0.895120 0.532515 -0.174140 2.341805152028776e-38
0.933831 0.548434 -0.181062 2.341805152028776e-38
0.933462 0.541235 -0.180412 2.341805152028776e-38
0.913353 0.522793 -0.175964 2.341805152028776e-38
0.910241 0.514297 -0.174810 2.341805152028776e-38
0.935491 0.521708 -0.179094 2.341805152028776e-38
0.973811 0.535988 -0.185845 2.341805152028776e-38
1.008826 0.548017 -0.191945 2.341805152028776e-38
1.055291 0.565757 -0.200191 2.341805152028776e-38
1.115057 0.589922 -0.210905 2.341805152028776e-38
1.157633 0.604319 -0.218314 2.341805152028776e-38
1.180232 0.607880 -0.221924 2.341805152028776e-38
1.190579 0.604984 -0.223229 2.341805152028776e-38
1.196494 0.599832 -0.223721 2.341805152028776e-38
1.201505 0.594199 -0.224042 2.341805152028776e-38
1.204716 0.587666 -0.224028 2.341805152028776e-38
1.207892 0.581119 -0.224007 2.341805152028776e-38
1.211032 0.574558 -0.223980 2.341805152028776e-38
1.214096 0.568055 -0.223976 2.341805152028776e-38
1.217126 0.561537 -0.223966 2.341805152028776e-38
1.220121 0.555006 -0.223950 2.341805152028776e-38
1.223081 0.548462 -0.223928 2.341805152028776e-38
1.226006 0.541904 -0.223900 2.341805152028776e-38
1.228872 0.535379 -0.223886 2.341805152028776e-38
1.231689 0.528869 -0.223877 2.341805152028776e-38
1.234472 0.522346 -0.223863 2.341805152028776e-38
1.237220 0.515811 -0.223843 2.341805152028776e-38
1.239934 0.509264 -0.223817 2.341805152028776e-38
1.242607 0.502719 -0.223791 2.341805152028776e-38
1.245216 0.496222 -0.223786 2.341805152028776e-38
1.247792 0.489714 -0.223776 2.341805152028776e-38
1.250334 0.483195 -0.223761 2.341805152028776e-38
1.252842 0.476665 -0.223741 2.341805152028776e-38
1.255315 0.470125 -0.223714 2.341805152028776e-38
1.257732 0.463623 -0.223706 2.341805152028776e-38
1.260106 0.457134 -0.223704 2.341805152028776e-38
1.262445 0.450636 -0.223697 2.341805152028776e-38
1.264752 0.444128 -0.223685 2.341805152028776e-38
1.267024 0.437610 -0.223668 2.341805152028776e-38
1.269261 0.431091 -0.223649 2.341805152028776e-38
1.271437 0.424626 -0.223658 2.341805152028776e-38
1.273579 0.418152 -0.223663 2.341805152028776e-38
1.275689 0.411670 -0.223663 2.341805152028776e-38
1.277766 0.405180 -0.223659 2.341805152028776e-38
1.279810 0.398682 -0.223651 2.341805152028776e-38
1.281810 0.392203 -0.223653 2.341805152028776e-38
1.283761 0.385757 -0.223674 2.341805152028776e-38
1.285679 0.379304 -0.223692 2.341805152028776e-38
1.287566 0.372842 -0.223705 2.341805152028776e-38
1.289419 0.366374 -0.223715 2.341805152028776e-38
1.291241 0.359899 -0.223721 2.341805152028776e-38
1.293015 0.353455 -0.223747 2.341805152028776e-38
1.294747 0.347031 -0.223786 2.341805152028776e-38
1.296448 0.340600 -0.223823 2.341805152028776e-38
1.298116 0.334162 -0.223856 2.341805152028776e-38
1.299753 0.327717 -0.223886 2.341805152028776e-38
1.301358 0.321266 -0.223913 2.341805152028776e-38
1.302918 0.314845 -0.223962 2.341805152028776e-38
1.304437 0.308442 -0.224027 2.341805152028776e-38
