VERSION .7
FIELDS x y z rgb
SIZE 4 4 4 4
TYPE F F F F
COUNT 1 1 1 1
WIDTH 965
HEIGHT 1
VIEWPOINT 0 0 0 1 0 0 0
POINTS 965
DATA ascii
1.194992 -0.150311 0.244624 2.341805152028776e-38
1.193279 -0.156047 0.244375 2.341805152028776e-38
1.189596 -0.161505 0.243726 2.341805152028776e-38
1.185889 -0.166932 0.243076 2.341805152028776e-38
1.182157 -0.172326 0.242424 2.341805152028776e-38
1.178402 -0.177687 0.241771 2.341805152028776e-38
1.180433 -0.183921 0.242308 2.341805152028776e-38
1.184366 -0.190490 0.243241 2.341805152028776e-38
1.185364 -0.196621 0.243575 2.341805152028776e-38
1.183432 -0.202271 0.243312 2.341805152028776e-38
1.184369 -0.208417 0.243642 2.341805152028776e-38
1.189129 -0.215282 0.244773 2.341805152028776e-38
1.190956 -0.221672 0.245317 2.341805152028776e-38
1.193712 -0.228271 0.246058 2.341805152028776e-38
1.185852 -0.232826 0.244614 2.341805152028776e-38
1.244274 -0.250665 0.256854 2.341805152028776e-38
1.181375 0.172098 0.236270 2.341805152028776e-38
1.183166 0.166439 0.236518 2.341805152028776e-38
1.180069 0.160107 0.235793 2.341805152028776e-38
1.176940 0.153809 0.235066 2.341805152028776e-38
1.175724 0.147790 0.234726 2.341805152028776e-38
1.177399 0.142140 0.234966 2.341805152028776e-38
1.178073 0.136364 0.235010 2.341805152028776e-38
1.176769 0.130369 0.234664 2.341805152028776e-38
1.172509 0.124080 0.233732 2.341805152028776e-38
1.172120 0.118230 0.233576 2.341805152028776e-38
1.174631 0.112667 0.234001 2.341805152028776e-38
1.180047 0.107350 0.235009 2.341805152028776e-38
1.185439 0.101982 0.236015 2.341805152028776e-38
1.191785 0.096643 0.237214 2.341805152028776e-38
1.195173 0.091020 0.237828 2.341805152028776e-38
1.196577 0.085228 0.238050 2.341805152028776e-38
1.195018 0.079229 0.237687 2.341805152028776e-38
1.193430 0.073247 0.237322 2.341805152028776e-38
1.192791 0.067339 0.237149 2.341805152028776e-38
1.191143 0.061388 0.236780 2.341805152028776e-38
1.190447 0.055500 0.236604 2.341805152028776e-38
1.192661 0.049743 0.237010 2.341805152028776e-38
1.191908 0.043858 0.236831 2.341805152028776e-38
1.192106 0.038012 0.236844 2.341805152028776e-38
1.194237 0.032218 0.237244 2.341805152028776e-38
1.195359 0.026383 0.237448 2.341805152028776e-38
1.193511 0.020487 0.237066 2.341805152028776e-38
1.194577 0.014646 0.237267 2.341805152028776e-38
1.193653 0.008781 0.237075 2.341805152028776e-38
1.189758 0.002917 0.236298 2.341805152028776e-38
1.187796 -0.002912 0.235908 2.341805152028776e-38
1.186787 -0.008730 0.235712 2.341805152028776e-38
1.187712 -0.014562 0.235903 2.341805152028776e-38
1.185666 -0.020353 0.235508 2.341805152028776e-38
1.185553 -0.026167 0.235500 2.341805152028776e-38
1.183451 -0.031927 0.235102 2.341805152028776e-38
1.184263 -0.037762 0.235285 2.341805152028776e-38
1.185046 -0.043605 0.235467 2.341805152028776e-38
1.186781 -0.049498 0.235842 2.341805152028776e-38
1.187507 -0.055363 0.236020 2.341805152028776e-38
1.186246 -0.061135 0.235807 2.341805152028776e-38
1.184956 -0.066896 0.235592 2.341805152028776e-38
1.183639 -0.072647 0.235375 2.341805152028776e-38
1.181316 -0.078321 0.234962 2.341805152028776e-38
1.180923 -0.084113 0.234936 2.341805152028776e-38
1.178546 -0.089754 0.234519 2.341805152028776e-38
1.177119 -0.095454 0.234295 2.341805152028776e-38
1.176643 -0.101225 0.234264 2.341805152028776e-38
1.177116 -0.107083 0.234425 2.341805152028776e-38
1.177560 -0.112948 0.234585 2.341805152028776e-38
1.177976 -0.118820 0.234743 2.341805152028776e-38
1.178362 -0.124699 0.234899 2.341805152028776e-38
1.180669 -0.130801 0.235441 2.341805152028776e-38
1.178073 -0.136364 0.235010 2.341805152028776e-38
1.173504 -0.141670 0.234188 2.341805152028776e-38
1.169884 -0.147056 0.233560 2.341805152028776e-38
1.173049 -0.153300 0.234289 2.341805152028776e-38
1.174237 -0.159315 0.234628 2.341805152028776e-38
1.177337 -0.165619 0.235353 2.341805152028776e-38
1.174580 -0.171108 0.234911 2.341805152028776e-38
1.170828 -0.176428 0.234274 2.341805152028776e-38
1.169960 -0.182169 0.234217 2.341805152028776e-38
1.170033 -0.188060 0.234352 2.341805152028776e-38
1.167173 -0.193476 0.233904 2.341805152028776e-38
1.167189 -0.199363 0.234035 2.341805152028776e-38
1.167177 -0.205255 0.234165 2.341805152028776e-38
1.171961 -0.212026 0.235261 2.341805152028776e-38
1.171883 -0.217956 0.235393 2.341805152028776e-38
1.168879 -0.223352 0.234955 2.341805152028776e-38
1.162000 -0.227970 0.233741 2.341805152028776e-38
1.201269 -0.241819 0.241819 2.341805152028776e-38
1.177647 0.171445 0.229562 2.341805152028776e-38
1.183324 0.166354 0.230561 2.341805152028776e-38
1.183143 0.160421 0.230422 2.341805152028776e-38
1.180011 0.154111 0.229713 2.341805152028776e-38
1.179769 0.148204 0.229570 2.341805152028776e-38
1.181447 0.142537 0.229805 2.341805152028776e-38
1.181148 0.136632 0.229659 2.341805152028776e-38
1.179843 0.130626 0.229321 2.341805152028776e-38
1.177532 0.124532 0.228791 2.341805152028776e-38
1.181052 0.119055 0.229398 2.341805152028776e-38
1.181614 0.113265 0.229434 2.341805152028776e-38
1.181171 0.107383 0.229278 2.341805152028776e-38
1.182655 0.101677 0.229500 2.341805152028776e-38
1.187047 0.096197 0.230290 2.341805152028776e-38
1.190436 0.090602 0.230889 2.341805152028776e-38
1.188902 0.084627 0.230536 2.341805152028776e-38
1.188318 0.078735 0.230372 2.341805152028776e-38
1.187705 0.072850 0.230205 2.341805152028776e-38
1.187063 0.066973 0.230037 2.341805152028776e-38
1.185412 0.061053 0.229677 2.341805152028776e-38
1.185694 0.055243 0.229695 2.341805152028776e-38
1.185947 0.049431 0.229711 2.341805152028776e-38
1.184210 0.043547 0.229345 2.341805152028776e-38
1.186369 0.037805 0.229738 2.341805152028776e-38
1.187520 0.032017 0.229939 2.341805152028776e-38
1.187661 0.026197 0.229948 2.341805152028776e-38
1.188755 0.020393 0.230145 2.341805152028776e-38
1.187858 0.014554 0.229960 2.341805152028776e-38
1.185951 0.008718 0.229584 2.341805152028776e-38
1.184015 0.002901 0.229205 2.341805152028776e-38
1.184015 -0.002901 0.229205 2.341805152028776e-38
1.183987 -0.008704 0.229204 2.341805152028776e-38
1.181968 -0.014482 0.228820 2.341805152028776e-38
1.181884 -0.020275 0.228815 2.341805152028776e-38
1.180790 -0.026045 0.228617 2.341805152028776e-38
1.181631 -0.031858 0.228798 2.341805152028776e-38
1.181463 -0.037649 0.228788 2.341805152028776e-38
1.182248 -0.043474 0.228965 2.341805152028776e-38
1.182023 -0.049268 0.228951 2.341805152028776e-38
1.178829 -0.054923 0.228365 2.341805152028776e-38
1.177568 -0.060649 0.228157 2.341805152028776e-38
1.178241 -0.066475 0.228327 2.341805152028776e-38
1.176925 -0.072189 0.228116 2.341805152028776e-38
1.177541 -0.078021 0.228282 2.341805152028776e-38
1.177150 -0.083791 0.228257 2.341805152028776e-38
1.175751 -0.089484 0.228041 2.341805152028776e-38
1.174325 -0.095166 0.227822 2.341805152028776e-38
1.175807 -0.101089 0.228172 2.341805152028776e-38
1.175304 -0.106850 0.228139 2.341805152028776e-38
1.175750 -0.112703 0.228295 2.341805152028776e-38
1.176167 -0.118562 0.228449 2.341805152028776e-38
1.175580 -0.124325 0.228412 2.341805152028776e-38
1.173988 -0.129977 0.228183 2.341805152028776e-38
1.171394 -0.135504 0.227762 2.341805152028776e-38
1.169749 -0.141126 0.227530 2.341805152028776e-38
1.169052 -0.146857 0.227485 2.341805152028776e-38
1.168328 -0.152585 0.227439 2.341805152028776e-38
1.170494 -0.158706 0.227959 2.341805152028776e-38
1.170684 -0.164577 0.228098 2.341805152028776e-38
1.169874 -0.170313 0.228047 2.341805152028776e-38
1.167093 -0.175753 0.227614 2.341805152028776e-38
1.166229 -0.181471 0.227559 2.341805152028776e-38
1.166306 -0.187341 0.227691 2.341805152028776e-38
1.166354 -0.193216 0.227821 2.341805152028776e-38
1.164437 -0.198765 0.227571 2.341805152028776e-38
1.164428 -0.204640 0.227698 2.341805152028776e-38
1.166322 -0.210869 0.228201 2.341805152028776e-38
1.163357 -0.216225 0.227757 2.341805152028776e-38
1.160365 -0.221561 0.227315 2.341805152028776e-38
1.152526 -0.225944 0.225944 2.341805152028776e-38
1.191844 -0.239744 0.233825 2.341805152028776e-38
1.176928 0.177123 0.223581 2.341805152028776e-38
1.178744 0.171497 0.223819 2.341805152028776e-38
1.181507 0.165995 0.224239 2.341805152028776e-38
1.181323 0.160074 0.224103 2.341805152028776e-38
1.182083 0.154286 0.224151 2.341805152028776e-38
1.182816 0.148494 0.224197 2.341805152028776e-38
1.183521 0.142698 0.224240 2.341805152028776e-38
1.182245 0.136674 0.223913 2.341805152028776e-38
1.181916 0.130774 0.223768 2.341805152028776e-38
1.183513 0.125086 0.223992 2.341805152028776e-38
1.184104 0.119288 0.224029 2.341805152028776e-38
1.182711 0.113299 0.223694 2.341805152028776e-38
1.182267 0.107416 0.223542 2.341805152028776e-38
1.183752 0.101708 0.223759 2.341805152028776e-38
1.185210 0.095989 0.223973 2.341805152028776e-38
1.185660 0.090182 0.224002 2.341805152028776e-38
1.185103 0.084304 0.223843 2.341805152028776e-38
1.184516 0.078434 0.223682 2.341805152028776e-38
1.183901 0.072571 0.223520 2.341805152028776e-38
1.184238 0.066772 0.223541 2.341805152028776e-38
1.181603 0.060819 0.223004 2.341805152028776e-38
1.182865 0.055077 0.223207 2.341805152028776e-38
1.182136 0.049242 0.223037 2.341805152028776e-38
1.183342 0.043488 0.223237 2.341805152028776e-38
1.184521 0.037723 0.223434 2.341805152028776e-38
1.185672 0.031947 0.223630 2.341805152028776e-38
1.185813 0.026140 0.223639 2.341805152028776e-38
1.183960 0.020298 0.223275 2.341805152028776e-38
1.185027 0.014511 0.223466 2.341805152028776e-38
1.183118 0.008692 0.223099 2.341805152028776e-38
1.183146 0.002897 0.223100 2.341805152028776e-38
1.184128 -0.002900 0.223286 2.341805152028776e-38
1.180170 -0.008670 0.222543 2.341805152028776e-38
1.179131 -0.014439 0.222354 2.341805152028776e-38
1.178065 -0.020197 0.222163 2.341805152028776e-38
1.180900 -0.026031 0.222712 2.341805152028776e-38
1.179778 -0.031788 0.222518 2.341805152028776e-38
1.179610 -0.037566 0.222508 2.341805152028776e-38
1.180396 -0.043379 0.222681 2.341805152028776e-38
1.178209 -0.049078 0.222296 2.341805152028776e-38
1.175994 -0.054757 0.221910 2.341805152028776e-38
1.174733 -0.060466 0.221708 2.341805152028776e-38
1.173446 -0.066163 0.221503 2.341805152028776e-38
1.176054 -0.072090 0.222038 2.341805152028776e-38
1.175691 -0.077850 0.222016 2.341805152028776e-38
1.176280 -0.083677 0.222176 2.341805152028776e-38
1.172922 -0.089214 0.221595 2.341805152028776e-38
1.174435 -0.095116 0.221937 2.341805152028776e-38
1.171023 -0.100615 0.221353 2.341805152028776e-38
1.171501 -0.106438 0.221506 2.341805152028776e-38
1.171950 -0.112269 0.221658 2.341805152028776e-38
1.173348 -0.118204 0.221994 2.341805152028776e-38
1.172762 -0.123950 0.221957 2.341805152028776e-38
1.172148 -0.129693 0.221919 2.341805152028776e-38
1.168578 -0.135094 0.221324 2.341805152028776e-38
1.167910 -0.140816 0.221283 2.341805152028776e-38
1.167215 -0.146535 0.221239 2.341805152028776e-38
1.167466 -0.152378 0.221379 2.341805152028776e-38
1.168662 -0.158358 0.221702 2.341805152028776e-38
1.169828 -0.164354 0.222022 2.341805152028776e-38
1.167073 -0.169799 0.221603 2.341805152028776e-38
1.164294 -0.175221 0.221181 2.341805152028776e-38
1.164403 -0.181073 0.221312 2.341805152028776e-38
1.163513 -0.186775 0.221256 2.341805152028776e-38
1.161625 -0.192312 0.221015 2.341805152028776e-38
1.159711 -0.197834 0.220771 2.341805152028776e-38
1.159708 -0.203683 0.220895 2.341805152028776e-38
1.160643 -0.209710 0.221201 2.341805152028776e-38
1.158647 -0.215214 0.220953 2.341805152028776e-38
1.155661 -0.220519 0.220519 2.341805152028776e-38
1.146861 -0.224670 0.218982 2.341805152028776e-38
1.189115 -0.239023 0.227219 2.341805152028776e-38
1.297680 -0.267489 0.248152 2.341805152028776e-38
1.186751 0.178492 0.219458 2.341805152028776e-38
1.176893 0.171124 0.217530 2.341805152028776e-38
1.180630 0.165771 0.218120 2.341805152028776e-38
1.183368 0.160254 0.218528 2.341805152028776e-38
1.184130 0.154459 0.218574 2.341805152028776e-38
1.184864 0.148660 0.218618 2.341805152028776e-38
1.184593 0.142741 0.218481 2.341805152028776e-38
1.185270 0.136941 0.218522 2.341805152028776e-38
1.182986 0.130813 0.218021 2.341805152028776e-38
1.181648 0.124814 0.217698 2.341805152028776e-38
1.183217 0.119126 0.217914 2.341805152028776e-38
1.182801 0.113239 0.217768 2.341805152028776e-38
1.183335 0.107448 0.217800 2.341805152028776e-38
1.182861 0.101570 0.217651 2.341805152028776e-38
1.182359 0.095700 0.217500 2.341805152028776e-38
1.183789 0.089986 0.217707 2.341805152028776e-38
1.184210 0.084190 0.217733 2.341805152028776e-38
1.182641 0.078262 0.217396 2.341805152028776e-38
1.183987 0.072533 0.217598 2.341805152028776e-38
1.182360 0.066626 0.217258 2.341805152028776e-38
1.181687 0.060787 0.217096 2.341805152028776e-38
1.182949 0.055048 0.217294 2.341805152028776e-38
1.182219 0.049216 0.217128 2.341805152028776e-38
1.181460 0.043392 0.216962 2.341805152028776e-38
1.182640 0.037640 0.217154 2.341805152028776e-38
1.183791 0.031877 0.217345 2.341805152028776e-38
1.183931 0.026082 0.217353 2.341805152028776e-38
1.183060 0.020270 0.217179 2.341805152028776e-38
1.182161 0.014467 0.217004 2.341805152028776e-38
1.181233 0.008673 0.216827 2.341805152028776e-38
1.182245 0.002893 0.217009 2.341805152028776e-38
1.181261 -0.002891 0.216829 2.341805152028776e-38
1.178283 -0.008651 0.216285 2.341805152028776e-38
1.176260 -0.014395 0.215921 2.341805152028776e-38
1.177160 -0.020169 0.216096 2.341805152028776e-38
1.179015 -0.025974 0.216451 2.341805152028776e-38
1.179858 -0.031771 0.216623 2.341805152028776e-38
1.177724 -0.037484 0.216251 2.341805152028776e-38
1.177529 -0.043248 0.216240 2.341805152028776e-38
1.176323 -0.048970 0.216045 2.341805152028776e-38
1.174107 -0.054636 0.215669 2.341805152028776e-38
1.172846 -0.060332 0.215472 2.341805152028776e-38
1.173522 -0.066128 0.215634 2.341805152028776e-38
1.177115 -0.072112 0.216335 2.341805152028776e-38
1.174789 -0.077743 0.215952 2.341805152028776e-38
1.174399 -0.083492 0.215929 2.341805152028776e-38
1.172019 -0.089091 0.215543 2.341805152028776e-38
1.170594 -0.094748 0.215335 2.341805152028776e-38
1.170121 -0.100476 0.215307 2.341805152028776e-38
1.168641 -0.106114 0.215096 2.341805152028776e-38
1.172030 -0.112208 0.215785 2.341805152028776e-38
1.174409 -0.118240 0.216292 2.341805152028776e-38
1.172845 -0.123884 0.216076 2.341805152028776e-38
1.168321 -0.129191 0.215318 2.341805152028776e-38
1.168658 -0.135021 0.215460 2.341805152028776e-38
1.167991 -0.140740 0.215419 2.341805152028776e-38
1.165344 -0.146211 0.215017 2.341805152028776e-38
1.164622 -0.151914 0.214973 2.341805152028776e-38
1.164848 -0.157745 0.215107 2.341805152028776e-38
1.167967 -0.163993 0.215780 2.341805152028776e-38
1.166186 -0.169567 0.215551 2.341805152028776e-38
1.163405 -0.174981 0.215141 2.341805152028776e-38
1.162544 -0.180674 0.215088 2.341805152028776e-38
1.161656 -0.186363 0.215034 2.341805152028776e-38
1.158799 -0.191727 0.214619 2.341805152028776e-38
1.156888 -0.197232 0.214382 2.341805152028776e-38
1.157857 -0.203233 0.214683 2.341805152028776e-38
1.158795 -0.209249 0.214981 2.341805152028776e-38
1.158736 -0.215099 0.215099 2.341805152028776e-38
1.155748 -0.220400 0.214675 2.341805152028776e-38
1.148875 -0.224922 0.213533 2.341805152028776e-38
1.188280 -0.238686 0.221006 2.341805152028776e-38
1.287312 -0.265165 0.239607 2.341805152028776e-38
1.192668 0.179276 0.214543 2.341805152028776e-38
1.182804 0.171881 0.212667 2.341805152028776e-38
1.184597 0.166229 0.212890 2.341805152028776e-38
1.185388 0.160432 0.212937 2.341805152028776e-38
1.187127 0.154758 0.213157 2.341805152028776e-38
1.185908 0.148704 0.212850 2.341805152028776e-38
1.186614 0.142900 0.212892 2.341805152028776e-38
1.184358 0.136754 0.212406 2.341805152028776e-38
1.185006 0.130959 0.212444 2.341805152028776e-38
1.183667 0.124953 0.212130 2.341805152028776e-38
1.184258 0.119161 0.212165 2.341805152028776e-38
1.184821 0.113366 0.212198 2.341805152028776e-38
1.185356 0.107568 0.212229 2.341805152028776e-38
1.183901 0.101600 0.211908 2.341805152028776e-38
1.184379 0.095807 0.211936 2.341805152028776e-38
1.185810 0.090086 0.212139 2.341805152028776e-38
1.184268 0.084145 0.211812 2.341805152028776e-38
1.181715 0.078155 0.211309 2.341805152028776e-38
1.183062 0.072433 0.211506 2.341805152028776e-38
1.185364 0.066756 0.211877 2.341805152028776e-38
1.183707 0.060855 0.211544 2.341805152028776e-38
1.182021 0.054972 0.211209 2.341805152028776e-38
1.180306 0.049107 0.210872 2.341805152028776e-38
1.179546 0.043297 0.210710 2.341805152028776e-38
1.182693 0.037620 0.211249 2.341805152028776e-38
1.183845 0.031860 0.211434 2.341805152028776e-38
1.183985 0.026068 0.211443 2.341805152028776e-38
1.184098 0.020276 0.211449 2.341805152028776e-38
1.183197 0.014471 0.211278 2.341805152028776e-38
1.182269 0.008676 0.211106 2.341805152028776e-38
1.182297 0.002892 0.211108 2.341805152028776e-38
1.182297 -0.002892 0.211108 2.341805152028776e-38
1.180300 -0.008661 0.210754 2.341805152028776e-38
1.178276 -0.014411 0.210400 2.341805152028776e-38
1.179176 -0.020192 0.210570 2.341805152028776e-38
1.180049 -0.025982 0.210740 2.341805152028776e-38
1.179909 -0.031754 0.210731 2.341805152028776e-38
1.178757 -0.037494 0.210546 2.341805152028776e-38
1.177578 -0.043224 0.210358 2.341805152028776e-38
1.176371 -0.048944 0.210169 2.341805152028776e-38
1.175137 -0.054652 0.209979 2.341805152028776e-38
1.174859 -0.060400 0.209963 2.341805152028776e-38
1.176518 -0.066258 0.210296 2.341805152028776e-38
1.175201 -0.071952 0.210100 2.341805152028776e-38
1.174838 -0.077700 0.210079 2.341805152028776e-38
1.175430 -0.083517 0.210232 2.341805152028776e-38
1.174031 -0.089191 0.210031 2.341805152028776e-38
1.171622 -0.094775 0.209654 2.341805152028776e-38
1.170169 -0.100421 0.209450 2.341805152028776e-38
1.171630 -0.106323 0.209772 2.341805152028776e-38
1.174041 -0.112335 0.210267 2.341805152028776e-38
1.173483 -0.118077 0.210234 2.341805152028776e-38
1.170940 -0.123610 0.209849 2.341805152028776e-38
1.169349 -0.129228 0.209637 2.341805152028776e-38
1.167732 -0.134835 0.209424 2.341805152028776e-38
1.166088 -0.140428 0.209209 2.341805152028776e-38
1.164417 -0.146009 0.208993 2.341805152028776e-38
1.164673 -0.151831 0.209126 2.341805152028776e-38
1.165875 -0.157791 0.209432 2.341805152028776e-38
1.169973 -0.164177 0.210262 2.341805152028776e-38
1.165267 -0.169333 0.209514 2.341805152028776e-38
1.163460 -0.174885 0.209289 2.341805152028776e-38
1.160653 -0.180273 0.208888 2.341805152028776e-38
1.160739 -0.186106 0.209011 2.341805152028776e-38
1.158853 -0.191622 0.208782 2.341805152028776e-38
1.157912 -0.197289 0.208726 2.341805152028776e-38
1.158882 -0.203292 0.209019 2.341805152028776e-38
1.160791 -0.209484 0.209484 2.341805152028776e-38
1.160732 -0.215341 0.209598 2.341805152028776e-38
1.156774 -0.220464 0.209011 2.341805152028776e-38
1.148929 -0.224798 0.207725 2.341805152028776e-38
1.184511 -0.237781 0.214296 2.341805152028776e-38
1.268212 -0.261051 0.229599 2.341805152028776e-38
1.195641 0.179619 0.209065 2.341805152028776e-38
1.185770 0.172213 0.207240 2.341805152028776e-38
1.186590 0.166413 0.207287 2.341805152028776e-38
1.187381 0.160609 0.207332 2.341805152028776e-38
1.186190 0.154547 0.207035 2.341805152028776e-38
1.186925 0.148746 0.207077 2.341805152028776e-38
1.187631 0.142940 0.207118 2.341805152028776e-38
1.188308 0.137132 0.207157 2.341805152028776e-38
1.187979 0.131212 0.207023 2.341805152028776e-38
1.186640 0.125195 0.206718 2.341805152028776e-38
1.188213 0.119490 0.206922 2.341805152028776e-38
1.187796 0.113586 0.206784 2.341805152028776e-38
1.186369 0.107599 0.206473 2.341805152028776e-38
1.187858 0.101881 0.206673 2.341805152028776e-38
1.188337 0.096072 0.206701 2.341805152028776e-38
1.188788 0.090261 0.206726 2.341805152028776e-38
1.184297 0.084099 0.205896 2.341805152028776e-38
1.184690 0.078307 0.205919 2.341805152028776e-38
1.188005 0.072695 0.206453 2.341805152028776e-38
1.186376 0.066775 0.206130 2.341805152028776e-38
1.183733 0.060822 0.205635 2.341805152028776e-38
1.182045 0.054942 0.205309 2.341805152028776e-38
1.180328 0.049080 0.204982 2.341805152028776e-38
1.180552 0.043309 0.204995 2.341805152028776e-38
1.181732 0.037568 0.205177 2.341805152028776e-38
1.183870 0.031842 0.205529 2.341805152028776e-38
1.184010 0.026054 0.205537 2.341805152028776e-38
1.185107 0.020282 0.205714 2.341805152028776e-38
1.183221 0.014463 0.205377 2.341805152028776e-38
1.184262 0.008685 0.205551 2.341805152028776e-38
1.185276 0.002898 0.205724 2.341805152028776e-38
1.186261 -0.002900 0.205895 2.341805152028776e-38
1.184262 -0.008685 0.205551 2.341805152028776e-38
1.181251 -0.014439 0.205035 2.341805152028776e-38
1.181167 -0.020214 0.205030 2.341805152028776e-38
1.180070 -0.025967 0.204853 2.341805152028776e-38
1.180915 -0.031763 0.205016 2.341805152028776e-38
1.181732 -0.037568 0.205177 2.341805152028776e-38
1.179567 -0.043273 0.204824 2.341805152028776e-38
1.178359 -0.048998 0.204640 2.341805152028776e-38
1.177124 -0.054713 0.204455 2.341805152028776e-38
1.174877 -0.060367 0.204097 2.341805152028776e-38
1.175555 -0.066166 0.204250 2.341805152028776e-38
1.177187 -0.072033 0.204573 2.341805152028776e-38
1.176825 -0.077787 0.204552 2.341805152028776e-38
1.176434 -0.083540 0.204529 2.341805152028776e-38
1.174051 -0.089142 0.204164 2.341805152028776e-38
1.172624 -0.094802 0.203967 2.341805152028776e-38
1.172151 -0.100534 0.203940 2.341805152028776e-38
1.171650 -0.106264 0.203911 2.341805152028776e-38
1.172103 -0.112085 0.204052 2.341805152028776e-38
1.172527 -0.117913 0.204191 2.341805152028776e-38
1.172922 -0.123748 0.204328 2.341805152028776e-38
1.168391 -0.129049 0.203610 2.341805152028776e-38
1.166774 -0.134647 0.203403 2.341805152028776e-38
1.166108 -0.140350 0.203364 2.341805152028776e-38
1.166393 -0.146173 0.203495 2.341805152028776e-38
1.166649 -0.152001 0.203624 2.341805152028776e-38
1.165899 -0.157704 0.203581 2.341805152028776e-38
1.165122 -0.163402 0.203536 2.341805152028776e-38
1.164317 -0.169097 0.203490 2.341805152028776e-38
1.162510 -0.174642 0.203272 2.341805152028776e-38
1.163598 -0.180627 0.203563 2.341805152028776e-38
1.161737 -0.186158 0.203342 2.341805152028776e-38
1.161794 -0.191997 0.203460 2.341805152028776e-38
1.160851 -0.197676 0.203405 2.341805152028776e-38
1.160851 -0.203520 0.203520 2.341805152028776e-38
1.163731 -0.209893 0.204143 2.341805152028776e-38
1.161733 -0.215401 0.203913 2.341805152028776e-38
1.158740 -0.220711 0.203513 2.341805152028776e-38
1.151855 -0.225240 0.202430 2.341805152028776e-38
1.184568 -0.237654 0.208314 2.341805152028776e-38
1.255798 -0.258336 0.220986 2.341805152028776e-38
1.195664 0.179522 0.203066 2.341805152028776e-38
1.187735 0.172402 0.201623 2.341805152028776e-38
1.186602 0.166322 0.201337 2.341805152028776e-38
1.187394 0.160521 0.201381 2.341805152028776e-38
1.187179 0.154590 0.201258 2.341805152028776e-38
1.188892 0.148909 0.201465 2.341805152028776e-38
1.191556 0.143333 0.201836 2.341805152028776e-38
1.191257 0.137395 0.201708 2.341805152028776e-38
1.190928 0.131464 0.201579 2.341805152028776e-38
1.190569 0.125540 0.201447 2.341805152028776e-38
1.191163 0.119720 0.201481 2.341805152028776e-38
1.191728 0.113898 0.201512 2.341805152028776e-38
1.188337 0.107717 0.200878 2.341805152028776e-38
1.188844 0.101909 0.200906 2.341805152028776e-38
1.188341 0.096019 0.200767 2.341805152028776e-38
1.188792 0.090211 0.200792 2.341805152028776e-38
1.188231 0.084331 0.200650 2.341805152028776e-38
1.187641 0.078459 0.200506 2.341805152028776e-38
1.188007 0.072654 0.200526 2.341805152028776e-38
1.190313 0.066959 0.200877 2.341805152028776e-38
1.185699 0.060889 0.200064 2.341805152028776e-38
1.184995 0.055049 0.199913 2.341805152028776e-38
1.182292 0.049135 0.199429 2.341805152028776e-38
1.183501 0.043393 0.199607 2.341805152028776e-38
1.185668 0.037672 0.199951 2.341805152028776e-38
1.186823 0.031904 0.200126 2.341805152028776e-38
1.185977 0.026083 0.199968 2.341805152028776e-38
1.186089 0.020287 0.199974 2.341805152028776e-38
1.187160 0.014503 0.200145 2.341805152028776e-38
1.188202 0.008709 0.200314 2.341805152028776e-38
1.187244 0.002901 0.200150 2.341805152028776e-38
1.188230 -0.002903 0.200316 2.341805152028776e-38
1.185243 -0.008688 0.199816 2.341805152028776e-38
1.183215 -0.014455 0.199480 2.341805152028776e-38
1.181160 -0.020203 0.199143 2.341805152028776e-38
1.182034 -0.025996 0.199303 2.341805152028776e-38
1.181894 -0.031772 0.199295 2.341805152028776e-38
1.180740 -0.037515 0.199120 2.341805152028776e-38
1.179559 -0.043248 0.198942 2.341805152028776e-38
1.180321 -0.049053 0.199096 2.341805152028776e-38
1.176130 -0.054637 0.198417 2.341805152028776e-38
1.174867 -0.060333 0.198236 2.341805152028776e-38
1.174561 -0.066073 0.198219 2.341805152028776e-38
1.177180 -0.071992 0.198698 2.341805152028776e-38
1.176817 -0.077744 0.198678 2.341805152028776e-38
1.177411 -0.083563 0.198823 2.341805152028776e-38
1.176009 -0.089241 0.198633 2.341805152028776e-38
1.175563 -0.094987 0.198608 2.341805152028776e-38
1.173124 -0.100561 0.198250 2.341805152028776e-38
1.173606 -0.106382 0.198388 2.341805152028776e-38
1.173077 -0.112116 0.198358 2.341805152028776e-38
1.173501 -0.117945 0.198493 2.341805152028776e-38
1.171936 -0.123575 0.198295 2.341805152028776e-38
1.169363 -0.129084 0.197929 2.341805152028776e-38
1.168725 -0.134797 0.197893 2.341805152028776e-38
1.170016 -0.140742 0.198187 2.341805152028776e-38
1.169321 -0.146458 0.198149 2.341805152028776e-38
1.168598 -0.152170 0.198108 2.341805152028776e-38
1.165893 -0.157615 0.197735 2.341805152028776e-38
1.167070 -0.163584 0.198023 2.341805152028776e-38
1.167240 -0.169427 0.198144 2.341805152028776e-38
1.166406 -0.175129 0.198097 2.341805152028776e-38
1.163595 -0.180525 0.197718 2.341805152028776e-38
1.164655 -0.186521 0.197999 2.341805152028776e-38
1.164712 -0.192371 0.198114 2.341805152028776e-38
1.163767 -0.198061 0.198061 2.341805152028776e-38
1.162794 -0.203746 0.198006 2.341805152028776e-38
1.165676 -0.210126 0.198612 2.341805152028776e-38
1.165615 -0.216000 0.198720 2.341805152028776e-38
1.162618 -0.221325 0.198330 2.341805152028776e-38
1.151853 -0.225112 0.196617 2.341805152028776e-38
1.185563 -0.237719 0.202502 2.341805152028776e-38
1.279072 -0.262975 0.218618 2.341805152028776e-38
1.199561 0.180009 0.197715 2.341805152028776e-38
1.188697 0.172448 0.195831 2.341805152028776e-38
1.188541 0.166503 0.195714 2.341805152028776e-38
1.188354 0.160564 0.195596 2.341805152028776e-38
1.189118 0.154758 0.195638 2.341805152028776e-38
1.191811 0.149194 0.196000 2.341805152028776e-38
1.191540 0.143253 0.195877 2.341805152028776e-38
1.190258 0.137206 0.195592 2.341805152028776e-38
1.187965 0.131066 0.195143 2.341805152028776e-38
1.190549 0.125470 0.195499 2.341805152028776e-38
1.193106 0.119851 0.195854 2.341805152028776e-38
1.193672 0.114022 0.195885 2.341805152028776e-38
1.190278 0.107835 0.195269 2.341805152028776e-38
1.187837 0.101768 0.194812 2.341805152028776e-38
1.188315 0.095965 0.194838 2.341805152028776e-38
1.187782 0.090086 0.194701 2.341805152028776e-38
1.187219 0.084214 0.194563 2.341805152028776e-38
1.188598 0.078480 0.194746 2.341805152028776e-38
1.189948 0.072734 0.194927 2.341805152028776e-38
1.192257 0.067032 0.195268 2.341805152028776e-38
1.188625 0.061006 0.194639 2.341805152028776e-38
1.186935 0.055109 0.194332 2.341805152028776e-38
1.185215 0.049230 0.194022 2.341805152028776e-38
1.185440 0.043441 0.194035 2.341805152028776e-38
1.186623 0.037682 0.194207 2.341805152028776e-38
1.188764 0.031939 0.194539 2.341805152028776e-38
1.188905 0.026133 0.194546 2.341805152028776e-38
1.189017 0.020326 0.194552 2.341805152028776e-38
1.189101 0.014519 0.194557 2.341805152028776e-38
1.189157 0.008712 0.194560 2.341805152028776e-38
1.188199 0.002901 0.194400 2.341805152028776e-38
1.190172 -0.002906 0.194723 2.341805152028776e-38
1.187184 -0.008697 0.194237 2.341805152028776e-38
1.184167 -0.014459 0.193750 2.341805152028776e-38
1.183097 -0.020225 0.193584 2.341805152028776e-38
1.181998 -0.025981 0.193416 2.341805152028776e-38
1.181858 -0.031754 0.193409 2.341805152028776e-38
1.180704 -0.037494 0.193238 2.341805152028776e-38
1.179523 -0.043224 0.193066 2.341805152028776e-38
1.179299 -0.048984 0.193054 2.341805152028776e-38
1.177077 -0.054651 0.192717 2.341805152028776e-38
1.176798 -0.060399 0.192702 2.341805152028776e-38
1.175506 -0.066090 0.192524 2.341805152028776e-38
1.179113 -0.072072 0.193152 2.341805152028776e-38
1.179735 -0.077894 0.193293 2.341805152028776e-38
1.179344 -0.083655 0.193272 2.341805152028776e-38
1.177941 -0.089339 0.193088 2.341805152028776e-38
1.176511 -0.095012 0.192903 2.341805152028776e-38
1.176037 -0.100757 0.192877 2.341805152028776e-38
1.175535 -0.106499 0.192850 2.341805152028776e-38
1.174023 -0.112145 0.192660 2.341805152028776e-38
1.175430 -0.118075 0.192952 2.341805152028776e-38
1.172882 -0.123608 0.192598 2.341805152028776e-38
1.170308 -0.129118 0.192243 2.341805152028776e-38
1.169669 -0.134833 0.192208 2.341805152028776e-38
1.169982 -0.140662 0.192333 2.341805152028776e-38
1.172225 -0.146742 0.192779 2.341805152028776e-38
1.168565 -0.152083 0.192256 2.341805152028776e-38
1.166837 -0.157657 0.192055 2.341805152028776e-38
1.169970 -0.163902 0.192656 2.341805152028776e-38
1.171116 -0.169897 0.192934 2.341805152028776e-38
1.168327 -0.175322 0.192567 2.341805152028776e-38
1.166489 -0.180875 0.192360 2.341805152028776e-38
1.166575 -0.186727 0.192472 2.341805152028776e-38
1.165657 -0.192422 0.192422 2.341805152028776e-38
1.166658 -0.198445 0.192693 2.341805152028776e-38
1.165683 -0.204141 0.192640 2.341805152028776e-38
1.166624 -0.210182 0.192907 2.341805152028776e-38
1.165593 -0.215878 0.192851 2.341805152028776e-38
1.163564 -0.221384 0.192633 2.341805152028776e-38
1.154729 -0.225551 0.191290 2.341805152028776e-38
1.190400 -0.238558 0.197326 2.341805152028776e-38
1.290751 -0.265231 0.214102 2.341805152028776e-38
1.199527 0.179909 0.191707 2.341805152028776e-38
1.187676 0.172209 0.189722 2.341805152028776e-38
1.188496 0.166409 0.189765 2.341805152028776e-38
1.189287 0.160606 0.189807 2.341805152028776e-38
1.190051 0.154798 0.189847 2.341805152028776e-38
1.190786 0.148987 0.189885 2.341805152028776e-38
1.190513 0.143055 0.189766 2.341805152028776e-38
1.188247 0.136902 0.189333 2.341805152028776e-38
1.189878 0.131209 0.189523 2.341805152028776e-38
1.193446 0.125709 0.190025 2.341805152028776e-38
1.194040 0.119882 0.190057 2.341805152028776e-38
1.193623 0.113958 0.189930 2.341805152028776e-38
1.191210 0.107863 0.189489 2.341805152028776e-38
1.187782 0.101710 0.188889 2.341805152028776e-38
1.188260 0.095910 0.188915 2.341805152028776e-38
1.188710 0.090109 0.188938 2.341805152028776e-38
1.188147 0.084236 0.188804 2.341805152028776e-38
1.188541 0.078435 0.188825 2.341805152028776e-38
1.188906 0.072632 0.188844 2.341805152028776e-38
1.190230 0.066883 0.189018 2.341805152028776e-38
1.188567 0.060971 0.188721 2.341805152028776e-38
1.189835 0.055215 0.188893 2.341805152028776e-38
1.188114 0.049324 0.188593 2.341805152028776e-38
1.189326 0.043560 0.188761 2.341805152028776e-38
1.188536 0.037723 0.188615 2.341805152028776e-38
1.187717 0.031894 0.188467 2.341805152028776e-38
1.186870 0.026075 0.188318 2.341805152028776e-38
1.187970 0.020298 0.188480 2.341805152028776e-38
1.189042 0.014511 0.188641 2.341805152028776e-38
1.188110 0.008699 0.188488 2.341805152028776e-38
1.187151 0.002897 0.188332 2.341805152028776e-38
1.189126 -0.002902 0.188646 2.341805152028776e-38
1.186135 -0.008685 0.188174 2.341805152028776e-38
1.184104 -0.014451 0.187858 2.341805152028776e-38
1.183032 -0.020213 0.187697 2.341805152028776e-38
1.182920 -0.025988 0.187691 2.341805152028776e-38
1.180806 -0.031709 0.187370 2.341805152028776e-38
1.180639 -0.037472 0.187361 2.341805152028776e-38
1.179456 -0.043199 0.187195 2.341805152028776e-38
1.179233 -0.048956 0.187183 2.341805152028776e-38
1.178982 -0.054711 0.187170 2.341805152028776e-38
1.176731 -0.060364 0.186842 2.341805152028776e-38
1.178397 -0.066218 0.187139 2.341805152028776e-38
1.179048 -0.072030 0.187278 2.341805152028776e-38
1.176715 -0.077654 0.186946 2.341805152028776e-38
1.177310 -0.083467 0.187082 2.341805152028776e-38
1.177877 -0.089288 0.187216 2.341805152028776e-38
1.177431 -0.095036 0.187193 2.341805152028776e-38
1.174989 -0.100614 0.186855 2.341805152028776e-38
1.174488 -0.106349 0.186829 2.341805152028776e-38
1.174942 -0.112174 0.186957 2.341805152028776e-38
1.174385 -0.117908 0.186928 2.341805152028776e-38
1.173800 -0.123640 0.186897 2.341805152028776e-38
1.172206 -0.129260 0.186709 2.341805152028776e-38
1.169604 -0.134754 0.186362 2.341805152028776e-38
1.172861 -0.140934 0.186953 2.341805152028776e-38
1.172165 -0.146657 0.186916 2.341805152028776e-38
1.170461 -0.152250 0.186722 2.341805152028776e-38
1.171668 -0.158226 0.186995 2.341805152028776e-38
1.172845 -0.164218 0.187266 2.341805152028776e-38
1.174968 -0.170367 0.187692 2.341805152028776e-38
1.173153 -0.175954 0.187492 2.341805152028776e-38
1.166431 -0.180771 0.186510 2.341805152028776e-38
1.168468 -0.186931 0.186931 2.341805152028776e-38
1.168524 -0.192794 0.187039 2.341805152028776e-38
1.166603 -0.198330 0.186833 2.341805152028776e-38
1.163683 -0.203682 0.186470 2.341805152028776e-38
1.166572 -0.210061 0.187041 2.341805152028776e-38
1.165541 -0.215754 0.186986 2.341805152028776e-38
1.164483 -0.221441 0.186931 2.341805152028776e-38
1.157580 -0.225988 0.185939 2.341805152028776e-38
1.197153 -0.239784 0.192419 2.341805152028776e-38
1.279193 -0.262716 0.205742 2.341805152028776e-38
1.193598 0.178929 0.184795 2.341805152028776e-38
1.186624 0.171969 0.183628 2.341805152028776e-38
1.187443 0.166177 0.183669 2.341805152028776e-38
1.190192 0.160646 0.184013 2.341805152028776e-38
1.191936 0.154964 0.184203 2.341805152028776e-38
1.191691 0.149024 0.184089 2.341805152028776e-38
1.191417 0.143090 0.183973 2.341805152028776e-38
1.193078 0.137389 0.184160 2.341805152028776e-38
1.192746 0.131458 0.184041 2.341805152028776e-38
1.194352 0.125741 0.184225 2.341805152028776e-38
1.191996 0.119616 0.183800 2.341805152028776e-38
1.193545 0.113893 0.183980 2.341805152028776e-38
1.190144 0.107712 0.183401 2.341805152028776e-38
1.189667 0.101819 0.183275 2.341805152028776e-38
1.191131 0.096093 0.183451 2.341805152028776e-38
1.191582 0.090281 0.183474 2.341805152028776e-38
1.188061 0.084187 0.182889 2.341805152028776e-38
1.190427 0.078520 0.183212 2.341805152028776e-38
1.190793 0.072711 0.183231 2.341805152028776e-38
1.191131 0.066900 0.183248 2.341805152028776e-38
1.190454 0.061037 0.183112 2.341805152028776e-38
1.189748 0.055183 0.182974 2.341805152028776e-38
1.190001 0.049378 0.182987 2.341805152028776e-38
1.189238 0.043535 0.182847 2.341805152028776e-38
1.188447 0.037701 0.182705 2.341805152028776e-38
1.188616 0.031902 0.182714 2.341805152028776e-38
1.187768 0.026081 0.182569 2.341805152028776e-38
1.189857 0.020320 0.182878 2.341805152028776e-38
1.188953 0.014502 0.182731 2.341805152028776e-38
1.189009 0.008702 0.182734 2.341805152028776e-38
1.188048 0.002898 0.182583 2.341805152028776e-38
1.188048 -0.002898 0.182583 2.341805152028776e-38
1.185055 -0.008673 0.182126 2.341805152028776e-38
1.183023 -0.014430 0.181819 2.341805152028776e-38
1.181951 -0.020185 0.181663 2.341805152028776e-38
1.182827 -0.025973 0.181809 2.341805152028776e-38
1.181699 -0.031717 0.181650 2.341805152028776e-38
1.181532 -0.037482 0.181642 2.341805152028776e-38
1.179361 -0.043173 0.181328 2.341805152028776e-38
1.181113 -0.049009 0.181621 2.341805152028776e-38
1.179875 -0.054725 0.181456 2.341805152028776e-38
1.179596 -0.060481 0.181442 2.341805152028776e-38
1.179289 -0.066235 0.181426 2.341805152028776e-38
1.181914 -0.072168 0.181865 2.341805152028776e-38
1.181551 -0.077934 0.181846 2.341805152028776e-38
1.179188 -0.083558 0.181523 2.341805152028776e-38
1.177784 -0.089235 0.181350 2.341805152028776e-38
1.177338 -0.094981 0.181327 2.341805152028776e-38
1.175879 -0.100639 0.181151 2.341805152028776e-38
1.175378 -0.106375 0.181125 2.341805152028776e-38
1.174849 -0.112109 0.181099 2.341805152028776e-38
1.177243 -0.118135 0.181525 2.341805152028776e-38
1.174691 -0.123671 0.181192 2.341805152028776e-38
1.173096 -0.129292 0.181009 2.341805152028776e-38
1.173439 -0.135127 0.181128 2.341805152028776e-38
1.175715 -0.141205 0.181549 2.341805152028776e-38
1.175017 -0.146939 0.181513 2.341805152028776e-38
1.173312 -0.152543 0.181325 2.341805152028776e-38
1.172560 -0.158266 0.181286 2.341805152028776e-38
1.174716 -0.164396 0.181701 2.341805152028776e-38
1.171950 -0.169842 0.181357 2.341805152028776e-38
1.170137 -0.175412 0.181163 2.341805152028776e-38
1.167320 -0.180816 0.180816 2.341805152028776e-38
1.170335 -0.187134 0.181376 2.341805152028776e-38
1.168440 -0.192681 0.181178 2.341805152028776e-38
1.166519 -0.198215 0.180978 2.341805152028776e-38
1.166520 -0.204074 0.181080 2.341805152028776e-38
1.167464 -0.210114 0.181331 2.341805152028776e-38
1.165461 -0.215628 0.181127 2.341805152028776e-38
1.166345 -0.221681 0.181376 2.341805152028776e-38
1.158467 -0.226044 0.180263 2.341805152028776e-38
1.192254 -0.238680 0.185640 2.341805152028776e-38
1.233692 -0.253241 0.192219 2.341805152028776e-38
1.196435 0.179265 0.179265 2.341805152028776e-38
1.187499 0.172011 0.177841 2.341805152028776e-38
1.191257 0.166629 0.178322 2.341805152028776e-38
1.192049 0.160817 0.178361 2.341805152028776e-38
1.192814 0.155002 0.178399 2.341805152028776e-38
1.194531 0.149306 0.178582 2.341805152028776e-38
1.193276 0.143243 0.178323 2.341805152028776e-38
1.193955 0.137422 0.178357 2.341805152028776e-38
1.193623 0.131490 0.178242 2.341805152028776e-38
1.194246 0.125668 0.178273 2.341805152028776e-38
1.192871 0.119645 0.178008 2.341805152028776e-38
1.192452 0.113732 0.177889 2.341805152028776e-38
1.192003 0.107827 0.177769 2.341805152028776e-38
1.192511 0.102013 0.177794 2.341805152028776e-38
1.190033 0.095958 0.177376 2.341805152028776e-38
1.190484 0.090153 0.177399 2.341805152028776e-38
1.191893 0.084417 0.177567 2.341805152028776e-38
1.190313 0.078473 0.177292 2.341805152028776e-38
1.190679 0.072668 0.177310 2.341805152028776e-38
1.192992 0.066972 0.177621 2.341805152028776e-38
1.190338 0.061002 0.177195 2.341805152028776e-38
1.190620 0.055196 0.177209 2.341805152028776e-38
1.188896 0.049308 0.176927 2.341805152028776e-38
1.189121 0.043509 0.176938 2.341805152028776e-38
1.190306 0.037742 0.177095 2.341805152028776e-38
1.188497 0.031884 0.176809 2.341805152028776e-38
1.188638 0.026088 0.176816 2.341805152028776e-38
1.187761 0.020274 0.176674 2.341805152028776e-38
1.189823 0.014506 0.176973 2.341805152028776e-38
1.189879 0.008704 0.176976 2.341805152028776e-38
1.186940 0.002894 0.176536 2.341805152028776e-38
1.186940 -0.002894 0.176536 2.341805152028776e-38
1.183945 -0.008660 0.176093 2.341805152028776e-38
1.180922 -0.014397 0.175649 2.341805152028776e-38
1.181827 -0.020173 0.175792 2.341805152028776e-38
1.180727 -0.025914 0.175639 2.341805152028776e-38
1.181576 -0.031698 0.175779 2.341805152028776e-38
1.180420 -0.037428 0.175624 2.341805152028776e-38
1.181213 -0.043220 0.175761 2.341805152028776e-38
1.183955 -0.049103 0.176192 2.341805152028776e-38
1.180739 -0.054738 0.175738 2.341805152028776e-38
1.180460 -0.060495 0.175724 2.341805152028776e-38
1.182129 -0.066362 0.176003 2.341805152028776e-38
1.182781 -0.072186 0.176134 2.341805152028776e-38
1.181430 -0.077888 0.175969 2.341805152028776e-38
1.179066 -0.083508 0.175656 2.341805152028776e-38
1.179634 -0.089332 0.175782 2.341805152028776e-38
1.179188 -0.095083 0.175760 2.341805152028776e-38
1.176742 -0.100664 0.175443 2.341805152028776e-38
1.176241 -0.106401 0.175418 2.341805152028776e-38
1.176697 -0.112230 0.175539 2.341805152028776e-38
1.179092 -0.118263 0.175952 2.341805152028776e-38
1.178506 -0.124011 0.175923 2.341805152028776e-38
1.177892 -0.129757 0.175893 2.341805152028776e-38
1.176267 -0.135386 0.175714 2.341805152028776e-38
1.176580 -0.141239 0.175828 2.341805152028776e-38
1.174901 -0.146852 0.175647 2.341805152028776e-38
1.173195 -0.152453 0.175464 2.341805152028776e-38
1.172443 -0.158172 0.175427 2.341805152028776e-38
1.172643 -0.164025 0.175535 2.341805152028776e-38
1.170856 -0.169600 0.175349 2.341805152028776e-38
1.171000 -0.175454 0.175454 2.341805152028776e-38
1.170137 -0.181163 0.175412 2.341805152028776e-38
1.171199 -0.187180 0.175661 2.341805152028776e-38
1.169303 -0.192728 0.175469 2.341805152028776e-38
1.170307 -0.198760 0.175715 2.341805152028776e-38
1.166408 -0.203953 0.175228 2.341805152028776e-38
1.167354 -0.209990 0.175471 2.341805152028776e-38
1.168269 -0.216040 0.175713 2.341805152028776e-38
1.166238 -0.221550 0.175514 2.341805152028776e-38
1.160297 -0.226289 0.174729 2.341805152028776e-38
1.191198 -0.238350 0.179498 2.341805152028776e-38
1.253990 -0.257279 0.189085 2.341805152028776e-38
1.197289 0.179308 0.173429 2.341805152028776e-38
1.190305 0.172335 0.172335 2.341805152028776e-38
1.192106 0.166668 0.172516 2.341805152028776e-38
1.193880 0.160987 0.172695 2.341805152028776e-38
1.194645 0.155166 0.172732 2.341805152028776e-38
1.195382 0.149341 0.172767 2.341805152028776e-38
1.195108 0.143395 0.172659 2.341805152028776e-38
1.197755 0.137794 0.172975 2.341805152028776e-38
1.199391 0.132062 0.173149 2.341805152028776e-38
1.201001 0.126318 0.173320 2.341805152028776e-38
1.197659 0.120068 0.172781 2.341805152028776e-38
1.196255 0.114041 0.172523 2.341805152028776e-38
1.192850 0.107852 0.171981 2.341805152028776e-38
1.193358 0.102037 0.172005 2.341805152028776e-38
1.191864 0.096060 0.171743 2.341805152028776e-38
1.192315 0.090249 0.171765 2.341805152028776e-38
1.189776 0.084227 0.171358 2.341805152028776e-38
1.190170 0.078427 0.171377 2.341805152028776e-38
1.194487 0.072866 0.171964 2.341805152028776e-38
1.194826 0.067043 0.171980 2.341805152028776e-38
1.191182 0.061016 0.171425 2.341805152028776e-38
1.192452 0.055255 0.171581 2.341805152028776e-38
1.190728 0.049360 0.171309 2.341805152028776e-38
1.190953 0.043556 0.171319 2.341805152028776e-38
1.191150 0.037750 0.171329 2.341805152028776e-38
1.191318 0.031944 0.171337 2.341805152028776e-38
1.190469 0.026115 0.171201 2.341805152028776e-38
1.191571 0.020330 0.171349 2.341805152028776e-38
1.192645 0.014533 0.171495 2.341805152028776e-38
1.189732 0.008699 0.171071 2.341805152028776e-38
1.186791 0.002892 0.170645 2.341805152028776e-38
1.186791 -0.002892 0.170645 2.341805152028776e-38
1.185773 -0.008670 0.170502 2.341805152028776e-38
1.184727 -0.014437 0.170357 2.341805152028776e-38
1.184644 -0.020211 0.170353 2.341805152028776e-38
1.186511 -0.026029 0.170632 2.341805152028776e-38
1.183403 -0.031732 0.170198 2.341805152028776e-38
1.181256 -0.037437 0.169906 2.341805152028776e-38
1.184029 -0.043303 0.170323 2.341805152028776e-38
1.183805 -0.049073 0.170313 2.341805152028776e-38
1.182565 -0.054797 0.170158 2.341805152028776e-38
1.182286 -0.060560 0.170145 2.341805152028776e-38
1.182967 -0.066377 0.170273 2.341805152028776e-38
1.182631 -0.072143 0.170257 2.341805152028776e-38
1.180293 -0.077776 0.169955 2.341805152028776e-38
1.179902 -0.083528 0.169936 2.341805152028776e-38
1.177510 -0.089129 0.169632 2.341805152028776e-38
1.178051 -0.094947 0.169753 2.341805152028776e-38
1.176592 -0.100603 0.169588 2.341805152028776e-38
1.177077 -0.106426 0.169706 2.341805152028776e-38
1.177533 -0.112256 0.169823 2.341805152028776e-38
1.179930 -0.118291 0.170223 2.341805152028776e-38
1.178359 -0.123937 0.170053 2.341805152028776e-38
1.179713 -0.129896 0.170308 2.341805152028776e-38
1.178087 -0.135531 0.170135 2.341805152028776e-38
1.176434 -0.141154 0.169961 2.341805152028776e-38
1.175737 -0.146887 0.169928 2.341805152028776e-38
1.173049 -0.152361 0.169609 2.341805152028776e-38
1.172297 -0.158077 0.169574 2.341805152028776e-38
1.176420 -0.164475 0.170246 2.341805152028776e-38
1.173651 -0.169923 0.169923 2.341805152028776e-38
1.170856 -0.175349 0.169600 2.341805152028776e-38
1.169994 -0.181054 0.169559 2.341805152028776e-38
1.173991 -0.187536 0.170225 2.341805152028776e-38
1.173069 -0.193256 0.170181 2.341805152028776e-38
1.170168 -0.198641 0.169852 2.341805152028776e-38
1.170168 -0.204513 0.169947 2.341805152028776e-38
1.171113 -0.210565 0.170182 2.341805152028776e-38
1.170079 -0.216271 0.170133 2.341805152028776e-38
1.169019 -0.221972 0.170082 2.341805152028776e-38
1.160157 -0.226153 0.168899 2.341805152028776e-38
1.194965 -0.238988 0.174078 2.341805152028776e-38
1.270407 -0.260521 0.185190 2.341805152028776e-38
1.199094 0.179495 0.167725 2.341805152028776e-38
1.192106 0.172516 0.166668 2.341805152028776e-38
1.193908 0.166843 0.166843 2.341805152028776e-38
1.196665 0.161288 0.167153 2.341805152028776e-38
1.196449 0.155329 0.167052 2.341805152028776e-38
1.196204 0.149375 0.166948 2.341805152028776e-38
1.196913 0.143545 0.166981 2.341805152028776e-38
1.201530 0.138165 0.167561 2.341805152028776e-38
1.210062 0.133176 0.168690 2.341805152028776e-38
1.207737 0.126968 0.168307 2.341805152028776e-38
1.199467 0.120194 0.167099 2.341805152028776e-38
1.197076 0.114067 0.166713 2.341805152028776e-38
1.198601 0.108322 0.166875 2.341805152028776e-38
1.198124 0.102397 0.166761 2.341805152028776e-38
1.193669 0.096161 0.166097 2.341805152028776e-38
1.192145 0.090195 0.165843 2.341805152028776e-38
1.191580 0.084316 0.165725 2.341805152028776e-38
1.193951 0.078640 0.166018 2.341805152028776e-38
1.195306 0.072882 0.166172 2.341805152028776e-38
1.190700 0.066781 0.165500 2.341805152028776e-38
1.188041 0.060827 0.165102 2.341805152028776e-38
1.190301 0.055130 0.165390 2.341805152028776e-38
1.191543 0.049371 0.165539 2.341805152028776e-38
1.191768 0.043566 0.165549 2.341805152028776e-38
1.190975 0.037728 0.165421 2.341805152028776e-38
1.190153 0.031898 0.165291 2.341805152028776e-38
1.191284 0.026121 0.165435 2.341805152028776e-38
1.191396 0.020317 0.165440 2.341805152028776e-38
1.191481 0.014513 0.165444 2.341805152028776e-38
1.188566 0.008686 0.165034 2.341805152028776e-38
1.185622 0.002888 0.164623 2.341805152028776e-38
1.184632 -0.002886 0.164485 2.341805152028776e-38
1.186585 -0.008672 0.164759 2.341805152028776e-38
1.185538 -0.014440 0.164619 2.341805152028776e-38
1.187435 -0.020250 0.164890 2.341805152028776e-38
1.189304 -0.026078 0.165160 2.341805152028776e-38
1.185203 -0.031766 0.164604 2.341805152028776e-38
1.185035 -0.037539 0.164596 2.341805152028776e-38
1.183849 -0.043276 0.164449 2.341805152028776e-38
1.185605 -0.049125 0.164714 2.341805152028776e-38
1.183375 -0.054809 0.164428 2.341805152028776e-38
1.183095 -0.060574 0.164415 2.341805152028776e-38
1.183777 -0.066393 0.164538 2.341805152028776e-38
1.184430 -0.072219 0.164660 2.341805152028776e-38
1.181102 -0.077794 0.164231 2.341805152028776e-38
1.179723 -0.083477 0.164076 2.341805152028776e-38
1.177330 -0.089074 0.163782 2.341805152028776e-38
1.173923 -0.094570 0.163349 2.341805152028776e-38
1.170490 -0.100036 0.162915 2.341805152028776e-38
1.175911 -0.106272 0.163716 2.341805152028776e-38
1.180313 -0.112469 0.164378 2.341805152028776e-38
1.178769 -0.118120 0.164215 2.341805152028776e-38
1.178184 -0.123861 0.164188 2.341805152028776e-38
1.178555 -0.129709 0.164297 2.341805152028776e-38
1.176929 -0.135336 0.164131 2.341805152028776e-38
1.178227 -0.141304 0.164374 2.341805152028776e-38
1.174580 -0.146675 0.163931 2.341805152028776e-38
1.175821 -0.152651 0.164171 2.341805152028776e-38
1.176050 -0.158510 0.164274 2.341805152028776e-38
1.173306 -0.163964 0.163964 2.341805152028776e-38
1.169558 -0.169253 0.163515 2.341805152028776e-38
1.170684 -0.175242 0.163751 2.341805152028776e-38
1.171780 -0.181247 0.163985 2.341805152028776e-38
1.174801 -0.187578 0.164492 2.341805152028776e-38
1.170947 -0.192817 0.164039 2.341805152028776e-38
1.169023 -0.198354 0.163858 2.341805152028776e-38
1.169025 -0.204218 0.163950 2.341805152028776e-38
1.173872 -0.210963 0.164725 2.341805152028776e-38
1.169915 -0.216140 0.164266 2.341805152028776e-38
1.169828 -0.222022 0.164354 2.341805152028776e-38
1.161933 -0.226393 0.163347 2.341805152028776e-38
1.194823 -0.238849 0.168079 2.341805152028776e-38
1.243145 -0.254812 0.174991 2.341805152028776e-38
1.201852 0.179828 0.162140 2.341805152028776e-38
1.193880 0.172695 0.160987 2.341805152028776e-38
1.197646 0.167291 0.161421 2.341805152028776e-38
1.198442 0.161456 0.161456 2.341805152028776e-38
