VERSION .7
FIELDS x y z rgb
SIZE 4 4 4 4
TYPE F F F F
COUNT 1 1 1 1
WIDTH 976
HEIGHT 1
VIEWPOINT 0 0 0 1 0 0 0
POINTS 976
DATA ascii
0.748165 0.739351 0.179160 2.341805152028776e-38
0.752018 0.733998 0.179085 2.341805152028776e-38
0.756505 0.729349 0.179183 2.341805152028776e-38
0.760250 0.723993 0.179106 2.341805152028776e-38
0.763957 0.718620 0.179025 2.341805152028776e-38
0.766905 0.712560 0.178769 2.341805152028776e-38
0.772709 0.709162 0.179183 2.341805152028776e-38
0.776994 0.704443 0.179267 2.341805152028776e-38
0.781250 0.699699 0.179345 2.341805152028776e-38
0.784002 0.693625 0.179081 2.341805152028776e-38
0.789677 0.690139 0.179487 2.341805152028776e-38
0.793100 0.684678 0.179381 2.341805152028776e-38
0.797943 0.680530 0.179619 2.341805152028776e-38
0.801253 0.675083 0.179516 2.341805152028776e-38
0.805284 0.670253 0.179577 2.341805152028776e-38
0.810047 0.666026 0.179802 2.341805152028776e-38
0.813259 0.660524 0.179683 2.341805152028776e-38
0.820244 0.658134 0.180415 2.341805152028776e-38
0.827989 0.656310 0.181315 2.341805152028776e-38
0.834190 0.653203 0.181872 2.341805152028776e-38
0.838824 0.648842 0.182086 2.341805152028776e-38
0.842652 0.643851 0.182125 2.341805152028776e-38
0.846426 0.638869 0.182168 2.341805152028776e-38
0.850941 0.634481 0.182381 2.341805152028776e-38
0.853053 0.628309 0.182081 2.341805152028776e-38
0.858310 0.624455 0.182454 2.341805152028776e-38
0.865952 0.622288 0.183330 2.341805152028776e-38
0.867153 0.615510 0.182850 2.341805152028776e-38
0.870698 0.610474 0.182885 2.341805152028776e-38
0.873404 0.604858 0.182744 2.341805152028776e-38
0.879328 0.601459 0.183277 2.341805152028776e-38
0.882792 0.596358 0.183296 2.341805152028776e-38
0.886221 0.591245 0.183312 2.341805152028776e-38
0.888761 0.585622 0.183168 2.341805152028776e-38
0.894571 0.582140 0.183698 2.341805152028776e-38
0.901199 0.579146 0.184392 2.341805152028776e-38
0.905325 0.574512 0.184572 2.341805152028776e-38
0.909428 0.569852 0.184746 2.341805152028776e-38
0.915986 0.566771 0.185441 2.341805152028776e-38
0.919170 0.561588 0.185455 2.341805152028776e-38
0.924857 0.557916 0.185972 2.341805152028776e-38
0.926297 0.551678 0.185636 2.341805152028776e-38
0.930246 0.546942 0.185803 2.341805152028776e-38
0.936704 0.543700 0.186487 2.341805152028776e-38
0.940575 0.538958 0.186664 2.341805152028776e-38
0.944422 0.534191 0.186835 2.341805152028776e-38
0.947385 0.528920 0.186832 2.341805152028776e-38
0.950318 0.523634 0.186824 2.341805152028776e-38
0.954943 0.519294 0.187157 2.341805152028776e-38
0.960391 0.515427 0.187668 2.341805152028776e-38
0.964956 0.511056 0.188005 2.341805152028776e-38
0.968627 0.506197 0.188167 2.341805152028776e-38
0.974027 0.502217 0.188664 2.341805152028776e-38
0.978533 0.497749 0.188985 2.341805152028776e-38
0.982986 0.493307 0.189323 2.341805152028776e-38
0.987418 0.488835 0.189657 2.341805152028776e-38
0.990060 0.483466 0.189647 2.341805152028776e-38
0.994449 0.478940 0.189970 2.341805152028776e-38
0.997927 0.473959 0.190119 2.341805152028776e-38
1.001360 0.468995 0.190278 2.341805152028776e-38
1.006546 0.464859 0.190780 2.341805152028776e-38
1.010819 0.460274 0.191108 2.341805152028776e-38
1.014173 0.455255 0.191261 2.341805152028776e-38
1.019304 0.451013 0.191748 2.341805152028776e-38
1.021703 0.445562 0.191727 2.341805152028776e-38
1.025858 0.440927 0.192060 2.341805152028776e-38
1.024548 0.433956 0.191372 2.341805152028776e-38
0.900278 0.969682 0.217941 2.341805152028776e-38
0.804286 0.855437 0.193525 2.341805152028776e-38
0.757247 0.795326 0.181114 2.341805152028776e-38
0.741642 0.769259 0.176342 2.341805152028776e-38
0.738129 0.756147 0.174495 2.341805152028776e-38
0.740030 0.748724 0.173946 2.341805152028776e-38
0.743264 0.742702 0.173717 2.341805152028776e-38
0.746451 0.736670 0.173482 2.341805152028776e-38
0.751688 0.732718 0.173737 2.341805152028776e-38
0.756167 0.728073 0.173831 2.341805152028776e-38
0.759903 0.722721 0.173755 2.341805152028776e-38
0.762883 0.716676 0.173511 2.341805152028776e-38
0.767263 0.711966 0.173589 2.341805152028776e-38
0.772326 0.707913 0.173829 2.341805152028776e-38
0.776603 0.703198 0.173909 2.341805152028776e-38
0.780117 0.697800 0.173820 2.341805152028776e-38
0.783594 0.692387 0.173726 2.341805152028776e-38
0.787777 0.687608 0.173791 2.341805152028776e-38
0.792669 0.683458 0.174017 2.341805152028776e-38
0.797502 0.679317 0.174249 2.341805152028776e-38
0.800804 0.673874 0.174147 2.341805152028776e-38
0.804828 0.669048 0.174205 2.341805152028776e-38
0.809585 0.664825 0.174422 2.341805152028776e-38
0.815852 0.661814 0.174962 2.341805152028776e-38
0.822837 0.659423 0.175676 2.341805152028776e-38
0.829048 0.656361 0.176221 2.341805152028776e-38
0.835252 0.653249 0.176762 2.341805152028776e-38
0.838326 0.647676 0.176639 2.341805152028776e-38
0.842932 0.643288 0.176840 2.341805152028776e-38
0.846690 0.638321 0.176884 2.341805152028776e-38
0.849620 0.632753 0.176761 2.341805152028776e-38
0.853309 0.627759 0.176798 2.341805152028776e-38
0.857767 0.623325 0.176994 2.341805152028776e-38
0.863003 0.619437 0.177349 2.341805152028776e-38
0.866587 0.614405 0.177380 2.341805152028776e-38
0.871741 0.610505 0.177742 2.341805152028776e-38
0.876069 0.606006 0.177934 2.341805152028776e-38
0.881187 0.602036 0.178285 2.341805152028776e-38
0.886290 0.598028 0.178632 2.341805152028776e-38
0.888895 0.592366 0.178486 2.341805152028776e-38
0.893089 0.587813 0.178674 2.341805152028776e-38
0.899741 0.584845 0.179352 2.341805152028776e-38
0.903067 0.579691 0.179366 2.341805152028776e-38
0.905532 0.573991 0.179210 2.341805152028776e-38
0.909624 0.569341 0.179382 2.341805152028776e-38
0.915340 0.565749 0.179893 2.341805152028776e-38
0.919360 0.561084 0.180069 2.341805152028776e-38
0.923357 0.556394 0.180240 2.341805152028776e-38
0.928178 0.552182 0.180571 2.341805152028776e-38
0.932980 0.547935 0.180897 2.341805152028776e-38
0.939435 0.544698 0.181566 2.341805152028776e-38
0.942457 0.539452 0.181572 2.341805152028776e-38
0.945449 0.534190 0.181572 2.341805152028776e-38
0.945827 0.527472 0.181073 2.341805152028776e-38
0.950481 0.523147 0.181393 2.341805152028776e-38
0.956825 0.519769 0.182051 2.341805152028776e-38
0.962279 0.515892 0.182546 2.341805152028776e-38
0.966848 0.511512 0.182872 2.341805152028776e-38
0.969648 0.506186 0.182863 2.341805152028776e-38
0.972420 0.500846 0.182849 2.341805152028776e-38
0.976908 0.496409 0.183167 2.341805152028776e-38
0.981355 0.491977 0.183494 2.341805152028776e-38
0.986666 0.487951 0.183982 2.341805152028776e-38
0.991076 0.483452 0.184299 2.341805152028776e-38
0.993689 0.478065 0.184282 2.341805152028776e-38
0.997163 0.473091 0.184425 2.341805152028776e-38
1.004153 0.469826 0.185246 2.341805152028776e-38
1.006659 0.464436 0.185237 2.341805152028776e-38
1.009136 0.459034 0.185224 2.341805152028776e-38
1.015184 0.455235 0.185865 2.341805152028776e-38
1.020318 0.450989 0.186337 2.341805152028776e-38
1.022703 0.445558 0.186324 2.341805152028776e-38
1.029580 0.442086 0.187141 2.341805152028776e-38
1.026456 0.434327 0.186140 2.341805152028776e-38
0.897591 0.965483 0.210708 2.341805152028776e-38
0.802098 0.851962 0.187152 2.341805152028776e-38
0.756322 0.793288 0.175414 2.341805152028776e-38
0.741349 0.767947 0.170938 2.341805152028776e-38
0.737125 0.754132 0.168986 2.341805152028776e-38
0.739704 0.747418 0.168609 2.341805152028776e-38
0.742229 0.740702 0.168227 2.341805152028776e-38
0.746809 0.736064 0.168315 2.341805152028776e-38
0.751323 0.731435 0.168406 2.341805152028776e-38
0.755795 0.726793 0.168495 2.341805152028776e-38
0.760953 0.722805 0.168738 2.341805152028776e-38
0.763931 0.716755 0.168500 2.341805152028776e-38
0.767588 0.711368 0.168416 2.341805152028776e-38
0.771908 0.706660 0.168492 2.341805152028776e-38
0.775446 0.701287 0.168409 2.341805152028776e-38
0.778947 0.695898 0.168322 2.341805152028776e-38
0.783151 0.691146 0.168388 2.341805152028776e-38
0.788071 0.687020 0.168609 2.341805152028776e-38
0.792201 0.682238 0.168671 2.341805152028776e-38
0.796275 0.677462 0.168736 2.341805152028776e-38
0.801077 0.673298 0.168955 2.341805152028776e-38
0.805097 0.668472 0.169010 2.341805152028776e-38
0.809852 0.664248 0.169219 2.341805152028776e-38
0.816873 0.661872 0.169906 2.341805152028776e-38
0.823862 0.659476 0.170598 2.341805152028776e-38
0.830851 0.657021 0.171286 2.341805152028776e-38
0.833950 0.651469 0.171170 2.341805152028776e-38
0.837013 0.645905 0.171050 2.341805152028776e-38
0.842389 0.642130 0.171405 2.341805152028776e-38
0.846133 0.637176 0.171449 2.341805152028776e-38
0.848264 0.631024 0.171168 2.341805152028776e-38
0.853534 0.627208 0.171522 2.341805152028776e-38
0.857190 0.622193 0.171551 2.341805152028776e-38
0.862422 0.618309 0.171895 2.341805152028776e-38
0.866792 0.613867 0.172088 2.341805152028776e-38
0.872754 0.610533 0.172598 2.341805152028776e-38
0.879519 0.607713 0.173263 2.341805152028776e-38
0.884650 0.603723 0.173603 2.341805152028776e-38
0.887308 0.598041 0.173458 2.341805152028776e-38
0.892365 0.594032 0.173800 2.341805152028776e-38
0.894920 0.588375 0.173661 2.341805152028776e-38
0.897439 0.582710 0.173518 2.341805152028776e-38
0.899923 0.577037 0.173370 2.341805152028776e-38
0.904039 0.572411 0.173537 2.341805152028776e-38
0.910622 0.569359 0.174188 2.341805152028776e-38
0.914661 0.564725 0.174362 2.341805152028776e-38
0.917834 0.559551 0.174372 2.341805152028776e-38
0.922668 0.555379 0.174697 2.341805152028776e-38
0.925788 0.550163 0.174696 2.341805152028776e-38
0.932273 0.546945 0.175336 2.341805152028776e-38
0.936162 0.542232 0.175505 2.341805152028776e-38
0.940883 0.537984 0.175829 2.341805152028776e-38
0.943008 0.532246 0.175668 2.341805152028776e-38
0.945960 0.526984 0.175661 2.341805152028776e-38
0.950612 0.522659 0.175971 2.341805152028776e-38
0.955210 0.518359 0.176295 2.341805152028776e-38
0.960659 0.514492 0.176774 2.341805152028776e-38
0.963476 0.509198 0.176768 2.341805152028776e-38
0.967139 0.504348 0.176918 2.341805152028776e-38
0.969901 0.499022 0.176902 2.341805152028776e-38
0.973488 0.494174 0.177057 2.341805152028776e-38
0.980572 0.491088 0.177853 2.341805152028776e-38
0.984996 0.486629 0.178165 2.341805152028776e-38
0.991176 0.483004 0.178792 2.341805152028776e-38
0.994676 0.478045 0.178933 2.341805152028776e-38
0.999030 0.473511 0.179239 2.341805152028776e-38
1.001556 0.468147 0.179233 2.341805152028776e-38
1.006742 0.464011 0.179704 2.341805152028776e-38
1.011014 0.459426 0.180009 2.341805152028776e-38
1.016167 0.455214 0.180469 2.341805152028776e-38
1.022205 0.451363 0.181086 2.341805152028776e-38
1.024581 0.445946 0.181081 2.341805152028776e-38
1.028742 0.441297 0.181392 2.341805152028776e-38
1.029245 0.435081 0.181059 2.341805152028776e-38
1.098056 0.457339 0.192715 2.341805152028776e-38
0.898220 0.964895 0.204294 2.341805152028776e-38
0.799187 0.847762 0.180670 2.341805152028776e-38
0.754674 0.790534 0.169586 2.341805152028776e-38
0.739646 0.765210 0.165245 2.341805152028776e-38
0.737466 0.753524 0.163810 2.341805152028776e-38
0.739344 0.746108 0.163290 2.341805152028776e-38
0.741857 0.739395 0.162918 2.341805152028776e-38
0.745725 0.734068 0.162848 2.341805152028776e-38
0.750924 0.730147 0.163091 2.341805152028776e-38
0.756813 0.726878 0.163485 2.341805152028776e-38
0.759822 0.720845 0.163258 2.341805152028776e-38
0.763507 0.715479 0.163179 2.341805152028776e-38
0.767881 0.710767 0.163250 2.341805152028776e-38
0.772185 0.706071 0.163326 2.341805152028776e-38
0.775718 0.700697 0.163245 2.341805152028776e-38
0.779215 0.695308 0.163159 2.341805152028776e-38
0.784157 0.691209 0.163377 2.341805152028776e-38
0.788333 0.686428 0.163435 2.341805152028776e-38
0.792448 0.681659 0.163498 2.341805152028776e-38
0.796519 0.676883 0.163559 2.341805152028776e-38
0.801317 0.672719 0.163770 2.341805152028776e-38
0.806095 0.668522 0.163977 2.341805152028776e-38
0.810851 0.664294 0.164179 2.341805152028776e-38
0.819401 0.663170 0.165157 2.341805152028776e-38
0.824858 0.659526 0.165518 2.341805152028776e-38
0.828749 0.654617 0.165565 2.341805152028776e-38
0.833391 0.650294 0.165761 2.341805152028776e-38
0.836446 0.644734 0.165643 2.341805152028776e-38
0.839447 0.639182 0.165525 2.341805152028776e-38
0.843964 0.634841 0.165722 2.341805152028776e-38
0.848458 0.630470 0.165913 2.341805152028776e-38
0.852930 0.626069 0.166100 2.341805152028776e-38
0.859779 0.623378 0.166747 2.341805152028776e-38
0.862601 0.617765 0.166617 2.341805152028776e-38
0.869385 0.615040 0.167270 2.341805152028776e-38
0.875357 0.611691 0.167763 2.341805152028776e-38
0.878067 0.606051 0.167631 2.341805152028776e-38
0.883190 0.602071 0.167960 2.341805152028776e-38
0.887476 0.597502 0.168128 2.341805152028776e-38
0.890053 0.591867 0.167997 2.341805152028776e-38
0.892594 0.586224 0.167862 2.341805152028776e-38
0.895100 0.580573 0.167721 2.341805152028776e-38
0.899235 0.575979 0.167886 2.341805152028776e-38
0.905016 0.572415 0.168357 2.341805152028776e-38
0.909077 0.567805 0.168527 2.341805152028776e-38
0.913108 0.563180 0.168695 2.341805152028776e-38
0.917116 0.558529 0.168858 2.341805152028776e-38
0.921946 0.554362 0.169171 2.341805152028776e-38
0.925910 0.549655 0.169325 2.341805152028776e-38
0.929827 0.544957 0.169484 2.341805152028776e-38
0.935415 0.541248 0.169957 2.341805152028776e-38
0.939275 0.536515 0.170114 2.341805152028776e-38
0.943112 0.531757 0.170267 2.341805152028776e-38
0.946924 0.526974 0.170415 2.341805152028776e-38
0.948969 0.521237 0.170253 2.341805152028776e-38
0.953560 0.516947 0.170566 2.341805152028776e-38
0.958133 0.512623 0.170875 2.341805152028776e-38
0.964435 0.509189 0.171489 2.341805152028776e-38
0.967223 0.503877 0.171477 2.341805152028776e-38
0.968222 0.497653 0.171150 2.341805152028776e-38
0.972674 0.493278 0.171460 2.341805152028776e-38
0.979757 0.490197 0.172231 2.341805152028776e-38
0.984179 0.485743 0.172532 2.341805152028776e-38
0.988580 0.481258 0.172827 2.341805152028776e-38
0.992071 0.476313 0.172963 2.341805152028776e-38
0.994620 0.470971 0.172955 2.341805152028776e-38
0.999817 0.466885 0.173414 2.341805152028776e-38
1.005897 0.463172 0.174024 2.341805152028776e-38
1.010166 0.458591 0.174318 2.341805152028776e-38
1.014415 0.453981 0.174608 2.341805152028776e-38
1.019534 0.449765 0.175058 2.341805152028776e-38
1.023713 0.445151 0.175362 2.341805152028776e-38
1.027872 0.440507 0.175662 2.341805152028776e-38
1.027460 0.433911 0.175182 2.341805152028776e-38
1.099061 0.457316 0.186953 2.341805152028776e-38
0.878579 0.942599 0.193432 2.341805152028776e-38
0.793515 0.840679 0.173649 2.341805152028776e-38
0.755026 0.789927 0.164242 2.341805152028776e-38
0.740655 0.765311 0.160181 2.341805152028776e-38
0.735698 0.750794 0.158194 2.341805152028776e-38
0.738251 0.744092 0.157838 2.341805152028776e-38
0.742151 0.738783 0.157774 2.341805152028776e-38
0.746711 0.734156 0.157856 2.341805152028776e-38
0.751909 0.730233 0.158092 2.341805152028776e-38
0.755659 0.724906 0.158024 2.341805152028776e-38
0.760090 0.720241 0.158102 2.341805152028776e-38
0.764493 0.715551 0.158174 2.341805152028776e-38
0.768139 0.710165 0.158093 2.341805152028776e-38
0.771700 0.704811 0.158018 2.341805152028776e-38
0.775224 0.699442 0.157938 2.341805152028776e-38
0.779451 0.694714 0.158004 2.341805152028776e-38
0.783648 0.689962 0.158064 2.341805152028776e-38
0.788563 0.685834 0.158269 2.341805152028776e-38
0.792663 0.681077 0.158332 2.341805152028776e-38
0.797484 0.676941 0.158540 2.341805152028776e-38
0.801526 0.672137 0.158594 2.341805152028776e-38
0.807063 0.668571 0.158943 2.341805152028776e-38
0.814880 0.666842 0.159738 2.341805152028776e-38
0.819595 0.662601 0.159938 2.341805152028776e-38
0.824278 0.658340 0.160137 2.341805152028776e-38
0.828939 0.654048 0.160331 2.341805152028776e-38
0.831239 0.647901 0.160070 2.341805152028776e-38
0.835845 0.643561 0.160254 2.341805152028776e-38
0.841188 0.639823 0.160593 2.341805152028776e-38
0.845709 0.635473 0.160782 2.341805152028776e-38
0.850208 0.631092 0.160967 2.341805152028776e-38
0.855482 0.627266 0.161297 2.341805152028776e-38
0.858338 0.621662 0.161172 2.341805152028776e-38
0.865158 0.618949 0.161800 2.341805152028776e-38
0.867916 0.613357 0.161680 2.341805152028776e-38
0.873070 0.609452 0.162006 2.341805152028776e-38
0.875766 0.603826 0.161877 2.341805152028776e-38
0.879244 0.598747 0.161893 2.341805152028776e-38
0.885141 0.595320 0.162360 2.341805152028776e-38
0.890174 0.591341 0.162683 2.341805152028776e-38
0.892712 0.585698 0.162551 2.341805152028776e-38
0.896044 0.580585 0.162564 2.341805152028776e-38
0.901012 0.576519 0.162873 2.341805152028776e-38
0.905123 0.571894 0.163029 2.341805152028776e-38
0.909175 0.567296 0.163195 2.341805152028776e-38
0.913204 0.562671 0.163356 2.341805152028776e-38
0.917209 0.558020 0.163513 2.341805152028776e-38
0.922039 0.553853 0.163816 2.341805152028776e-38
0.926000 0.549145 0.163963 2.341805152028776e-38
0.929904 0.544465 0.164121 2.341805152028776e-38
0.933780 0.539767 0.164277 2.341805152028776e-38
0.940209 0.536513 0.164880 2.341805152028776e-38
0.944908 0.532236 0.165177 2.341805152028776e-38
0.946996 0.526483 0.165017 2.341805152028776e-38
0.949025 0.520765 0.164865 2.341805152028776e-38
0.953615 0.516475 0.165167 2.341805152028776e-38
0.959931 0.513084 0.165766 2.341805152028776e-38
0.964489 0.508718 0.166058 2.341805152028776e-38
0.966398 0.502949 0.165894 2.341805152028776e-38
0.970017 0.498105 0.166035 2.341805152028776e-38
0.974473 0.493721 0.166334 2.341805152028776e-38
0.978910 0.489304 0.166628 2.341805152028776e-38
0.983328 0.484856 0.166917 2.341805152028776e-38
0.986838 0.479943 0.167052 2.341805152028776e-38
0.990319 0.475015 0.167184 2.341805152028776e-38
0.994640 0.470543 0.167481 2.341805152028776e-38
0.999838 0.466457 0.167925 2.341805152028776e-38
1.004122 0.461918 0.168213 2.341805152028776e-38
1.009286 0.457756 0.168647 2.341805152028776e-38
1.015338 0.453957 0.169227 2.341805152028776e-38
1.019542 0.449361 0.169520 2.341805152028776e-38
1.022814 0.444354 0.169662 2.341805152028776e-38
1.026061 0.439326 0.169801 2.341805152028776e-38
1.028373 0.433893 0.169784 2.341805152028776e-38
1.089081 0.452738 0.179387 2.341805152028776e-38
0.911507 0.976725 0.194072 2.341805152028776e-38
0.806142 0.853010 0.170602 2.341805152028776e-38
0.756029 0.790031 0.159049 2.341805152028776e-38
0.739567 0.763275 0.154684 2.341805152028776e-38
0.734585 0.748766 0.152758 2.341805152028776e-38
0.738518 0.743475 0.152700 2.341805152028776e-38
0.742413 0.738166 0.152638 2.341805152028776e-38
0.745546 0.732163 0.152430 2.341805152028776e-38
0.750022 0.727560 0.152513 2.341805152028776e-38
0.754469 0.722930 0.152591 2.341805152028776e-38
0.760326 0.719635 0.152954 2.341805152028776e-38
0.763279 0.713592 0.152734 2.341805152028776e-38
0.767628 0.708897 0.152801 2.341805152028776e-38
0.770450 0.702881 0.152583 2.341805152028776e-38
0.774697 0.698183 0.152649 2.341805152028776e-38
0.778176 0.692802 0.152566 2.341805152028776e-38
0.781619 0.687405 0.152479 2.341805152028776e-38
0.787260 0.683947 0.152823 2.341805152028776e-38
0.794347 0.681781 0.153464 2.341805152028776e-38
0.798419 0.676996 0.153519 2.341805152028776e-38
0.803220 0.672822 0.153716 2.341805152028776e-38
0.811049 0.671140 0.154489 2.341805152028776e-38
0.815056 0.666258 0.154531 2.341805152028776e-38
0.819758 0.662029 0.154727 2.341805152028776e-38
0.822118 0.655917 0.154482 2.341805152028776e-38
0.828319 0.652863 0.154960 2.341805152028776e-38
0.832172 0.647937 0.154997 2.341805152028776e-38
0.839916 0.646005 0.155756 2.341805152028776e-38
0.842113 0.639863 0.155505 2.341805152028776e-38
0.846635 0.635508 0.155687 2.341805152028776e-38
0.848751 0.629355 0.155428 2.341805152028776e-38
0.854016 0.625539 0.155746 2.341805152028776e-38
0.856060 0.619364 0.155478 2.341805152028776e-38
0.863664 0.617255 0.156235 2.341805152028776e-38
0.867220 0.612243 0.156263 2.341805152028776e-38
0.871557 0.607777 0.156432 2.341805152028776e-38
0.874243 0.602160 0.156305 2.341805152028776e-38
0.879347 0.598203 0.156611 2.341805152028776e-38
0.885232 0.594792 0.157066 2.341805152028776e-38
0.890265 0.590813 0.157378 2.341805152028776e-38
0.891971 0.584628 0.157103 2.341805152028776e-38
0.897788 0.581132 0.157551 2.341805152028776e-38
0.901094 0.575991 0.157558 2.341805152028776e-38
0.906028 0.571911 0.157858 2.341805152028776e-38
0.909242 0.566785 0.157872 2.341805152028776e-38
0.913268 0.562160 0.158027 2.341805152028776e-38
0.915581 0.556482 0.157886 2.341805152028776e-38
0.922949 0.553851 0.158615 2.341805152028776e-38
0.926053 0.548646 0.158613 2.341805152028776e-38
0.929096 0.543473 0.158621 2.341805152028776e-38
0.933825 0.539274 0.158917 2.341805152028776e-38
0.941113 0.536511 0.159645 2.341805152028776e-38
0.942365 0.530288 0.159348 2.341805152028776e-38
0.947036 0.525991 0.159629 2.341805152028776e-38
0.949918 0.520768 0.159632 2.341805152028776e-38
0.952770 0.515531 0.159632 2.341805152028776e-38
0.957338 0.511213 0.159918 2.341805152028776e-38
0.961888 0.506862 0.160200 2.341805152028776e-38
0.965541 0.502020 0.160331 2.341805152028776e-38
0.969144 0.497201 0.160472 2.341805152028776e-38
0.973597 0.492822 0.160760 2.341805152028776e-38
0.979802 0.489294 0.161335 2.341805152028776e-38
0.984221 0.484841 0.161614 2.341805152028776e-38
0.989511 0.480788 0.162034 2.341805152028776e-38
0.992986 0.475868 0.162167 2.341805152028776e-38
0.995524 0.470536 0.162162 2.341805152028776e-38
1.000724 0.466446 0.162590 2.341805152028776e-38
1.004111 0.461489 0.162722 2.341805152028776e-38
1.008374 0.456919 0.162994 2.341805152028776e-38
1.014419 0.453136 0.163558 2.341805152028776e-38
1.017709 0.448159 0.163699 2.341805152028776e-38
1.021883 0.443555 0.163981 2.341805152028776e-38
1.023308 0.437755 0.163822 2.341805152028776e-38
1.026523 0.432721 0.163950 2.341805152028776e-38
0.873492 0.934877 0.179667 2.341805152028776e-38
0.792902 0.838006 0.162106 2.341805152028776e-38
0.754259 0.787270 0.153297 2.341805152028776e-38
0.739132 0.761946 0.149352 2.341805152028776e-38
0.734823 0.748146 0.147627 2.341805152028776e-38
0.737354 0.741451 0.147292 2.341805152028776e-38
0.740534 0.735452 0.147090 2.341805152028776e-38
0.744345 0.730166 0.147030 2.341805152028776e-38
0.750231 0.726949 0.147388 2.341805152028776e-38
0.754675 0.722320 0.147463 2.341805152028776e-38
0.759090 0.717664 0.147534 2.341805152028776e-38
0.762753 0.712306 0.147460 2.341805152028776e-38
0.766356 0.706955 0.147386 2.341805152028776e-38
0.770628 0.702281 0.147454 2.341805152028776e-38
0.774871 0.697583 0.147518 2.341805152028776e-38
0.779086 0.692860 0.147577 2.341805152028776e-38
0.783272 0.688112 0.147631 2.341805152028776e-38
0.790404 0.685955 0.148247 2.341805152028776e-38
0.795252 0.681837 0.148444 2.341805152028776e-38
0.801590 0.678968 0.148919 2.341805152028776e-38
0.806404 0.674776 0.149108 2.341805152028776e-38
0.810434 0.669922 0.149152 2.341805152028776e-38
0.815190 0.665683 0.149336 2.341805152028776e-38
0.816806 0.658967 0.148962 2.341805152028776e-38
0.822244 0.655342 0.149286 2.341805152028776e-38
0.826889 0.651064 0.149466 2.341805152028776e-38
0.832293 0.647362 0.149782 2.341805152028776e-38
0.836108 0.642420 0.149813 2.341805152028776e-38
0.841431 0.638704 0.150134 2.341805152028776e-38
0.845947 0.634354 0.150309 2.341805152028776e-38
0.848850 0.628795 0.150198 2.341805152028776e-38
0.852516 0.623809 0.150223 2.341805152028776e-38
0.856955 0.619384 0.150385 2.341805152028776e-38
0.862942 0.616134 0.150838 2.341805152028776e-38
0.868918 0.612838 0.151286 2.341805152028776e-38
0.873260 0.608363 0.151449 2.341805152028776e-38
0.875132 0.602176 0.151185 2.341805152028776e-38
0.878600 0.597101 0.151197 2.341805152028776e-38
0.881183 0.591503 0.151077 2.341805152028776e-38
0.887849 0.588643 0.151659 2.341805152028776e-38
0.892026 0.584099 0.151814 2.341805152028776e-38
0.897843 0.580603 0.152247 2.341805152028776e-38
0.901145 0.575462 0.152252 2.341805152028776e-38
0.905230 0.570870 0.152404 2.341805152028776e-38
0.909278 0.566272 0.152557 2.341805152028776e-38
0.914146 0.562167 0.152847 2.341805152028776e-38
0.918150 0.557511 0.152992 2.341805152028776e-38
0.923829 0.553848 0.153413 2.341805152028776e-38
0.924366 0.547142 0.152992 2.341805152028776e-38
0.929111 0.542979 0.153281 2.341805152028776e-38
0.933839 0.538780 0.153565 2.341805152028776e-38
0.939408 0.535037 0.153986 2.341805152028776e-38
0.942376 0.529795 0.153980 2.341805152028776e-38
0.943573 0.523593 0.153691 2.341805152028776e-38
0.948177 0.519342 0.153976 2.341805152028776e-38
0.956247 0.516940 0.154820 2.341805152028776e-38
0.962571 0.513535 0.155377 2.341805152028776e-38
0.963631 0.507310 0.155084 2.341805152028776e-38
0.966407 0.502006 0.155070 2.341805152028776e-38
0.970883 0.497650 0.155351 2.341805152028776e-38
0.974457 0.492815 0.155487 2.341805152028776e-38
0.980664 0.489283 0.156042 2.341805152028776e-38
0.985085 0.484826 0.156310 2.341805152028776e-38
0.990377 0.480768 0.156715 2.341805152028776e-38
0.993841 0.475864 0.156849 2.341805152028776e-38
0.999065 0.471796 0.157265 2.341805152028776e-38
1.004274 0.467688 0.157678 2.341805152028776e-38
1.004969 0.461472 0.157381 2.341805152028776e-38
1.008332 0.456489 0.157502 2.341805152028776e-38
1.010750 0.451115 0.157490 2.341805152028776e-38
1.014937 0.446557 0.157766 2.341805152028776e-38
1.019104 0.441968 0.158037 2.341805152028776e-38
1.024161 0.437739 0.158445 2.341805152028776e-38
1.025552 0.431932 0.158286 2.341805152028776e-38
0.898969 0.961041 0.178434 2.341805152028776e-38
0.804123 0.848892 0.158645 2.341805152028776e-38
0.755194 0.787365 0.148118 2.341805152028776e-38
0.737972 0.759902 0.143902 2.341805152028776e-38
0.732944 0.745403 0.142100 2.341805152028776e-38
0.736155 0.739423 0.141909 2.341805152028776e-38
0.740024 0.734131 0.141849 2.341805152028776e-38
0.744524 0.729552 0.141926 2.341805152028776e-38
0.749695 0.725647 0.142137 2.341805152028776e-38
0.754847 0.721706 0.142343 2.341805152028776e-38
0.759259 0.717050 0.142411 2.341805152028776e-38
0.761468 0.710340 0.142068 2.341805152028776e-38
0.765049 0.705009 0.141998 2.341805152028776e-38
0.770041 0.701011 0.142198 2.341805152028776e-38
0.774277 0.696318 0.142258 2.341805152028776e-38
0.777003 0.690283 0.142044 2.341805152028776e-38
0.784152 0.688163 0.142637 2.341805152028776e-38
0.791277 0.686013 0.143233 2.341805152028776e-38
0.795374 0.681247 0.143288 2.341805152028776e-38
0.800955 0.677738 0.143610 2.341805152028776e-38
0.805762 0.673551 0.143792 2.341805152028776e-38
0.811312 0.669963 0.144105 2.341805152028776e-38
0.812988 0.663227 0.143741 2.341805152028776e-38
0.817674 0.659011 0.143922 2.341805152028776e-38
0.820788 0.653531 0.143827 2.341805152028776e-38
0.823865 0.648037 0.143728 2.341805152028776e-38
0.825342 0.641315 0.143353 2.341805152028776e-38
0.831469 0.638237 0.143793 2.341805152028776e-38
0.838348 0.635746 0.144373 2.341805152028776e-38
0.843641 0.632009 0.144677 2.341805152028776e-38
0.846529 0.626464 0.144569 2.341805152028776e-38
0.850981 0.622078 0.144728 2.341805152028776e-38
0.857008 0.618833 0.145158 2.341805152028776e-38
0.861380 0.614435 0.145323 2.341805152028776e-38
0.867348 0.611149 0.145755 2.341805152028776e-38
0.871681 0.606684 0.145911 2.341805152028776e-38
0.874359 0.601068 0.145791 2.341805152028776e-38
0.877818 0.596002 0.145803 2.341805152028776e-38
0.880386 0.590420 0.145688 2.341805152028776e-38
0.883745 0.585376 0.145705 2.341805152028776e-38
0.887075 0.580314 0.145718 2.341805152028776e-38
0.891209 0.575771 0.145862 2.341805152028776e-38
0.896989 0.572267 0.146275 2.341805152028776e-38
0.901885 0.568243 0.146560 2.341805152028776e-38
0.905918 0.563665 0.146707 2.341805152028776e-38
0.911617 0.560097 0.147122 2.341805152028776e-38
0.918152 0.556998 0.147669 2.341805152028776e-38
0.922131 0.552317 0.147803 2.341805152028776e-38
0.925205 0.547150 0.147808 2.341805152028776e-38
0.931662 0.543982 0.148359 2.341805152028776e-38
0.935538 0.539275 0.148496 2.341805152028776e-38
0.938530 0.534052 0.148493 2.341805152028776e-38
0.939764 0.527845 0.148213 2.341805152028776e-38
0.941805 0.522155 0.148074 2.341805152028776e-38
0.950748 0.520292 0.149028 2.341805152028776e-38
0.963186 0.520231 0.150524 2.341805152028776e-38
0.966035 0.514924 0.150516 2.341805152028776e-38
0.962717 0.506374 0.149551 2.341805152028776e-38
0.965477 0.501094 0.149541 2.341805152028776e-38
0.969949 0.496744 0.149812 2.341805152028776e-38
0.977056 0.493701 0.150486 2.341805152028776e-38
0.979724 0.488387 0.150476 2.341805152028776e-38
0.982364 0.483061 0.150462 2.341805152028776e-38
0.988536 0.479458 0.150990 2.341805152028776e-38
0.993775 0.475432 0.151395 2.341805152028776e-38
1.003479 0.473478 0.152476 2.341805152028776e-38
1.003309 0.466838 0.152056 2.341805152028776e-38
1.002198 0.459802 0.151496 2.341805152028776e-38
1.004650 0.454426 0.151475 2.341805152028776e-38
1.009760 0.450303 0.151877 2.341805152028776e-38
1.017572 0.447345 0.152687 2.341805152028776e-38
1.021744 0.442743 0.152948 2.341805152028776e-38
1.024985 0.437721 0.153068 2.341805152028776e-38
0.891258 0.951741 0.170507 2.341805152028776e-38
0.803051 0.846828 0.152707 2.341805152028776e-38
0.755410 0.786742 0.142808 2.341805152028776e-38
0.739540 0.760697 0.138998 2.341805152028776e-38
0.735201 0.746895 0.137389 2.341805152028776e-38
0.737720 0.740200 0.137074 2.341805152028776e-38
0.740184 0.733503 0.136755 2.341805152028776e-38
0.744670 0.728934 0.136831 2.341805152028776e-38
0.749126 0.724340 0.136903 2.341805152028776e-38
0.754271 0.720404 0.137101 2.341805152028776e-38
0.757954 0.715073 0.137035 2.341805152028776e-38
0.760874 0.709048 0.136834 2.341805152028776e-38
0.767353 0.706417 0.137289 2.341805152028776e-38
0.773822 0.703741 0.137743 2.341805152028776e-38
0.774387 0.695712 0.137148 2.341805152028776e-38
0.777849 0.690336 0.137070 2.341805152028776e-38
0.782020 0.685598 0.137120 2.341805152028776e-38
0.787624 0.682174 0.137434 2.341805152028776e-38
0.793958 0.679365 0.137878 2.341805152028776e-38
0.798772 0.675225 0.138057 2.341805152028776e-38
0.805087 0.672323 0.138494 2.341805152028776e-38
0.809102 0.667478 0.138533 2.341805152028776e-38
0.813825 0.663273 0.138707 2.341805152028776e-38
0.816195 0.657188 0.138488 2.341805152028776e-38
0.820073 0.652334 0.138527 2.341805152028776e-38
0.822363 0.646233 0.138299 2.341805152028776e-38
0.826177 0.641344 0.138329 2.341805152028776e-38
0.833083 0.638878 0.138886 2.341805152028776e-38
0.840759 0.636977 0.139577 2.341805152028776e-38
0.842092 0.630256 0.139213 2.341805152028776e-38
0.845766 0.625310 0.139239 2.341805152028776e-38
0.850212 0.620929 0.139392 2.341805152028776e-38
0.853813 0.615963 0.139415 2.341805152028776e-38
0.859783 0.612734 0.139836 2.341805152028776e-38
0.866555 0.610029 0.140383 2.341805152028776e-38
0.872510 0.606701 0.140796 2.341805152028776e-38
0.874370 0.600519 0.140547 2.341805152028776e-38
0.876996 0.594911 0.140430 2.341805152028776e-38
0.879557 0.589334 0.140318 2.341805152028776e-38
0.879603 0.582107 0.139807 2.341805152028776e-38
0.882914 0.577069 0.139819 2.341805152028776e-38
0.892027 0.575777 0.140745 2.341805152028776e-38
0.898640 0.572811 0.141276 2.341805152028776e-38
0.901019 0.567199 0.141158 2.341805152028776e-38
0.904206 0.562102 0.141167 2.341805152028776e-38
0.912433 0.560101 0.141961 2.341805152028776e-38
0.917275 0.555970 0.142225 2.341805152028776e-38
0.920398 0.550785 0.142222 2.341805152028776e-38
0.925161 0.546653 0.142492 2.341805152028776e-38
0.928193 0.541487 0.142496 2.341805152028776e-38
0.934633 0.538283 0.143022 2.341805152028776e-38
0.935896 0.532087 0.142755 2.341805152028776e-38
0.940576 0.527834 0.143009 2.341805152028776e-38
0.940872 0.521197 0.142616 2.341805152028776e-38
0.947205 0.517913 0.143142 2.341805152028776e-38
0.956148 0.515988 0.144058 2.341805152028776e-38
0.955474 0.508856 0.143523 2.341805152028776e-38
0.960015 0.504515 0.143774 2.341805152028776e-38
0.964515 0.500181 0.144031 2.341805152028776e-38
0.972514 0.497642 0.144817 2.341805152028776e-38
0.974319 0.491905 0.144678 2.341805152028776e-38
0.978753 0.487491 0.144930 2.341805152028776e-38
0.983167 0.483043 0.145177 2.341805152028776e-38
0.987547 0.478591 0.145428 2.341805152028776e-38
0.993678 0.474998 0.145949 2.341805152028776e-38
0.998005 0.470509 0.146203 2.341805152028776e-38
0.993324 0.461809 0.145140 2.341805152028776e-38
0.995787 0.456479 0.145123 2.341805152028776e-38
1.002732 0.453191 0.145763 2.341805152028776e-38
1.009645 0.449894 0.146415 2.341805152028776e-38
1.014736 0.445741 0.146801 2.341805152028776e-38
1.018901 0.441154 0.147051 2.341805152028776e-38
1.023046 0.436536 0.147298 2.341805152028776e-38
1.027171 0.431889 0.147540 2.341805152028776e-38
0.875344 0.933749 0.161201 2.341805152028776e-38
0.799200 0.841889 0.146295 2.341805152028776e-38
0.757654 0.788259 0.137880 2.341805152028776e-38
0.741078 0.761489 0.134083 2.341805152028776e-38
0.735342 0.746264 0.132281 2.341805152028776e-38
0.737854 0.739569 0.131977 2.341805152028776e-38
0.741714 0.734276 0.131921 2.341805152028776e-38
0.745494 0.729006 0.131868 2.341805152028776e-38
0.749237 0.723719 0.131811 2.341805152028776e-38
0.755097 0.720469 0.132128 2.341805152028776e-38
0.758779 0.715133 0.132063 2.341805152028776e-38
0.763147 0.710459 0.132120 2.341805152028776e-38
0.770361 0.708494 0.132686 2.341805152028776e-38
0.778313 0.707135 0.133374 2.341805152028776e-38
0.777418 0.697754 0.132548 2.341805152028776e-38
0.779407 0.691044 0.132221 2.341805152028776e-38
0.782836 0.685643 0.132142 2.341805152028776e-38
0.787683 0.681577 0.132321 2.341805152028776e-38
0.794015 0.678769 0.132748 2.341805152028776e-38
0.799585 0.675269 0.133046 2.341805152028776e-38
0.804379 0.671093 0.133213 2.341805152028776e-38
0.808386 0.666253 0.133251 2.341805152028776e-38
0.813862 0.662690 0.133546 2.341805152028776e-38
0.815454 0.655984 0.133207 2.341805152028776e-38
0.821655 0.652987 0.133623 2.341805152028776e-38
0.823168 0.646264 0.133276 2.341805152028776e-38
0.829333 0.643195 0.133684 2.341805152028776e-38
0.837030 0.641326 0.134349 2.341805152028776e-38
0.838397 0.634613 0.134002 2.341805152028776e-38
0.840508 0.628501 0.133777 2.341805152028776e-38
0.844971 0.624155 0.133928 2.341805152028776e-38
0.853417 0.622702 0.134707 2.341805152028776e-38
0.856214 0.617150 0.134605 2.341805152028776e-38
0.862194 0.613909 0.135009 2.341805152028776e-38
0.868975 0.611190 0.135536 2.341805152028776e-38
0.871681 0.605585 0.135426 2.341805152028776e-38
0.873533 0.599408 0.135186 2.341805152028776e-38
0.875320 0.593262 0.134948 2.341805152028776e-38
0.878695 0.588247 0.134966 2.341805152028776e-38
0.880387 0.582120 0.134726 2.341805152028776e-38
0.887021 0.579247 0.135243 2.341805152028776e-38
0.896985 0.578469 0.136262 2.341805152028776e-38
0.899423 0.572826 0.136142 2.341805152028776e-38
0.900962 0.566681 0.135901 2.341805152028776e-38
0.906674 0.563156 0.136289 2.341805152028776e-38
0.911529 0.559066 0.136546 2.341805152028776e-38
0.916366 0.554940 0.136799 2.341805152028776e-38
0.921176 0.550795 0.137052 2.341805152028776e-38
0.924232 0.545650 0.137059 2.341805152028776e-38
0.926402 0.539989 0.136935 2.341805152028776e-38
0.929398 0.534818 0.136934 2.341805152028776e-38
0.935814 0.531590 0.137435 2.341805152028776e-38
0.939624 0.526859 0.137554 2.341805152028776e-38
0.939039 0.519757 0.137050 2.341805152028776e-38
0.943626 0.515532 0.137303 2.341805152028776e-38
0.951688 0.513157 0.138057 2.341805152028776e-38
0.955374 0.508379 0.138175 2.341805152028776e-38
0.959914 0.504039 0.138415 2.341805152028776e-38
0.964403 0.499723 0.138667 2.341805152028776e-38
0.971521 0.496734 0.139296 2.341805152028776e-38
0.972434 0.490556 0.139034 2.341805152028776e-38
0.977750 0.486593 0.139402 2.341805152028776e-38
0.982161 0.482151 0.139639 2.341805152028776e-38
0.986528 0.477724 0.139886 2.341805152028776e-38
0.990867 0.473281 0.140134 2.341805152028776e-38
0.994289 0.468384 0.140251 2.341805152028776e-38
0.994088 0.461794 0.139858 2.341805152028776e-38
0.998355 0.457286 0.140093 2.341805152028776e-38
1.002586 0.452779 0.140335 2.341805152028776e-38
1.007687 0.448677 0.140709 2.341805152028776e-38
1.011866 0.444135 0.140953 2.341805152028776e-38
1.017845 0.440351 0.141446 2.341805152028776e-38
1.021074 0.435350 0.141556 2.341805152028776e-38
1.021528 0.429193 0.141287 2.341805152028776e-38
1.057668 0.437891 0.145964 2.341805152028776e-38
0.870901 0.928055 0.154172 2.341805152028776e-38
0.795303 0.836945 0.139948 2.341805152028776e-38
0.758493 0.788343 0.132691 2.341805152028776e-38
0.741202 0.760855 0.128916 2.341805152028776e-38
0.735450 0.745630 0.127181 2.341805152028776e-38
0.738657 0.739637 0.127008 2.341805152028776e-38
0.741802 0.733651 0.126835 2.341805152028776e-38
0.745577 0.728382 0.126783 2.341805152028776e-38
0.750030 0.723785 0.126849 2.341805152028776e-38
0.753736 0.718476 0.126790 2.341805152028776e-38
0.758851 0.714510 0.126969 2.341805152028776e-38
0.764660 0.711198 0.127267 2.341805152028776e-38
0.770419 0.707882 0.127569 2.341805152028776e-38
0.776902 0.705189 0.127988 2.341805152028776e-38
0.776729 0.696480 0.127314 2.341805152028776e-38
0.780937 0.691750 0.127362 2.341805152028776e-38
0.785856 0.687656 0.127529 2.341805152028776e-38
0.791464 0.684223 0.127822 2.341805152028776e-38
0.795551 0.679459 0.127869 2.341805152028776e-38
0.800367 0.675311 0.128033 2.341805152028776e-38
0.805162 0.671131 0.128194 2.341805152028776e-38
0.808400 0.665660 0.128108 2.341805152028776e-38
0.812328 0.660852 0.128150 2.341805152028776e-38
0.817002 0.656643 0.128310 2.341805152028776e-38
0.821654 0.652403 0.128465 2.341805152028776e-38
0.825504 0.647519 0.128496 2.341805152028776e-38
0.830894 0.643829 0.128766 2.341805152028776e-38
0.833861 0.638343 0.128678 2.341805152028776e-38
0.836792 0.632846 0.128586 2.341805152028776e-38
0.842072 0.629120 0.128856 2.341805152028776e-38
0.847337 0.625355 0.129122 2.341805152028776e-38
0.854191 0.622719 0.129627 2.341805152028776e-38
0.858589 0.618336 0.129774 2.341805152028776e-38
0.864577 0.615081 0.130162 2.341805152028776e-38
0.868120 0.610067 0.130182 2.341805152028776e-38
0.871634 0.605033 0.130197 2.341805152028776e-38
0.875118 0.599979 0.130208 2.341805152028776e-38
0.876076 0.593281 0.129860 2.341805152028776e-38
0.877802 0.587159 0.129632 2.341805152028776e-38
0.881142 0.582131 0.129645 2.341805152028776e-38
0.888610 0.579797 0.130263 2.341805152028776e-38
0.893577 0.575784 0.130511 2.341805152028776e-38
0.895990 0.570174 0.130399 2.341805152028776e-38
0.898353 0.564578 0.130287 2.341805152028776e-38
0.903212 0.560544 0.130538 2.341805152028776e-38
0.907207 0.555956 0.130662 2.341805152028776e-38
0.916275 0.554424 0.131514 2.341805152028776e-38
0.921926 0.550803 0.131882 2.341805152028776e-38
0.922417 0.544141 0.131522 2.341805152028776e-38
0.923720 0.537992 0.131280 2.341805152028776e-38
0.929286 0.534319 0.131644 2.341805152028776e-38
0.933976 0.530112 0.131882 2.341805152028776e-38
0.937770 0.525408 0.131999 2.341805152028776e-38
0.938042 0.518797 0.131635 2.341805152028776e-38
0.944368 0.515529 0.132120 2.341805152028776e-38
0.948065 0.510795 0.132236 2.341805152028776e-38
0.952615 0.506504 0.132470 2.341805152028776e-38
0.959776 0.503574 0.133069 2.341805152028776e-38
0.965143 0.499720 0.133433 2.341805152028776e-38
0.967844 0.494469 0.133428 2.341805152028776e-38
0.972289 0.490098 0.133663 2.341805152028776e-38
0.978493 0.486579 0.134138 2.341805152028776e-38
0.981123 0.481260 0.134122 2.341805152028776e-38
0.987264 0.477719 0.134606 2.341805152028776e-38
0.992500 0.473701 0.134965 2.341805152028776e-38
0.995925 0.468795 0.135077 2.341805152028776e-38
0.995724 0.462196 0.134697 2.341805152028776e-38
0.998190 0.456853 0.134679 2.341805152028776e-38
1.004219 0.453184 0.135160 2.341805152028776e-38
1.008418 0.448669 0.135397 2.341805152028776e-38
1.013507 0.444523 0.135752 2.341805152028776e-38
1.018579 0.440336 0.136104 2.341805152028776e-38
1.021810 0.435331 0.136208 2.341805152028776e-38
1.023168 0.429575 0.136077 2.341805152028776e-38
1.056582 0.437126 0.140210 2.341805152028776e-38
0.858928 0.914391 0.145945 2.341805152028776e-38
0.790678 0.831275 0.133549 2.341805152028776e-38
0.757922 0.786992 0.127269 2.341805152028776e-38
0.740599 0.759507 0.123641 2.341805152028776e-38
0.734827 0.744285 0.121973 2.341805152028776e-38
0.737323 0.737595 0.121691 2.341805152028776e-38
0.741858 0.733022 0.121756 2.341805152028776e-38
0.746340 0.728448 0.121822 2.341805152028776e-38
0.750078 0.723157 0.121769 2.341805152028776e-38
0.753779 0.717849 0.121711 2.341805152028776e-38
0.757444 0.712523 0.121650 2.341805152028776e-38
0.763234 0.709230 0.121938 2.341805152028776e-38
0.766788 0.703908 0.121878 2.341805152028776e-38
0.772512 0.700572 0.122164 2.341805152028776e-38
0.776006 0.695204 0.122097 2.341805152028776e-38
0.780950 0.691137 0.122259 2.341805152028776e-38
0.785857 0.687054 0.122420 2.341805152028776e-38
0.789961 0.682323 0.122468 2.341805152028776e-38
0.794035 0.677569 0.122512 2.341805152028776e-38
0.797322 0.672151 0.122436 2.341805152028776e-38
0.804389 0.669896 0.122940 2.341805152028776e-38
0.807610 0.664440 0.122859 2.341805152028776e-38
0.810760 0.659011 0.122782 2.341805152028776e-38
0.813101 0.652947 0.122584 2.341805152028776e-38
0.820066 0.650583 0.123083 2.341805152028776e-38
0.825469 0.646934 0.123345 2.341805152028776e-38
0.830064 0.642646 0.123489 2.341805152028776e-38
0.835389 0.638977 0.123754 2.341805152028776e-38
0.839114 0.634071 0.123783 2.341805152028776e-38
0.841220 0.627956 0.123574 2.341805152028776e-38
0.847279 0.624785 0.123945 2.341805152028776e-38
0.851721 0.620401 0.124080 2.341805152028776e-38
0.858519 0.617780 0.124573 2.341805152028776e-38
0.860458 0.611649 0.124360 2.341805152028776e-38
0.864794 0.607230 0.124495 2.341805152028776e-38
0.867476 0.601649 0.124392 2.341805152028776e-38
0.870121 0.596059 0.124285 2.341805152028776e-38
0.871869 0.589959 0.124069 2.341805152028776e-38
0.874400 0.584413 0.123966 2.341805152028776e-38
0.880211 0.581047 0.124329 2.341805152028776e-38
0.882684 0.575464 0.124219 2.341805152028776e-38
0.886793 0.570948 0.124340 2.341805152028776e-38
0.893359 0.568055 0.124819 2.341805152028776e-38
0.897392 0.563530 0.124945 2.341805152028776e-38
0.902246 0.559502 0.125185 2.341805152028776e-38
0.907930 0.555956 0.125538 2.341805152028776e-38
0.913603 0.552365 0.125888 2.341805152028776e-38
0.916678 0.547246 0.125892 2.341805152028776e-38
0.918003 0.541118 0.125663 2.341805152028776e-38
0.923580 0.537492 0.126015 2.341805152028776e-38
0.927422 0.532831 0.126129 2.341805152028776e-38
0.931242 0.528144 0.126239 2.341805152028776e-38
0.936749 0.524441 0.126589 2.341805152028776e-38
0.940490 0.519757 0.126707 2.341805152028776e-38
0.942465 0.514098 0.126587 2.341805152028776e-38
0.947904 0.510316 0.126931 2.341805152028776e-38
0.954207 0.506957 0.127389 2.341805152028776e-38
0.960485 0.503574 0.127850 2.341805152028776e-38
0.964971 0.499261 0.128083 2.341805152028776e-38
0.966786 0.493559 0.127960 2.341805152028776e-38
0.970341 0.488747 0.128067 2.341805152028776e-38
0.974761 0.484354 0.128288 2.341805152028776e-38
0.981828 0.481258 0.128861 2.341805152028776e-38
0.987078 0.477282 0.129209 2.341805152028776e-38
0.989624 0.471982 0.129202 2.341805152028776e-38
0.993041 0.467092 0.129308 2.341805152028776e-38
0.994631 0.461344 0.129176 2.341805152028776e-38
0.998895 0.456840 0.129394 2.341805152028776e-38
1.002205 0.451954 0.129507 2.341805152028776e-38
1.005491 0.447047 0.129617 2.341805152028776e-38
1.010573 0.442916 0.129957 2.341805152028776e-38
1.018374 0.439926 0.130645 2.341805152028776e-38
1.021603 0.434922 0.130744 2.341805152028776e-38
1.022033 0.428804 0.130505 2.341805152028776e-38
0.849613 0.903617 0.138339 2.341805152028776e-38
0.788748 0.828480 0.127667 2.341805152028776e-38
0.757316 0.785637 0.121864 2.341805152028776e-38
0.740656 0.758866 0.118494 2.341805152028776e-38
0.735568 0.744351 0.117005 2.341805152028776e-38
0.738765 0.738359 0.116845 2.341805152028776e-38
0.742590 0.733088 0.116797 2.341805152028776e-38
0.744937 0.726429 0.116526 2.341805152028776e-38
0.749378 0.721838 0.116585 2.341805152028776e-38
0.752350 0.715850 0.116418 2.341805152028776e-38
0.757450 0.711894 0.116582 2.341805152028776e-38
0.761773 0.707258 0.116636 2.341805152028776e-38
0.767511 0.703961 0.116912 2.341805152028776e-38
0.771765 0.699287 0.116963 2.341805152028776e-38
0.776731 0.695250 0.117121 2.341805152028776e-38
0.780932 0.690521 0.117164 2.341805152028776e-38
0.784331 0.685141 0.117097 2.341805152028776e-38
0.787670 0.679771 0.117030 2.341805152028776e-38
0.793242 0.676321 0.117295 2.341805152028776e-38
0.799561 0.673469 0.117669 2.341805152028776e-38
0.802055 0.667388 0.117480 2.341805152028776e-38
0.804485 0.661325 0.117292 2.341805152028776e-38
0.808388 0.656542 0.117329 2.341805152028776e-38
0.815362 0.654224 0.117810 2.341805152028776e-38
0.821559 0.651230 0.118177 2.341805152028776e-38
0.825402 0.646347 0.118204 2.341805152028776e-38
0.831558 0.643287 0.118567 2.341805152028776e-38
0.835309 0.638403 0.118597 2.341805152028776e-38
0.839031 0.633498 0.118623 2.341805152028776e-38
0.842725 0.628572 0.118646 2.341805152028776e-38
0.846389 0.623625 0.118665 2.341805152028776e-38
0.852424 0.620427 0.119021 2.341805152028776e-38
0.855998 0.615482 0.119044 2.341805152028776e-38
0.859543 0.610517 0.119064 2.341805152028776e-38
0.862246 0.604962 0.118967 2.341805152028776e-38
0.865730 0.599963 0.118980 2.341805152028776e-38
0.868358 0.594393 0.118879 2.341805152028776e-38
0.873386 0.590532 0.119120 2.341805152028776e-38
0.878399 0.586633 0.119358 2.341805152028776e-38
0.880077 0.580508 0.119144 2.341805152028776e-38
0.882547 0.574927 0.119038 2.341805152028776e-38
0.888322 0.571491 0.119378 2.341805152028776e-38
0.894888 0.568598 0.119839 2.341805152028776e-38
0.898924 0.564065 0.119959 2.341805152028776e-38
0.901249 0.558458 0.119852 2.341805152028776e-38
0.906081 0.554400 0.120077 2.341805152028776e-38
0.910046 0.549792 0.120187 2.341805152028776e-38
0.915658 0.546234 0.120530 2.341805152028776e-38
0.917833 0.540616 0.120422 2.341805152028776e-38
0.923409 0.536991 0.120759 2.341805152028776e-38
0.925526 0.531341 0.120643 2.341805152028776e-38
0.928473 0.526176 0.120635 2.341805152028776e-38
0.936564 0.523957 0.121310 2.341805152028776e-38
0.939434 0.518795 0.121310 2.341805152028776e-38
0.943148 0.514092 0.121419 2.341805152028776e-38
0.945963 0.508895 0.121412 2.341805152028776e-38
0.953138 0.506013 0.121962 2.341805152028776e-38
0.958525 0.502190 0.122295 2.341805152028776e-38
0.963005 0.497887 0.122517 2.341805152028776e-38
0.964812 0.492197 0.122398 2.341805152028776e-38
0.967472 0.486949 0.122388 2.341805152028776e-38
0.975444 0.484339 0.123048 2.341805152028776e-38
0.980720 0.480382 0.123377 2.341805152028776e-38
0.984178 0.475547 0.123485 2.341805152028776e-38
0.987612 0.470690 0.123589 2.341805152028776e-38
0.991022 0.465811 0.123690 2.341805152028776e-38
0.995310 0.461328 0.123899 2.341805152028776e-38
0.997758 0.456011 0.123887 2.341805152028776e-38
1.000159 0.450723 0.123883 2.341805152028776e-38
1.004347 0.446230 0.124100 2.341805152028776e-38
1.009427 0.442106 0.124425 2.341805152028776e-38
1.014490 0.437940 0.124747 2.341805152028776e-38
1.016789 0.432580 0.124732 2.341805152028776e-38
1.020868 0.428031 0.124953 2.341805152028776e-38
1.057071 0.436732 0.129097 2.341805152028776e-38
0.852507 0.905871 0.132782 2.341805152028776e-38
0.792953 0.832158 0.122777 2.341805152028776e-38
0.759437 0.787140 0.116902 2.341805152028776e-38
0.742070 0.759644 0.113568 2.341805152028776e-38
0.734880 0.742999 0.111823 2.341805152028776e-38
0.738067 0.737013 0.111669 2.341805152028776e-38
0.740459 0.730359 0.111411 2.341805152028776e-38
0.743500 0.724407 0.111257 2.341805152028776e-38
0.748645 0.720515 0.111420 2.341805152028776e-38
0.753049 0.715902 0.111473 2.341805152028776e-38
0.757425 0.711263 0.111522 2.341805152028776e-38
0.761007 0.705960 0.111467 2.341805152028776e-38
0.767472 0.703340 0.111839 2.341805152028776e-38
0.773196 0.700001 0.112100 2.341805152028776e-38
0.777426 0.695294 0.112144 2.341805152028776e-38
0.779392 0.688586 0.111864 2.341805152028776e-38
