VERSION .7
FIELDS x y z rgb
SIZE 4 4 4 4
TYPE F F F F
COUNT 1 1 1 1
WIDTH 967
HEIGHT 1
VIEWPOINT 0 0 0 1 0 0 0
POINTS 967
DATA ascii
1.134032 -0.181372 0.371381 2.341805152028776e-38
1.134973 -0.187441 0.371999 2.341805152028776e-38
1.129315 -0.192410 0.370462 2.341805152028776e-38
1.151176 0.226079 0.372884 2.341805152028776e-38
1.142014 0.218243 0.369559 2.341805152028776e-38
1.142172 0.212252 0.369260 2.341805152028776e-38
1.140423 0.205930 0.368353 2.341805152028776e-38
1.140517 0.199964 0.368050 2.341805152028776e-38
1.141519 0.194166 0.368047 2.341805152028776e-38
1.141551 0.188213 0.367739 2.341805152028776e-38
1.141553 0.182268 0.367430 2.341805152028776e-38
1.141523 0.176333 0.367119 2.341805152028776e-38
1.142405 0.170546 0.367108 2.341805152028776e-38
1.141360 0.164501 0.366520 2.341805152028776e-38
1.142170 0.158736 0.366537 2.341805152028776e-38
1.142952 0.152971 0.366552 2.341805152028776e-38
1.142760 0.147082 0.366262 2.341805152028776e-38
1.142537 0.141202 0.365971 2.341805152028776e-38
1.142285 0.135330 0.365679 2.341805152028776e-38
1.142002 0.129467 0.365385 2.341805152028776e-38
1.141689 0.123613 0.365089 2.341805152028776e-38
1.144191 0.118061 0.365702 2.341805152028776e-38
1.145717 0.112397 0.366010 2.341805152028776e-38
1.143420 0.106369 0.365106 2.341805152028776e-38
1.142040 0.100454 0.364503 2.341805152028776e-38
1.142529 0.094714 0.364506 2.341805152028776e-38
1.142990 0.088974 0.364508 2.341805152028776e-38
1.142471 0.083165 0.364207 2.341805152028776e-38
1.143823 0.077496 0.364517 2.341805152028776e-38
1.145143 0.071818 0.364836 2.341805152028776e-38
1.144533 0.066021 0.364548 2.341805152028776e-38
1.144845 0.060282 0.364561 2.341805152028776e-38
1.142273 0.054406 0.363664 2.341805152028776e-38
1.142528 0.048681 0.363675 2.341805152028776e-38
1.143707 0.042991 0.363988 2.341805152028776e-38
1.143906 0.037259 0.363996 2.341805152028776e-38
1.143123 0.031502 0.363700 2.341805152028776e-38
1.147076 0.025860 0.364918 2.341805152028776e-38
1.150048 0.020164 0.365832 2.341805152028776e-38
1.147274 0.014367 0.364926 2.341805152028776e-38
1.144472 0.008599 0.364019 2.341805152028776e-38
1.144501 0.002866 0.364020 2.341805152028776e-38
1.144501 -0.002866 0.364020 2.341805152028776e-38
1.144472 -0.008599 0.364019 2.341805152028776e-38
1.141557 -0.014296 0.363107 2.341805152028776e-38
1.141472 -0.020014 0.363104 2.341805152028776e-38
1.143265 -0.025774 0.363705 2.341805152028776e-38
1.143123 -0.031502 0.363700 2.341805152028776e-38
1.142001 -0.037197 0.363390 2.341805152028776e-38
1.142755 -0.042955 0.363685 2.341805152028776e-38
1.140624 -0.048600 0.363069 2.341805152028776e-38
1.143225 -0.054452 0.363967 2.341805152028776e-38
1.142942 -0.060182 0.363955 2.341805152028776e-38
1.140727 -0.065801 0.363336 2.341805152028776e-38
1.138485 -0.071401 0.362715 2.341805152028776e-38
1.135266 -0.076916 0.361790 2.341805152028776e-38
1.135818 -0.082681 0.362086 2.341805152028776e-38
1.138240 -0.088605 0.362993 2.341805152028776e-38
1.139680 -0.094478 0.363597 2.341805152028776e-38
1.140141 -0.100287 0.363897 2.341805152028776e-38
1.138675 -0.105928 0.363591 2.341805152028776e-38
1.137181 -0.111559 0.363283 2.341805152028776e-38
1.137555 -0.117377 0.363581 2.341805152028776e-38
1.138847 -0.123305 0.364180 2.341805152028776e-38
1.136320 -0.128823 0.363567 2.341805152028776e-38
1.136606 -0.134657 0.363861 2.341805152028776e-38
1.135916 -0.140383 0.363851 2.341805152028776e-38
1.135198 -0.146109 0.363839 2.341805152028776e-38
1.133506 -0.151706 0.363523 2.341805152028776e-38
1.134619 -0.157687 0.364114 2.341805152028776e-38
1.135700 -0.163685 0.364703 2.341805152028776e-38
1.136750 -0.169702 0.365291 2.341805152028776e-38
1.134930 -0.175314 0.364998 2.341805152028776e-38
1.134024 -0.181066 0.365006 2.341805152028776e-38
1.135910 -0.187283 0.365922 2.341805152028776e-38
1.131184 -0.192409 0.364715 2.341805152028776e-38
1.157741 0.227004 0.368512 2.341805152028776e-38
1.142941 0.218068 0.363446 2.341805152028776e-38
1.141220 0.211730 0.362552 2.341805152028776e-38
1.141342 0.205759 0.362251 2.341805152028776e-38
1.140493 0.199631 0.361651 2.341805152028776e-38
1.141494 0.193841 0.361644 2.341805152028776e-38
1.140581 0.187740 0.361039 2.341805152028776e-38
1.142464 0.182109 0.361327 2.341805152028776e-38
1.141476 0.176046 0.360751 2.341805152028776e-38
1.139512 0.169860 0.359874 2.341805152028776e-38
1.135626 0.163430 0.358398 2.341805152028776e-38
1.140213 0.158226 0.359605 2.341805152028776e-38
1.143830 0.152857 0.360511 2.341805152028776e-38
1.144582 0.147093 0.360522 2.341805152028776e-38
1.143411 0.141094 0.359934 2.341805152028776e-38
1.142208 0.135114 0.359346 2.341805152028776e-38
1.142872 0.129367 0.359352 2.341805152028776e-38
1.144455 0.123721 0.359655 2.341805152028776e-38
1.144112 0.117870 0.359361 2.341805152028776e-38
1.142789 0.111935 0.358767 2.341805152028776e-38
1.142385 0.106107 0.358471 2.341805152028776e-38
1.142900 0.100374 0.358480 2.341805152028776e-38
1.142431 0.094565 0.358202 2.341805152028776e-38
1.145740 0.089061 0.359116 2.341805152028776e-38
1.145214 0.083250 0.358836 2.341805152028776e-38
1.145612 0.077512 0.358852 2.341805152028776e-38
1.145028 0.071714 0.358569 2.341805152028776e-38
1.146322 0.066034 0.358881 2.341805152028776e-38
1.145681 0.060244 0.358595 2.341805152028776e-38
1.145965 0.054508 0.358606 2.341805152028776e-38
1.147174 0.048812 0.358914 2.341805152028776e-38
1.145493 0.042999 0.358326 2.341805152028776e-38
1.142830 0.037174 0.357438 2.341805152028776e-38
1.147770 0.031586 0.358936 2.341805152028776e-38
1.156500 0.026037 0.361627 2.341805152028776e-38
1.156614 0.020251 0.361631 2.341805152028776e-38
1.148111 0.014358 0.358949 2.341805152028776e-38
1.145304 0.008593 0.358056 2.341805152028776e-38
1.146287 0.002867 0.358355 2.341805152028776e-38
1.147242 -0.002869 0.358654 2.341805152028776e-38
1.145304 -0.008593 0.358056 2.341805152028776e-38
1.143339 -0.014298 0.357457 2.341805152028776e-38
1.144208 -0.020034 0.357752 2.341805152028776e-38
1.144095 -0.025758 0.357748 2.341805152028776e-38
1.143954 -0.031481 0.357743 2.341805152028776e-38
1.142830 -0.037174 0.357438 2.341805152028776e-38
1.139771 -0.042784 0.356536 2.341805152028776e-38
1.141452 -0.048569 0.357124 2.341805152028776e-38
1.146918 -0.054553 0.358904 2.341805152028776e-38
1.148540 -0.060394 0.359490 2.341805152028776e-38
1.142510 -0.065814 0.357687 2.341805152028776e-38
1.138360 -0.071296 0.356481 2.341805152028776e-38
1.137993 -0.076997 0.356466 2.341805152028776e-38
1.139502 -0.082835 0.357046 2.341805152028776e-38
1.140030 -0.088617 0.357327 2.341805152028776e-38
1.143383 -0.094644 0.358500 2.341805152028776e-38
1.141950 -0.100291 0.358181 2.341805152028776e-38
1.138584 -0.105754 0.357278 2.341805152028776e-38
1.138039 -0.111470 0.357276 2.341805152028776e-38
1.139364 -0.117381 0.357870 2.341805152028776e-38
1.136863 -0.122901 0.357269 2.341805152028776e-38
1.134336 -0.128400 0.356668 2.341805152028776e-38
1.133677 -0.134105 0.356662 2.341805152028776e-38
1.136780 -0.140276 0.357847 2.341805152028776e-38
1.135115 -0.145876 0.357540 2.341805152028776e-38
1.135315 -0.151719 0.357828 2.341805152028776e-38
1.134540 -0.157439 0.357816 2.341805152028776e-38
1.137515 -0.163702 0.358995 2.341805152028776e-38
1.137624 -0.169579 0.359277 2.341805152028776e-38
1.134872 -0.175028 0.358664 2.341805152028776e-38
1.134923 -0.180907 0.358942 2.341805152028776e-38
1.136814 -0.187120 0.359846 2.341805152028776e-38
1.132083 -0.192243 0.358663 2.341805152028776e-38
1.158662 0.226822 0.362326 2.341805152028776e-38
1.144774 0.218067 0.357630 2.341805152028776e-38
1.143989 0.211901 0.357039 2.341805152028776e-38
1.144111 0.205923 0.356739 2.341805152028776e-38
1.143260 0.199788 0.356144 2.341805152028776e-38
1.143318 0.193831 0.355840 2.341805152028776e-38
1.142390 0.187745 0.355271 2.341805152028776e-38
1.143317 0.181978 0.355290 2.341805152028776e-38
1.139491 0.175481 0.353839 2.341805152028776e-38
1.133738 0.168749 0.351800 2.341805152028776e-38
1.134570 0.163035 0.351812 2.341805152028776e-38
1.139161 0.157844 0.352996 2.341805152028776e-38
1.144676 0.152740 0.354472 2.341805152028776e-38
1.145428 0.146979 0.354480 2.341805152028776e-38
1.148048 0.141452 0.355073 2.341805152028776e-38
1.146844 0.135456 0.354491 2.341805152028776e-38
1.144660 0.129371 0.353614 2.341805152028776e-38
1.145294 0.123622 0.353616 2.341805152028776e-38
1.141140 0.117388 0.352163 2.341805152028776e-38
1.139804 0.111483 0.351600 2.341805152028776e-38
1.140341 0.105773 0.351622 2.341805152028776e-38
1.141802 0.100144 0.351936 2.341805152028776e-38
1.145142 0.094663 0.352836 2.341805152028776e-38
1.146549 0.089005 0.353147 2.341805152028776e-38
1.147928 0.083335 0.353457 2.341805152028776e-38
1.146419 0.077463 0.352885 2.341805152028776e-38
1.146788 0.071727 0.352899 2.341805152028776e-38
1.147128 0.065991 0.352911 2.341805152028776e-38
1.147440 0.060255 0.352922 2.341805152028776e-38
1.148679 0.054563 0.353226 2.341805152028776e-38
1.148935 0.048821 0.353235 2.341805152028776e-38
1.146296 0.042971 0.352362 2.341805152028776e-38
1.143628 0.037149 0.351487 2.341805152028776e-38
1.146665 0.031513 0.352374 2.341805152028776e-38
1.150629 0.025870 0.353553 2.341805152028776e-38
1.147875 0.020071 0.352676 2.341805152028776e-38
1.146049 0.014313 0.352092 2.341805152028776e-38
1.146105 0.008588 0.352093 2.341805152028776e-38
1.148045 0.002867 0.352682 2.341805152028776e-38
1.147090 -0.002865 0.352388 2.341805152028776e-38
1.145149 -0.008580 0.351800 2.341805152028776e-38
1.144137 -0.014289 0.351504 2.341805152028776e-38
1.144052 -0.020004 0.351502 2.341805152028776e-38
1.145851 -0.025762 0.352085 2.341805152028776e-38
1.144753 -0.031461 0.351787 2.341805152028776e-38
1.142673 -0.037118 0.351194 2.341805152028776e-38
1.140565 -0.042756 0.350600 2.341805152028776e-38
1.142249 -0.048537 0.351179 2.341805152028776e-38
1.146769 -0.054473 0.352639 2.341805152028776e-38
1.140758 -0.059904 0.350867 2.341805152028776e-38
1.140448 -0.065607 0.350856 2.341805152028776e-38
1.141063 -0.071369 0.351137 2.341805152028776e-38
1.141650 -0.077140 0.351417 2.341805152028776e-38
1.141254 -0.082851 0.351402 2.341805152028776e-38
1.141783 -0.088635 0.351680 2.341805152028776e-38
1.144189 -0.094585 0.352543 2.341805152028776e-38
1.141802 -0.100144 0.351936 2.341805152028776e-38
1.140341 -0.105773 0.351622 2.341805152028776e-38
1.140755 -0.111576 0.351893 2.341805152028776e-38
1.143042 -0.117583 0.352750 2.341805152028776e-38
1.144344 -0.123519 0.353323 2.341805152028776e-38
1.141810 -0.129049 0.352733 2.341805152028776e-38
1.140199 -0.134671 0.352436 2.341805152028776e-38
1.137611 -0.140166 0.351845 2.341805152028776e-38
1.136894 -0.145884 0.351839 2.341805152028776e-38
1.136148 -0.151602 0.351831 2.341805152028776e-38
1.137267 -0.157581 0.352409 2.341805152028776e-38
1.138355 -0.163579 0.352986 2.341805152028776e-38
1.136575 -0.169172 0.352680 2.341805152028776e-38
1.134767 -0.174754 0.352372 2.341805152028776e-38
1.133876 -0.180475 0.352356 2.341805152028776e-38
1.135787 -0.186660 0.353218 2.341805152028776e-38
1.129180 -0.191434 0.351439 2.341805152028776e-38
1.160489 0.226819 0.356430 2.341805152028776e-38
1.147519 0.218241 0.352095 2.341805152028776e-38
1.146731 0.212068 0.351510 2.341805152028776e-38
1.145910 0.205913 0.350922 2.341805152028776e-38
1.145046 0.199790 0.350357 2.341805152028776e-38
1.145089 0.193850 0.350088 2.341805152028776e-38
1.145102 0.187918 0.349816 2.341805152028776e-38
1.144139 0.181843 0.349254 2.341805152028776e-38
1.144091 0.175931 0.348979 2.341805152028776e-38
1.138329 0.169183 0.346969 2.341805152028776e-38
1.140111 0.163589 0.347267 2.341805152028776e-38
1.143762 0.158246 0.348141 2.341805152028776e-38
1.146440 0.152747 0.348724 2.341805152028776e-38
1.148141 0.147106 0.349017 2.341805152028776e-38
1.147914 0.141222 0.348731 2.341805152028776e-38
1.146704 0.135237 0.348163 2.341805152028776e-38
1.146407 0.129385 0.347902 2.341805152028776e-38
1.146081 0.123541 0.347638 2.341805152028776e-38
1.142868 0.117411 0.346507 2.341805152028776e-38
1.142482 0.111598 0.346240 2.341805152028776e-38
1.144926 0.106058 0.346838 2.341805152028776e-38
1.145437 0.100331 0.346857 2.341805152028776e-38
1.148781 0.094839 0.347741 2.341805152028776e-38
1.147327 0.088947 0.347180 2.341805152028776e-38
1.146798 0.083143 0.346906 2.341805152028776e-38
1.147195 0.077412 0.346919 2.341805152028776e-38
1.145652 0.071561 0.346354 2.341805152028776e-38
1.148860 0.066003 0.347231 2.341805152028776e-38
1.149172 0.060265 0.347241 2.341805152028776e-38
1.148499 0.054482 0.346961 2.341805152028776e-38
1.150668 0.048829 0.347547 2.341805152028776e-38
1.147068 0.042942 0.346398 2.341805152028776e-38
1.145353 0.037155 0.345827 2.341805152028776e-38
1.144565 0.031413 0.345543 2.341805152028776e-38
1.149492 0.025809 0.346991 2.341805152028776e-38
1.148648 0.020057 0.346706 2.341805152028776e-38
1.147776 0.014315 0.346419 2.341805152028776e-38
1.149747 0.008603 0.346999 2.341805152028776e-38
1.149776 0.002868 0.347000 2.341805152028776e-38
1.146904 -0.002861 0.346133 2.341805152028776e-38
1.144961 -0.008567 0.345554 2.341805152028776e-38
1.143947 -0.014267 0.345264 2.341805152028776e-38
1.145777 -0.020007 0.345839 2.341805152028776e-38
1.147578 -0.025766 0.346414 2.341805152028776e-38
1.146479 -0.031465 0.346120 2.341805152028776e-38
1.145353 -0.037155 0.345827 2.341805152028776e-38
1.141328 -0.042727 0.344665 2.341805152028776e-38
1.142059 -0.048464 0.344947 2.341805152028776e-38
1.142762 -0.054209 0.345228 2.341805152028776e-38
1.141523 -0.059864 0.344930 2.341805152028776e-38
1.143125 -0.065673 0.345498 2.341805152028776e-38
1.143741 -0.071441 0.345776 2.341805152028776e-38
1.143374 -0.077154 0.345764 2.341805152028776e-38
1.143933 -0.082935 0.346039 2.341805152028776e-38
1.143509 -0.088651 0.346024 2.341805152028776e-38
1.142102 -0.094287 0.345719 2.341805152028776e-38
1.141622 -0.099996 0.345702 2.341805152028776e-38
1.140160 -0.105616 0.345394 2.341805152028776e-38
1.141529 -0.111505 0.345952 2.341805152028776e-38
1.149535 -0.118096 0.348528 2.341805152028776e-38
1.152744 -0.124259 0.349659 2.341805152028776e-38
1.148310 -0.129600 0.348479 2.341805152028776e-38
1.143851 -0.134900 0.347297 2.341805152028776e-38
1.140312 -0.140287 0.346422 2.341805152028776e-38
1.137695 -0.145768 0.345842 2.341805152028776e-38
1.136949 -0.151482 0.345837 2.341805152028776e-38
1.138072 -0.157458 0.346409 2.341805152028776e-38
1.140111 -0.163589 0.347267 2.341805152028776e-38
1.138329 -0.169183 0.346969 2.341805152028776e-38
1.137466 -0.174913 0.346958 2.341805152028776e-38
1.136575 -0.180641 0.346945 2.341805152028776e-38
1.136599 -0.186522 0.347219 2.341805152028776e-38
1.130929 -0.191453 0.345759 2.341805152028776e-38
1.194092 -0.208348 0.365364 2.341805152028776e-38
1.162287 0.226813 0.350529 2.341805152028776e-38
1.148353 0.218053 0.345977 2.341805152028776e-38
1.149441 0.212239 0.345978 2.341805152028776e-38
1.146716 0.205759 0.344864 2.341805152028776e-38
1.147733 0.199974 0.344882 2.341805152028776e-38
1.147776 0.194027 0.344615 2.341805152028776e-38
1.148735 0.188243 0.344629 2.341805152028776e-38
1.147771 0.182156 0.344073 2.341805152028776e-38
1.147722 0.176233 0.343799 2.341805152028776e-38
1.144797 0.169896 0.342671 2.341805152028776e-38
1.141838 0.163595 0.341541 2.341805152028776e-38
1.144544 0.158120 0.342114 2.341805152028776e-38
1.146273 0.152498 0.342400 2.341805152028776e-38
1.147968 0.146874 0.342705 2.341805152028776e-38
1.150584 0.141360 0.343302 2.341805152028776e-38
1.149364 0.135376 0.342761 2.341805152028776e-38
1.147161 0.129303 0.341934 2.341805152028776e-38
1.147786 0.123564 0.341958 2.341805152028776e-38
1.147429 0.117727 0.341695 2.341805152028776e-38
1.147997 0.111991 0.341715 2.341805152028776e-38
1.148537 0.106253 0.341734 2.341805152028776e-38
1.150003 0.100599 0.342035 2.341805152028776e-38
1.149531 0.094776 0.341767 2.341805152028776e-38
1.149030 0.088962 0.341497 2.341805152028776e-38
1.150412 0.083295 0.341795 2.341805152028776e-38
1.146983 0.077295 0.340670 2.341805152028776e-38
1.148308 0.071631 0.340965 2.341805152028776e-38
1.149606 0.065958 0.341259 2.341805152028776e-38
1.148960 0.060174 0.340984 2.341805152028776e-38
1.148286 0.054399 0.340708 2.341805152028776e-38
1.150456 0.048755 0.341283 2.341805152028776e-38
1.149725 0.042984 0.341007 2.341805152028776e-38
1.148004 0.037192 0.340453 2.341805152028776e-38
1.151046 0.031550 0.341318 2.341805152028776e-38
1.152145 0.025836 0.341613 2.341805152028776e-38
1.151298 0.020079 0.341337 2.341805152028776e-38
1.151382 0.014342 0.341343 2.341805152028776e-38
1.151438 0.008605 0.341347 2.341805152028776e-38
1.150507 0.002866 0.341065 2.341805152028776e-38
1.150507 -0.002866 0.341065 2.341805152028776e-38
1.148562 -0.008584 0.340494 2.341805152028776e-38
1.149465 -0.014318 0.340774 2.341805152028776e-38
1.150339 -0.020062 0.341052 2.341805152028776e-38
1.151186 -0.025815 0.341328 2.341805152028776e-38
1.150088 -0.031524 0.341034 2.341805152028776e-38
1.148004 -0.037192 0.340453 2.341805152028776e-38
1.144934 -0.042805 0.339586 2.341805152028776e-38
1.144709 -0.048511 0.339578 2.341805152028776e-38
1.145413 -0.054263 0.339855 2.341805152028776e-38
1.144173 -0.059923 0.339563 2.341805152028776e-38
1.143862 -0.065628 0.339554 2.341805152028776e-38
1.145437 -0.071452 0.340113 2.341805152028776e-38
1.146026 -0.077230 0.340386 2.341805152028776e-38
1.143718 -0.082810 0.339806 2.341805152028776e-38
1.145206 -0.088665 0.340361 2.341805152028776e-38
1.144753 -0.094382 0.340347 2.341805152028776e-38
1.143317 -0.100014 0.340047 2.341805152028776e-38
1.142809 -0.105723 0.340030 2.341805152028776e-38
1.143226 -0.111525 0.340295 2.341805152028776e-38
1.147429 -0.117727 0.341695 2.341805152028776e-38
1.151599 -0.123975 0.343094 2.341805152028776e-38
1.147161 -0.129303 0.341934 2.341805152028776e-38
1.142698 -0.134591 0.340773 2.341805152028776e-38
1.143922 -0.140541 0.341314 2.341805152028776e-38
1.143212 -0.146265 0.341285 2.341805152028776e-38
1.142471 -0.151992 0.341265 2.341805152028776e-38
1.143594 -0.157988 0.341830 2.341805152028776e-38
1.143737 -0.163867 0.342109 2.341805152028776e-38
1.142900 -0.169614 0.342103 2.341805152028776e-38
1.141088 -0.175214 0.341811 2.341805152028776e-38
1.139247 -0.180803 0.341518 2.341805152028776e-38
1.139272 -0.186692 0.341790 2.341805152028776e-38
1.130758 -0.191150 0.339505 2.341805152028776e-38
1.211024 -0.211001 0.363901 2.341805152028776e-38
1.165939 0.227169 0.345179 2.341805152028776e-38
1.151970 0.218420 0.340734 2.341805152028776e-38
1.150217 0.212085 0.339917 2.341805152028776e-38
1.148431 0.205777 0.339097 2.341805152028776e-38
1.149449 0.199989 0.339112 2.341805152028776e-38
1.148543 0.193880 0.338567 2.341805152028776e-38
1.149501 0.188099 0.338578 2.341805152028776e-38
1.147585 0.181865 0.337749 2.341805152028776e-38
1.148483 0.176095 0.337755 2.341805152028776e-38
1.145552 0.169760 0.336643 2.341805152028776e-38
1.145438 0.163871 0.336367 2.341805152028776e-38
1.146236 0.158134 0.336394 2.341805152028776e-38
1.147004 0.152397 0.336424 2.341805152028776e-38
1.149649 0.146902 0.337011 2.341805152028776e-38
1.150361 0.141153 0.337038 2.341805152028776e-38
1.149138 0.135177 0.336504 2.341805152028776e-38
1.148838 0.129326 0.336248 2.341805152028776e-38
1.147554 0.123381 0.335710 2.341805152028776e-38
1.148150 0.117649 0.335730 2.341805152028776e-38
1.148718 0.111916 0.335748 2.341805152028776e-38
1.150213 0.106270 0.336044 2.341805152028776e-38
1.150724 0.100531 0.336060 2.341805152028776e-38
1.151207 0.094790 0.336074 2.341805152028776e-38
1.152619 0.089123 0.336366 2.341805152028776e-38
1.152088 0.083306 0.336098 2.341805152028776e-38
1.150570 0.077435 0.335550 2.341805152028776e-38
1.149018 0.071584 0.335015 2.341805152028776e-38
1.148394 0.065807 0.334760 2.341805152028776e-38
1.148701 0.060089 0.334782 2.341805152028776e-38
1.149939 0.054415 0.335081 2.341805152028776e-38
1.149231 0.048649 0.334820 2.341805152028776e-38
1.148495 0.042892 0.334557 2.341805152028776e-38
1.149650 0.037206 0.334850 2.341805152028776e-38
1.150777 0.031509 0.335142 2.341805152028776e-38
1.151877 0.025802 0.335431 2.341805152028776e-38
1.152949 0.020086 0.335719 2.341805152028776e-38
1.152073 0.014335 0.335445 2.341805152028776e-38
1.152128 0.008601 0.335449 2.341805152028776e-38
1.152156 0.002867 0.335451 2.341805152028776e-38
1.153117 -0.002869 0.335731 2.341805152028776e-38
1.152128 -0.008601 0.335449 2.341805152028776e-38
1.151112 -0.014323 0.335165 2.341805152028776e-38
1.152949 -0.020086 0.335719 2.341805152028776e-38
1.152837 -0.025824 0.335711 2.341805152028776e-38
1.151737 -0.031535 0.335421 2.341805152028776e-38
1.148690 -0.037175 0.334571 2.341805152028776e-38
1.147536 -0.042856 0.334277 2.341805152028776e-38
1.149231 -0.048649 0.334820 2.341805152028776e-38
1.147062 -0.054279 0.334243 2.341805152028776e-38
1.145825 -0.059939 0.333943 2.341805152028776e-38
1.147436 -0.065752 0.334480 2.341805152028776e-38
1.148059 -0.071525 0.334735 2.341805152028776e-38
1.146738 -0.077177 0.334432 2.341805152028776e-38
1.145384 -0.082822 0.334142 2.341805152028776e-38
1.146875 -0.088678 0.334690 2.341805152028776e-38
1.147380 -0.094475 0.334956 2.341805152028776e-38
1.146898 -0.100196 0.334942 2.341805152028776e-38
1.144476 -0.105740 0.334368 2.341805152028776e-38
1.144895 -0.111544 0.334631 2.341805152028776e-38
1.147195 -0.117551 0.335451 2.341805152028776e-38
1.146599 -0.123278 0.335431 2.341805152028776e-38
1.145021 -0.128896 0.335131 2.341805152028776e-38
1.143416 -0.134504 0.334828 2.341805152028776e-38
1.144643 -0.140451 0.335362 2.341805152028776e-38
1.142029 -0.145929 0.334777 2.341805152028776e-38
1.143197 -0.151891 0.335307 2.341805152028776e-38
1.143383 -0.157740 0.335556 2.341805152028776e-38
1.143537 -0.163599 0.335808 2.341805152028776e-38
1.143652 -0.169479 0.336085 2.341805152028776e-38
1.142788 -0.175221 0.336080 2.341805152028776e-38
1.140946 -0.180813 0.335795 2.341805152028776e-38
1.139077 -0.186393 0.335507 2.341805152028776e-38
1.134340 -0.191483 0.334380 2.341805152028776e-38
1.209050 -0.210359 0.356696 2.341805152028776e-38
1.168601 0.227374 0.339584 2.341805152028776e-38
1.152719 0.218260 0.334666 2.341805152028776e-38
1.150962 0.211928 0.333859 2.341805152028776e-38
1.150117 0.205792 0.333324 2.341805152028776e-38
1.149240 0.199672 0.332787 2.341805152028776e-38
1.150227 0.193890 0.332797 2.341805152028776e-38
1.151185 0.188106 0.332804 2.341805152028776e-38
1.149264 0.181870 0.331986 2.341805152028776e-38
1.149212 0.175953 0.331714 2.341805152028776e-38
1.148167 0.169917 0.331193 2.341805152028776e-38
1.148041 0.164037 0.330951 2.341805152028776e-38
1.148839 0.158295 0.330981 2.341805152028776e-38
1.150560 0.152678 0.331283 2.341805152028776e-38
1.150348 0.146807 0.331035 2.341805152028776e-38
1.150105 0.140943 0.330785 2.341805152028776e-38
1.150788 0.135200 0.330807 2.341805152028776e-38
1.150487 0.129347 0.330554 2.341805152028776e-38
1.151112 0.123605 0.330573 2.341805152028776e-38
1.152666 0.117961 0.330865 2.341805152028776e-38
1.153235 0.112212 0.330881 2.341805152028776e-38
1.153776 0.106462 0.330896 2.341805152028776e-38
1.153330 0.100628 0.330635 2.341805152028776e-38
1.153809 0.094885 0.330661 2.341805152028776e-38
1.153299 0.089069 0.330418 2.341805152028776e-38
1.152761 0.083261 0.330174 2.341805152028776e-38
1.152193 0.077461 0.329927 2.341805152028776e-38
1.152557 0.071729 0.329952 2.341805152028776e-38
1.150973 0.065885 0.329426 2.341805152028776e-38
1.150320 0.060110 0.329173 2.341805152028776e-38
1.149639 0.054343 0.328918 2.341805152028776e-38
1.150850 0.048666 0.329210 2.341805152028776e-38
1.151074 0.042942 0.329226 2.341805152028776e-38
1.150308 0.037187 0.328964 2.341805152028776e-38
1.153359 0.031546 0.329800 2.341805152028776e-38
1.156382 0.025876 0.330635 2.341805152028776e-38
1.155533 0.020109 0.330367 2.341805152028776e-38
1.155617 0.014364 0.330373 2.341805152028776e-38
1.153750 0.008604 0.329827 2.341805152028776e-38
1.154740 0.002870 0.330104 2.341805152028776e-38
1.154740 -0.002870 0.330104 2.341805152028776e-38
1.153750 -0.008604 0.329827 2.341805152028776e-38
1.154656 -0.014352 0.330098 2.341805152028776e-38
1.154572 -0.020093 0.330093 2.341805152028776e-38
1.153499 -0.025811 0.329810 2.341805152028776e-38
1.153359 -0.031546 0.329800 2.341805152028776e-38
1.151269 -0.037218 0.329239 2.341805152028776e-38
1.152995 -0.043014 0.329775 2.341805152028776e-38
1.152772 -0.048747 0.329760 2.341805152028776e-38
1.151559 -0.054434 0.329467 2.341805152028776e-38
1.149360 -0.060060 0.328898 2.341805152028776e-38
1.149053 -0.065775 0.328877 2.341805152028776e-38
1.150638 -0.071609 0.329403 2.341805152028776e-38
1.148356 -0.077203 0.328828 2.341805152028776e-38
1.147965 -0.082915 0.328800 2.341805152028776e-38
1.149465 -0.088773 0.329320 2.341805152028776e-38
1.149018 -0.094491 0.329288 2.341805152028776e-38
1.147583 -0.100127 0.328987 2.341805152028776e-38
1.147073 -0.105844 0.328974 2.341805152028776e-38
1.148450 -0.111746 0.329508 2.341805152028776e-38
1.149796 -0.117667 0.330041 2.341805152028776e-38
1.148244 -0.123297 0.329749 2.341805152028776e-38
1.145709 -0.128810 0.329181 2.341805152028776e-38
1.143148 -0.134302 0.328611 2.341805152028776e-38
1.145333 -0.140358 0.329412 2.341805152028776e-38
1.147486 -0.146442 0.330212 2.341805152028776e-38
1.145794 -0.152046 0.329911 2.341805152028776e-38
1.143123 -0.157508 0.329334 2.341805152028776e-38
1.144234 -0.163493 0.329853 2.341805152028776e-38
1.145314 -0.169494 0.330370 2.341805152028776e-38
1.143508 -0.175080 0.330068 2.341805152028776e-38
1.143566 -0.180969 0.330339 2.341805152028776e-38
1.142644 -0.186711 0.330334 2.341805152028776e-38
1.134107 -0.191173 0.328132 2.341805152028776e-38
1.190927 -0.206915 0.344859 2.341805152028776e-38
1.166508 0.226658 0.332628 2.341805152028776e-38
1.149652 0.217382 0.327522 2.341805152028776e-38
1.149781 0.211419 0.327265 2.341805152028776e-38
1.148931 0.205294 0.326736 2.341805152028776e-38
1.148997 0.199352 0.326475 2.341805152028776e-38
1.152831 0.194056 0.327289 2.341805152028776e-38
1.151889 0.187956 0.326754 2.341805152028776e-38
1.152809 0.182186 0.326777 2.341805152028776e-38
1.149888 0.175838 0.325733 2.341805152028776e-38
1.148839 0.169808 0.325225 2.341805152028776e-38
1.149664 0.164066 0.325254 2.341805152028776e-38
1.149508 0.158192 0.325012 2.341805152028776e-38
1.151230 0.152578 0.325307 2.341805152028776e-38
1.151971 0.146831 0.325331 2.341805152028776e-38
1.152683 0.141082 0.325353 2.341805152028776e-38
1.152410 0.135220 0.325103 2.341805152028776e-38
1.154021 0.129581 0.325392 2.341805152028776e-38
1.153690 0.123725 0.325139 2.341805152028776e-38
1.153330 0.117879 0.324885 2.341805152028776e-38
1.153893 0.112139 0.324916 2.341805152028776e-38
1.154426 0.106401 0.324954 2.341805152028776e-38
1.153972 0.100577 0.324719 2.341805152028776e-38
1.154448 0.094839 0.324752 2.341805152028776e-38
1.153937 0.089026 0.324513 2.341805152028776e-38
1.154357 0.083289 0.324542 2.341805152028776e-38
1.155710 0.077616 0.324839 2.341805152028776e-38
1.155113 0.071813 0.324593 2.341805152028776e-38
1.153527 0.065962 0.324076 2.341805152028776e-38
1.152873 0.060180 0.323827 2.341805152028776e-38
1.153152 0.054452 0.323846 2.341805152028776e-38
1.151480 0.048641 0.323322 2.341805152028776e-38
1.151703 0.042921 0.323337 2.341805152028776e-38
1.156710 0.037355 0.324701 2.341805152028776e-38
1.156878 0.031609 0.324712 2.341805152028776e-38
1.157018 0.025863 0.324721 2.341805152028776e-38
1.157130 0.020116 0.324729 2.341805152028776e-38
1.155289 0.014345 0.324194 2.341805152028776e-38
1.155345 0.008607 0.324198 2.341805152028776e-38
1.156336 0.002871 0.324470 2.341805152028776e-38
1.159224 -0.002879 0.325280 2.341805152028776e-38
1.157270 -0.008621 0.324738 2.341805152028776e-38
1.154326 -0.014333 0.323924 2.341805152028776e-38
1.154242 -0.020066 0.323918 2.341805152028776e-38
1.155093 -0.025820 0.324181 2.341805152028776e-38
1.153028 -0.031504 0.323632 2.341805152028776e-38
1.152861 -0.037231 0.323620 2.341805152028776e-38
1.155552 -0.043064 0.324418 2.341805152028776e-38
1.153404 -0.048723 0.323862 2.341805152028776e-38
1.152190 -0.054407 0.323575 2.341805152028776e-38
1.151911 -0.060130 0.323557 2.341805152028776e-38
1.152565 -0.065907 0.323806 2.341805152028776e-38
1.152230 -0.071633 0.323783 2.341805152028776e-38
1.149945 -0.077229 0.323218 2.341805152028776e-38
1.150515 -0.083012 0.323462 2.341805152028776e-38
1.150097 -0.088729 0.323433 2.341805152028776e-38
1.148690 -0.094366 0.323132 2.341805152028776e-38
1.147257 -0.099991 0.322829 2.341805152028776e-38
1.148673 -0.105871 0.323334 2.341805152028776e-38
1.150060 -0.111767 0.323837 2.341805152028776e-38
1.150456 -0.117585 0.324075 2.341805152028776e-38
1.147946 -0.123109 0.323520 2.341805152028776e-38
1.145409 -0.128614 0.322964 2.341805152028776e-38
1.146672 -0.134547 0.323485 2.341805152028776e-38
1.147904 -0.140497 0.324004 2.341805152028776e-38
1.147195 -0.146222 0.323982 2.341805152028776e-38
1.143594 -0.151566 0.323149 2.341805152028776e-38
1.141876 -0.157142 0.322854 2.341805152028776e-38
1.144898 -0.163386 0.323906 2.341805152028776e-38
1.146933 -0.169526 0.324685 2.341805152028776e-38
1.147033 -0.175401 0.324924 2.341805152028776e-38
1.145200 -0.180983 0.324620 2.341805152028776e-38
1.144286 -0.186715 0.324597 2.341805152028776e-38
1.134789 -0.191019 0.322167 2.341805152028776e-38
1.193591 -0.207089 0.339145 2.341805152028776e-38
1.171948 0.227408 0.327822 2.341805152028776e-38
1.150333 0.217215 0.321478 2.341805152028776e-38
1.149511 0.211081 0.320958 2.341805152028776e-38
1.150555 0.205302 0.320965 2.341805152028776e-38
1.151570 0.199522 0.320969 2.341805152028776e-38
1.153503 0.193907 0.321249 2.341805152028776e-38
1.155399 0.188295 0.321549 2.341805152028776e-38
1.154411 0.182219 0.321053 2.341805152028776e-38
1.152439 0.176015 0.320289 2.341805152028776e-38
1.151387 0.169978 0.319789 2.341805152028776e-38
1.151259 0.164094 0.319551 2.341805152028776e-38
1.152056 0.158348 0.319576 2.341805152028776e-38
1.152825 0.152601 0.319599 2.341805152028776e-38
1.154522 0.146974 0.319885 2.341805152028776e-38
1.155235 0.141219 0.319905 2.341805152028776e-38
1.154961 0.135350 0.319657 2.341805152028776e-38
1.155614 0.129601 0.319682 2.341805152028776e-38
1.154314 0.123652 0.319195 2.341805152028776e-38
1.153944 0.117818 0.318970 2.341805152028776e-38
1.153545 0.111991 0.318743 2.341805152028776e-38
1.152156 0.106083 0.318248 2.341805152028776e-38
1.153620 0.100443 0.318547 2.341805152028776e-38
1.155057 0.094792 0.318845 2.341805152028776e-38
1.155505 0.089055 0.318875 2.341805152028776e-38
1.154964 0.083248 0.318637 2.341805152028776e-38
1.154394 0.077448 0.318398 2.341805152028776e-38
1.154757 0.071717 0.318421 2.341805152028776e-38
1.153168 0.065874 0.317913 2.341805152028776e-38
1.153475 0.060149 0.317933 2.341805152028776e-38
1.152791 0.054379 0.317685 2.341805152028776e-38
1.154006 0.048698 0.317967 2.341805152028776e-38
1.157120 0.043078 0.318778 2.341805152028776e-38
1.156352 0.037305 0.318525 2.341805152028776e-38
1.156520 0.031567 0.318536 2.341805152028776e-38
1.156660 0.025828 0.318545 2.341805152028776e-38
1.156772 0.020089 0.318552 2.341805152028776e-38
1.157820 0.014361 0.318823 2.341805152028776e-38
1.158840 0.008624 0.319092 2.341805152028776e-38
1.160796 0.002879 0.319624 2.341805152028776e-38
1.157904 -0.002872 0.318828 2.341805152028776e-38
1.155948 -0.008603 0.318295 2.341805152028776e-38
1.153000 -0.014302 0.317495 2.341805152028776e-38
1.153880 -0.020039 0.317755 2.341805152028776e-38
1.154732 -0.025785 0.318014 2.341805152028776e-38
1.154593 -0.031514 0.318005 2.341805152028776e-38
1.156352 -0.037305 0.318525 2.341805152028776e-38
1.155193 -0.043006 0.318247 2.341805152028776e-38
1.154969 -0.048738 0.318232 2.341805152028776e-38
1.154718 -0.054469 0.318216 2.341805152028776e-38
1.153475 -0.060149 0.317933 2.341805152028776e-38
1.151243 -0.065764 0.317382 2.341805152028776e-38
1.150908 -0.071477 0.317360 2.341805152028776e-38
1.151508 -0.077254 0.317602 2.341805152028776e-38
1.152079 -0.083040 0.317841 2.341805152028776e-38
1.150699 -0.088685 0.317548 2.341805152028776e-38
1.151213 -0.094476 0.317784 2.341805152028776e-38
1.150739 -0.100192 0.317752 2.341805152028776e-38
1.149276 -0.105818 0.317453 2.341805152028776e-38
1.149706 -0.111618 0.317682 2.341805152028776e-38
1.149148 -0.117328 0.317644 2.341805152028776e-38
1.149520 -0.123138 0.317869 2.341805152028776e-38
1.148906 -0.128849 0.317827 2.341805152028776e-38
1.147300 -0.134453 0.317537 2.341805152028776e-38
1.147578 -0.140283 0.317784 2.341805152028776e-38
1.146870 -0.146000 0.317765 2.341805152028776e-38
1.145178 -0.151589 0.317479 2.341805152028776e-38
1.145369 -0.157429 0.317721 2.341805152028776e-38
1.146486 -0.163413 0.318226 2.341805152028776e-38
1.146617 -0.169274 0.318464 2.341805152028776e-38
1.146719 -0.175141 0.318700 2.341805152028776e-38
1.145839 -0.180866 0.318669 2.341805152028776e-38
1.145882 -0.186744 0.318900 2.341805152028776e-38
1.136386 -0.191029 0.316481 2.341805152028776e-38
1.200027 -0.207917 0.334476 2.341805152028776e-38
1.172630 0.227236 0.321671 2.341805152028776e-38
1.154777 0.217761 0.316479 2.341805152028776e-38
1.152056 0.211261 0.315445 2.341805152028776e-38
1.153101 0.205475 0.315448 2.341805152028776e-38
1.154104 0.199709 0.315483 2.341805152028776e-38
1.155077 0.193942 0.315518 2.341805152028776e-38
1.156022 0.188173 0.315551 2.341805152028776e-38
1.155985 0.182250 0.315322 2.341805152028776e-38
1.151145 0.175607 0.313789 2.341805152028776e-38
1.152954 0.170004 0.314076 2.341805152028776e-38
1.153781 0.164254 0.314100 2.341805152028776e-38
1.153623 0.158371 0.313863 2.341805152028776e-38
1.155349 0.152749 0.314144 2.341805152028776e-38
1.156090 0.146993 0.314162 2.341805152028776e-38
1.154880 0.141011 0.313677 2.341805152028776e-38
1.156512 0.135387 0.313983 2.341805152028776e-38
1.156199 0.129536 0.313766 2.341805152028776e-38
1.156817 0.123795 0.313807 2.341805152028776e-38
1.155485 0.117856 0.313325 2.341805152028776e-38
1.156046 0.112120 0.313362 2.341805152028776e-38
1.155617 0.106294 0.313136 2.341805152028776e-38
1.156121 0.100559 0.313169 2.341805152028776e-38
1.156598 0.094822 0.313200 2.341805152028776e-38
1.155121 0.088935 0.312707 2.341805152028776e-38
1.154578 0.083135 0.312474 2.341805152028776e-38
1.154969 0.077408 0.312499 2.341805152028776e-38
1.154369 0.071619 0.312261 2.341805152028776e-38
1.155668 0.065949 0.312543 2.341805152028776e-38
1.156940 0.060269 0.312823 2.341805152028776e-38
1.157220 0.054532 0.312840 2.341805152028776e-38
1.157472 0.048794 0.312856 2.341805152028776e-38
1.157696 0.043055 0.312869 2.341805152028776e-38
1.157890 0.037317 0.312886 2.341805152028776e-38
1.158057 0.031577 0.312901 2.341805152028776e-38
1.158196 0.025837 0.312913 2.341805152028776e-38
1.157342 0.020079 0.312662 2.341805152028776e-38
1.157425 0.014343 0.312670 2.341805152028776e-38
1.159411 0.008620 0.313196 2.341805152028776e-38
1.159439 0.002873 0.313198 2.341805152028776e-38
1.157508 -0.002869 0.312677 2.341805152028776e-38
1.156515 -0.008599 0.312414 2.341805152028776e-38
1.156460 -0.014331 0.312409 2.341805152028776e-38
1.155411 -0.020046 0.312141 2.341805152028776e-38
1.156266 -0.025794 0.312392 2.341805152028776e-38
1.156127 -0.031525 0.312379 2.341805152028776e-38
1.155960 -0.037254 0.312365 2.341805152028776e-38
1.155766 -0.042984 0.312348 2.341805152028776e-38
1.156507 -0.048753 0.312595 2.341805152028776e-38
1.154327 -0.054395 0.312058 2.341805152028776e-38
1.152119 -0.060017 0.311519 2.341805152028776e-38
1.151813 -0.065729 0.311500 2.341805152028776e-38
1.154369 -0.071619 0.312261 2.341805152028776e-38
1.153043 -0.077279 0.311977 2.341805152028776e-38
1.151689 -0.082927 0.311692 2.341805152028776e-38
1.150308 -0.088565 0.311405 2.341805152028776e-38
1.150825 -0.094349 0.311636 2.341805152028776e-38
1.150351 -0.100057 0.311606 2.341805152028776e-38
1.150810 -0.105852 0.311834 2.341805152028776e-38
1.152202 -0.111748 0.312320 2.341805152028776e-38
1.153564 -0.117660 0.312804 2.341805152028776e-38
1.152017 -0.123282 0.312505 2.341805152028776e-38
1.150442 -0.128891 0.312203 2.341805152028776e-38
1.150759 -0.134714 0.312421 2.341805152028776e-38
1.149130 -0.140309 0.312115 2.341805152028776e-38
1.148427 -0.146019 0.312080 2.341805152028776e-38
1.146734 -0.151610 0.311801 2.341805152028776e-38
1.145970 -0.157321 0.311781 2.341805152028776e-38
1.146134 -0.163166 0.312019 2.341805152028776e-38
1.148178 -0.169300 0.312775 2.341805152028776e-38
1.147327 -0.175024 0.312749 2.341805152028776e-38
1.146447 -0.180747 0.312720 2.341805152028776e-38
1.148398 -0.186932 0.313470 2.341805152028776e-38
1.136985 -0.190904 0.310576 2.341805152028776e-38
1.193113 -0.206460 0.326146 2.341805152028776e-38
1.178975 0.228162 0.317057 2.341805152028776e-38
1.158250 0.218124 0.311190 2.341805152028776e-38
1.156470 0.211797 0.310442 2.341805152028776e-38
1.156552 0.205850 0.310224 2.341805152028776e-38
1.156603 0.199909 0.310004 2.341805152028776e-38
1.157577 0.194135 0.310037 2.341805152028776e-38
1.158523 0.188359 0.310067 2.341805152028776e-38
1.155620 0.181978 0.309074 2.341805152028776e-38
1.155550 0.176070 0.308844 2.341805152028776e-38
1.157363 0.170451 0.309123 2.341805152028776e-38
1.157235 0.164549 0.308890 2.341805152028776e-38
1.157076 0.158654 0.308654 2.341805152028776e-38
1.155923 0.152651 0.308183 2.341805152028776e-38
1.157612 0.147036 0.308487 2.341805152028776e-38
1.158315 0.141291 0.308533 2.341805152028776e-38
1.158030 0.135431 0.308321 2.341805152028776e-38
1.158676 0.129685 0.308363 2.341805152028776e-38
1.158333 0.123835 0.308147 2.341805152028776e-38
1.159885 0.118188 0.308441 2.341805152028776e-38
1.158522 0.112249 0.307965 2.341805152028776e-38
1.158093 0.106416 0.307742 2.341805152028776e-38
1.157635 0.100590 0.307518 2.341805152028776e-38
1.158111 0.094851 0.307548 2.341805152028776e-38
1.157596 0.089037 0.307320 2.341805152028776e-38
1.158016 0.083299 0.307345 2.341805152028776e-38
1.157444 0.077496 0.307113 2.341805152028776e-38
1.157807 0.071761 0.307138 2.341805152028776e-38
1.160071 0.066137 0.307679 2.341805152028776e-38
1.159411 0.060341 0.307449 2.341805152028776e-38
1.158724 0.054553 0.307217 2.341805152028776e-38
1.158008 0.048773 0.306983 2.341805152028776e-38
1.158231 0.043038 0.307002 2.341805152028776e-38
1.158425 0.037301 0.307019 2.341805152028776e-38
1.159558 0.031591 0.307290 2.341805152028776e-38
1.161630 0.025891 0.307814 2.341805152028776e-38
1.161741 0.020138 0.307824 2.341805152028776e-38
1.161825 0.014385 0.307831 2.341805152028776e-38
1.161881 0.008631 0.307836 2.341805152028776e-38
1.162875 0.002879 0.308094 2.341805152028776e-38
1.160942 -0.002875 0.307582 2.341805152028776e-38
1.159947 -0.008617 0.307324 2.341805152028776e-38
1.156992 -0.014325 0.306550 2.341805152028776e-38
1.156909 -0.020054 0.306543 2.341805152028776e-38
1.157764 -0.025805 0.306790 2.341805152028776e-38
1.159558 -0.031591 0.307290 2.341805152028776e-38
1.158425 -0.037301 0.307019 2.341805152028776e-38
1.160163 -0.043110 0.307514 2.341805152028776e-38
1.158008 -0.048773 0.306983 2.341805152028776e-38
1.155827 -0.054416 0.306449 2.341805152028776e-38
1.154585 -0.060089 0.306169 2.341805152028776e-38
1.155245 -0.065861 0.306399 2.341805152028776e-38
1.156842 -0.071701 0.306882 2.341805152028776e-38
1.154550 -0.077302 0.306346 2.341805152028776e-38
1.151266 -0.082814 0.305554 2.341805152028776e-38
1.151813 -0.088592 0.305784 2.341805152028776e-38
1.151367 -0.094299 0.305757 2.341805152028776e-38
1.153782 -0.100255 0.306495 2.341805152028776e-38
1.155205 -0.106150 0.306975 2.341805152028776e-38
1.155636 -0.111969 0.307197 2.341805152028776e-38
1.155076 -0.117697 0.307162 2.341805152028776e-38
1.153527 -0.123321 0.306868 2.341805152028776e-38
1.151951 -0.128933 0.306573 2.341805152028776e-38
1.151308 -0.134645 0.306532 2.341805152028776e-38
1.150638 -0.140354 0.306488 2.341805152028776e-38
1.151857 -0.146305 0.306953 2.341805152028776e-38
1.149213 -0.151765 0.306394 2.341805152028776e-38
1.150371 -0.157735 0.306866 2.341805152028776e-38
1.151492 -0.163732 0.307357 2.341805152028776e-38
1.151624 -0.169606 0.307590 2.341805152028776e-38
1.151727 -0.175487 0.307822 2.341805152028776e-38
1.150845 -0.181226 0.307796 2.341805152028776e-38
1.149934 -0.186962 0.307768 2.341805152028776e-38
1.138507 -0.190937 0.304929 2.341805152028776e-38
1.189948 -0.205673 0.318942 2.341805152028776e-38
1.179599 0.227983 0.310886 2.341805152028776e-38
1.161687 0.218506 0.305909 2.341805152028776e-38
1.158944 0.212009 0.304944 2.341805152028776e-38
1.157119 0.205715 0.304227 2.341805152028776e-38
1.158122 0.199942 0.304259 2.341805152028776e-38
1.157187 0.193845 0.303788 2.341805152028776e-38
1.157176 0.187921 0.303564 2.341805152028776e-38
1.157134 0.182004 0.303339 2.341805152028776e-38
1.158977 0.176385 0.303613 2.341805152028776e-38
1.157920 0.170332 0.303133 2.341805152028776e-38
1.158742 0.164578 0.303171 2.341805152028776e-38
1.158571 0.158699 0.302971 2.341805152028776e-38
1.159331 0.152953 0.303020 2.341805152028776e-38
1.159102 0.147082 0.302816 2.341805152028776e-38
1.158845 0.141218 0.302610 2.341805152028776e-38
1.159519 0.135473 0.302652 2.341805152028776e-38
1.161128 0.129833 0.302944 2.341805152028776e-38
1.161747 0.124078 0.302982 2.341805152028776e-38
1.161375 0.118224 0.302768 2.341805152028776e-38
1.160974 0.112376 0.302551 2.341805152028776e-38
1.158616 0.106359 0.301830 2.341805152028776e-38
1.159120 0.100620 0.301860 2.341805152028776e-38
1.159597 0.094879 0.301889 2.341805152028776e-38
1.160043 0.089140 0.301925 2.341805152028776e-38
1.160460 0.083399 0.301961 2.341805152028776e-38
1.159884 0.077591 0.301743 2.341805152028776e-38
1.158314 0.071731 0.301271 2.341805152028776e-38
1.160580 0.066109 0.301802 2.341805152028776e-38
1.161853 0.060416 0.302079 2.341805152028776e-38
1.160198 0.054575 0.301600 2.341805152028776e-38
1.160448 0.048834 0.301622 2.341805152028776e-38
1.159703 0.043056 0.301389 2.341805152028776e-38
1.158930 0.037286 0.301154 2.341805152028776e-38
1.160065 0.031577 0.301420 2.341805152028776e-38
1.162139 0.025880 0.301935 2.341805152028776e-38
1.162250 0.020130 0.301944 2.341805152028776e-38
1.160398 0.014355 0.301448 2.341805152028776e-38
1.162389 0.008627 0.301956 2.341805152028776e-38
1.164353 0.002881 0.302461 2.341805152028776e-38
1.163385 -0.002878 0.302210 2.341805152028776e-38
1.160454 -0.008613 0.301453 2.341805152028776e-38
1.159430 -0.014343 0.301197 2.341805152028776e-38
1.159347 -0.020079 0.301190 2.341805152028776e-38
1.160204 -0.025837 0.301432 2.341805152028776e-38
1.162000 -0.031630 0.301923 2.341805152028776e-38
1.160865 -0.037348 0.301657 2.341805152028776e-38
1.159703 -0.043056 0.301389 2.341805152028776e-38
1.158514 -0.048753 0.301119 2.341805152028776e-38
1.158264 -0.054484 0.301098 2.341805152028776e-38
1.157020 -0.060165 0.300823 2.341805152028776e-38
1.157681 -0.065944 0.301048 2.341805152028776e-38
1.157348 -0.071671 0.301020 2.341805152028776e-38
1.156021 -0.077333 0.300738 2.341805152028776e-38
1.154668 -0.082982 0.300454 2.341805152028776e-38
1.153287 -0.088621 0.300167 2.341805152028776e-38
1.153809 -0.094406 0.300382 2.341805152028776e-38
1.155263 -0.100285 0.300856 2.341805152028776e-38
1.153796 -0.105917 0.300574 2.341805152028776e-38
1.154229 -0.111723 0.300793 2.341805152028776e-38
1.154634 -0.117537 0.301010 2.341805152028776e-38
1.153084 -0.123153 0.300723 2.341805152028776e-38
1.152470 -0.128865 0.300685 2.341805152028776e-38
1.152789 -0.134687 0.300896 2.341805152028776e-38
1.153079 -0.140515 0.301104 2.341805152028776e-38
1.153340 -0.146351 0.301311 2.341805152028776e-38
1.152613 -0.152067 0.301264 2.341805152028776e-38
1.153776 -0.158042 0.301717 2.341805152028776e-38
1.152991 -0.163762 0.301666 2.341805152028776e-38
1.154089 -0.169768 0.302130 2.341805152028776e-38
1.154192 -0.175657 0.302360 2.341805152028776e-38
1.152353 -0.181251 0.302086 2.341805152028776e-38
1.150487 -0.186835 0.301810 2.341805152028776e-38
1.140001 -0.190967 0.299276 2.341805152028776e-38
1.185787 -0.204718 0.311527 2.341805152028776e-38
1.178270 0.227467 0.304274 2.341805152028776e-38
1.163185 0.218543 0.300133 2.341805152028776e-38
1.160438 0.212043 0.299184 2.341805152028776e-38
1.158609 0.205747 0.298478 2.341805152028776e-38
1.158657 0.199807 0.298262 2.341805152028776e-38
1.159631 0.194033 0.298289 2.341805152028776e-38
1.157706 0.187791 0.297576 2.341805152028776e-38
1.158620 0.182026 0.297599 2.341805152028776e-38
1.159503 0.176266 0.297630 2.341805152028776e-38
1.160348 0.170518 0.297683 2.341805152028776e-38
1.160206 0.164630 0.297489 2.341805152028776e-38
1.160995 0.158880 0.297539 2.341805152028776e-38
1.160794 0.153000 0.297340 2.341805152028776e-38
1.161526 0.147249 0.297385 2.341805152028776e-38
1.162230 0.141495 0.297428 2.341805152028776e-38
1.160981 0.135514 0.296977 2.341805152028776e-38
1.161628 0.129764 0.297016 2.341805152028776e-38
1.160319 0.123807 0.296560 2.341805152028776e-38
1.161873 0.118160 0.296841 2.341805152028776e-38
1.162435 0.112409 0.296874 2.341805152028776e-38
1.161036 0.106482 0.296423 2.341805152028776e-38
1.163468 0.100908 0.296958 2.341805152028776e-38
1.163943 0.095155 0.296997 2.341805152028776e-38
1.164390 0.089399 0.297035 2.341805152028776e-38
1.162875 0.083502 0.296577 2.341805152028776e-38
1.160365 0.077558 0.295870 2.341805152028776e-38
1.161693 0.071880 0.296146 2.341805152028776e-38
1.162995 0.066191 0.296421 2.341805152028776e-38
1.162334 0.060390 0.296200 2.341805152028776e-38
1.161644 0.054598 0.295976 2.341805152028776e-38
1.161895 0.048854 0.295997 2.341805152028776e-38
1.161149 0.043073 0.295769 2.341805152028776e-38
1.156500 0.037176 0.294552 2.341805152028776e-38
1.158604 0.031511 0.295059 2.341805152028776e-38
1.163587 0.025891 0.296304 2.341805152028776e-38
1.161760 0.020104 0.295820 2.341805152028776e-38
1.160875 0.014349 0.295580 2.341805152028776e-38
1.164807 0.008638 0.296572 2.341805152028776e-38
1.164834 0.002879 0.296574 2.341805152028776e-38
1.163865 -0.002877 0.296328 2.341805152028776e-38
1.161899 -0.008616 0.295832 2.341805152028776e-38
1.161844 -0.014361 0.295827 2.341805152028776e-38
1.161760 -0.020104 0.295820 2.341805152028776e-38
1.161649 -0.025848 0.295811 2.341805152028776e-38
1.161510 -0.031590 0.295799 2.341805152028776e-38
1.160375 -0.037301 0.295539 2.341805152028776e-38
1.161149 -0.043073 0.295769 2.341805152028776e-38
1.161895 -0.048854 0.295997 2.341805152028776e-38
1.162612 -0.054643 0.296223 2.341805152028776e-38
1.159430 -0.060239 0.295460 2.341805152028776e-38
1.159125 -0.065971 0.295434 2.341805152028776e-38
1.160726 -0.071820 0.295900 2.341805152028776e-38
1.158431 -0.077429 0.295376 2.341805152028776e-38
1.158042 -0.083155 0.295344 2.341805152028776e-38
1.155693 -0.088731 0.294816 2.341805152028776e-38
1.155250 -0.094444 0.294779 2.341805152028776e-38
1.156710 -0.100322 0.295233 2.341805152028776e-38
1.156210 -0.106040 0.295191 2.341805152028776e-38
1.156647 -0.111849 0.295396 2.341805152028776e-38
1.156088 -0.117572 0.295363 2.341805152028776e-38
1.156464 -0.123395 0.295575 2.341805152028776e-38
1.155849 -0.129119 0.295538 2.341805152028776e-38
1.155205 -0.134839 0.295499 2.341805152028776e-38
1.155496 -0.140675 0.295705 2.341805152028776e-38
1.154796 -0.146396 0.295662 2.341805152028776e-38
1.155029 -0.152240 0.295863 2.341805152028776e-38
1.154273 -0.157960 0.295816 2.341805152028776e-38
1.154448 -0.163813 0.296013 2.341805152028776e-38
1.153636 -0.169531 0.295961 2.341805152028776e-38
1.152795 -0.175246 0.295908 2.341805152028776e-38
1.150960 -0.180823 0.295631 2.341805152028776e-38
1.151008 -0.186704 0.295855 2.341805152028776e-38
1.139555 -0.190674 0.293125 2.341805152028776e-38
1.192089 -0.205572 0.306868 2.341805152028776e-38
1.175948 0.226769 0.297451 2.341805152028776e-38
1.164655 0.218578 0.294351 2.341805152028776e-38
1.161903 0.212075 0.293419 2.341805152028776e-38
1.161026 0.205946 0.292965 2.341805152028776e-38
1.161074 0.199998 0.292751 2.341805152028776e-38
