VERSION .7
FIELDS x y z rgb
SIZE 4 4 4 4
TYPE F F F F
COUNT 1 1 1 1
WIDTH 968
HEIGHT 1
VIEWPOINT 0 0 0 1 0 0 0
POINTS 968
DATA ascii
1.174521 0.229200 0.354218 2.341805152028776e-38
1.168136 0.221809 0.351938 2.341805152028776e-38
1.170186 0.216069 0.352222 2.341805152028776e-38
1.172198 0.210332 0.352528 2.341805152028776e-38
1.174183 0.204582 0.352830 2.341805152028776e-38
1.172358 0.198182 0.351995 2.341805152028776e-38
1.172391 0.192119 0.351726 2.341805152028776e-38
1.172393 0.186064 0.351454 2.341805152028776e-38
1.174259 0.180308 0.351748 2.341805152028776e-38
1.173251 0.174118 0.351188 2.341805152028776e-38
1.172212 0.167947 0.350626 2.341805152028776e-38
1.173039 0.162056 0.350631 2.341805152028776e-38
1.173837 0.156165 0.350634 2.341805152028776e-38
1.174598 0.150281 0.350655 2.341805152028776e-38
1.174376 0.144283 0.350401 2.341805152028776e-38
1.174122 0.138292 0.350144 2.341805152028776e-38
1.174792 0.132417 0.350170 2.341805152028776e-38
1.175432 0.126541 0.350194 2.341805152028776e-38
1.174136 0.120467 0.349648 2.341805152028776e-38
1.176626 0.114784 0.350237 2.341805152028776e-38
1.178133 0.108991 0.350540 2.341805152028776e-38
1.175792 0.102855 0.349705 2.341805152028776e-38
1.175331 0.096903 0.349438 2.341805152028776e-38
1.176752 0.091108 0.349737 2.341805152028776e-38
1.177188 0.085233 0.349750 2.341805152028776e-38
1.175682 0.079229 0.349194 2.341805152028776e-38
1.176059 0.073362 0.349205 2.341805152028776e-38
1.175450 0.067440 0.348931 2.341805152028776e-38
1.178642 0.061728 0.349793 2.341805152028776e-38
1.177017 0.055760 0.349232 2.341805152028776e-38
1.178236 0.049932 0.349524 2.341805152028776e-38
1.176551 0.043987 0.348964 2.341805152028776e-38
1.178668 0.038186 0.349547 2.341805152028776e-38
1.178840 0.032312 0.349560 2.341805152028776e-38
1.178983 0.026438 0.349570 2.341805152028776e-38
1.179098 0.020563 0.349579 2.341805152028776e-38
1.178225 0.014677 0.349301 2.341805152028776e-38
1.177324 0.008799 0.349021 2.341805152028776e-38
1.177352 0.002933 0.349023 2.341805152028776e-38
1.179270 -0.002938 0.349591 2.341805152028776e-38
1.181159 -0.008828 0.350158 2.341805152028776e-38
1.179184 -0.014688 0.349585 2.341805152028776e-38
1.179098 -0.020563 0.349579 2.341805152028776e-38
1.179942 -0.026460 0.349854 2.341805152028776e-38
1.181715 -0.032391 0.350412 2.341805152028776e-38
1.180585 -0.038248 0.350115 2.341805152028776e-38
1.179426 -0.044094 0.349816 2.341805152028776e-38
1.180152 -0.050013 0.350092 2.341805152028776e-38
1.180848 -0.055941 0.350369 2.341805152028776e-38
1.179599 -0.061778 0.350077 2.341805152028776e-38
1.178322 -0.067605 0.349784 2.341805152028776e-38
1.177016 -0.073422 0.349489 2.341805152028776e-38
1.178551 -0.079422 0.350046 2.341805152028776e-38
1.176232 -0.085164 0.349466 2.341805152028776e-38
1.178664 -0.091256 0.350305 2.341805152028776e-38
1.181064 -0.097376 0.351142 2.341805152028776e-38
1.180568 -0.103272 0.351126 2.341805152028776e-38
1.180043 -0.109168 0.351108 2.341805152028776e-38
1.181397 -0.115249 0.351657 2.341805152028776e-38
1.181766 -0.121250 0.351921 2.341805152028776e-38
1.180199 -0.127054 0.351614 2.341805152028776e-38
1.178603 -0.132847 0.351306 2.341805152028776e-38
1.178884 -0.138853 0.351564 2.341805152028776e-38
1.179134 -0.144867 0.351820 2.341805152028776e-38
1.180305 -0.151011 0.352359 2.341805152028776e-38
1.179540 -0.156923 0.352337 2.341805152028776e-38
1.183487 -0.163500 0.353754 2.341805152028776e-38
1.185500 -0.169851 0.354601 2.341805152028776e-38
1.183684 -0.175667 0.354311 2.341805152028776e-38
1.185485 0.237223 0.351330 2.341805152028776e-38
1.175365 0.229005 0.347969 2.341805152028776e-38
1.169895 0.221818 0.346037 2.341805152028776e-38
1.170049 0.215742 0.345778 2.341805152028776e-38
1.172061 0.210011 0.346075 2.341805152028776e-38
1.173100 0.204104 0.346090 2.341805152028776e-38
1.172215 0.197876 0.345545 2.341805152028776e-38
1.171297 0.191665 0.344997 2.341805152028776e-38
1.173192 0.185923 0.345285 2.341805152028776e-38
1.173161 0.179878 0.345013 2.341805152028776e-38
1.173098 0.173842 0.344738 2.341805152028776e-38
1.171104 0.167543 0.343904 2.341805152028776e-38
1.171920 0.161677 0.343931 2.341805152028776e-38
1.172705 0.155812 0.343962 2.341805152028776e-38
1.174413 0.150067 0.344271 2.341805152028776e-38
1.174188 0.144076 0.344019 2.341805152028776e-38
1.172979 0.137981 0.343485 2.341805152028776e-38
1.172692 0.132011 0.343230 2.341805152028776e-38
1.171421 0.125947 0.342693 2.341805152028776e-38
1.172985 0.120194 0.342992 2.341805152028776e-38
1.175476 0.114523 0.343569 2.341805152028776e-38
1.175072 0.108567 0.343307 2.341805152028776e-38
1.175595 0.102703 0.343323 2.341805152028776e-38
1.176088 0.096839 0.343337 2.341805152028776e-38
1.176552 0.090973 0.343350 2.341805152028776e-38
1.176030 0.085038 0.343083 2.341805152028776e-38
1.175478 0.079111 0.342814 2.341805152028776e-38
1.173934 0.073137 0.342279 2.341805152028776e-38
1.175235 0.067345 0.342584 2.341805152028776e-38
1.177467 0.061594 0.343165 2.341805152028776e-38
1.175835 0.055640 0.342627 2.341805152028776e-38
1.176092 0.049786 0.342645 2.341805152028776e-38
1.177280 0.043967 0.342941 2.341805152028776e-38
1.177480 0.038106 0.342956 2.341805152028776e-38
1.177651 0.032245 0.342968 2.341805152028776e-38
1.178754 0.026404 0.343258 2.341805152028776e-38
1.179828 0.020554 0.343545 2.341805152028776e-38
1.177994 0.014658 0.342993 2.341805152028776e-38
1.178051 0.008795 0.342997 2.341805152028776e-38
1.179040 0.002934 0.343278 2.341805152028776e-38
1.181920 -0.002941 0.344117 2.341805152028776e-38
1.179972 -0.008809 0.343556 2.341805152028776e-38
1.178954 -0.014670 0.343272 2.341805152028776e-38
1.179828 -0.020554 0.343545 2.341805152028776e-38
1.181634 -0.026469 0.344096 2.341805152028776e-38
1.181490 -0.032350 0.344086 2.341805152028776e-38
1.180359 -0.038199 0.343794 2.341805152028776e-38
1.180158 -0.044074 0.343780 2.341805152028776e-38
1.180888 -0.049989 0.344043 2.341805152028776e-38
1.180630 -0.055867 0.344024 2.341805152028776e-38
1.178426 -0.061644 0.343445 2.341805152028776e-38
1.179069 -0.067565 0.343701 2.341805152028776e-38
1.177767 -0.073375 0.343397 2.341805152028776e-38
1.177394 -0.079240 0.343373 2.341805152028776e-38
1.177945 -0.085176 0.343641 2.341805152028776e-38
1.180382 -0.091269 0.344468 2.341805152028776e-38
1.180873 -0.097233 0.344734 2.341805152028776e-38
1.179421 -0.103038 0.344440 2.341805152028776e-38
1.179853 -0.109009 0.344704 2.341805152028776e-38
1.180255 -0.114989 0.344966 2.341805152028776e-38
1.181582 -0.121075 0.345506 2.341805152028776e-38
1.178104 -0.126665 0.344648 2.341805152028776e-38
1.178418 -0.132656 0.344905 2.341805152028776e-38
1.177747 -0.138542 0.344882 2.341805152028776e-38
1.179906 -0.144778 0.345694 2.341805152028776e-38
1.179176 -0.150675 0.345667 2.341805152028776e-38
1.178416 -0.156571 0.345638 2.341805152028776e-38
1.179530 -0.162727 0.346165 2.341805152028776e-38
1.180609 -0.168903 0.346695 2.341805152028776e-38
1.177848 -0.174546 0.346134 2.341805152028776e-38
1.181591 0.236091 0.343676 2.341805152028776e-38
1.174265 0.228476 0.341230 2.341805152028776e-38
1.168782 0.221301 0.339329 2.341805152028776e-38
1.168931 0.215237 0.339071 2.341805152028776e-38
1.171889 0.209687 0.339634 2.341805152028776e-38
1.173873 0.203952 0.339920 2.341805152028776e-38
1.173933 0.197886 0.339656 2.341805152028776e-38
1.173013 0.191673 0.339114 2.341805152028776e-38
1.173010 0.185628 0.338845 2.341805152028776e-38
1.173926 0.179737 0.338848 2.341805152028776e-38
1.172900 0.173577 0.338328 2.341805152028776e-38
1.172792 0.167573 0.338086 2.341805152028776e-38
1.172654 0.161577 0.337842 2.341805152028776e-38
1.175345 0.155967 0.338420 2.341805152028776e-38
1.174194 0.149850 0.337897 2.341805152028776e-38
1.173966 0.143867 0.337648 2.341805152028776e-38
1.173708 0.137892 0.337396 2.341805152028776e-38
1.175331 0.132140 0.337692 2.341805152028776e-38
1.174058 0.126069 0.337162 2.341805152028776e-38
1.175624 0.120310 0.337455 2.341805152028776e-38
1.178118 0.114633 0.338021 2.341805152028776e-38
1.178671 0.108759 0.338036 2.341805152028776e-38
1.177278 0.102717 0.337500 2.341805152028776e-38
1.176809 0.096777 0.337252 2.341805152028776e-38
1.177266 0.090920 0.337285 2.341805152028776e-38
1.178655 0.085131 0.337590 2.341805152028776e-38
1.176177 0.079073 0.336794 2.341805152028776e-38
1.176549 0.073222 0.336821 2.341805152028776e-38
1.177851 0.067424 0.337119 2.341805152028776e-38
1.177206 0.061515 0.336867 2.341805152028776e-38
1.175570 0.055569 0.336337 2.341805152028776e-38
1.175827 0.049722 0.336355 2.341805152028776e-38
1.176055 0.043874 0.336371 2.341805152028776e-38
1.177216 0.038057 0.336659 2.341805152028776e-38
1.180271 0.032282 0.337496 2.341805152028776e-38
1.182336 0.026456 0.338055 2.341805152028776e-38
1.180528 0.020544 0.337513 2.341805152028776e-38
1.180614 0.014675 0.337519 2.341805152028776e-38
1.181633 0.008812 0.337798 2.341805152028776e-38
1.180700 0.002935 0.337525 2.341805152028776e-38
1.181661 -0.002937 0.337800 2.341805152028776e-38
1.181633 -0.008812 0.337798 2.341805152028776e-38
1.180614 -0.014675 0.337519 2.341805152028776e-38
1.181489 -0.020561 0.337788 2.341805152028776e-38
1.182336 -0.026456 0.338055 2.341805152028776e-38
1.183154 -0.032361 0.338320 2.341805152028776e-38
1.181060 -0.038181 0.337759 2.341805152028776e-38
1.183742 -0.044161 0.338569 2.341805152028776e-38
1.184473 -0.050088 0.338828 2.341805152028776e-38
1.184214 -0.055977 0.338810 2.341805152028776e-38
1.182006 -0.061766 0.338240 2.341805152028776e-38
1.180731 -0.067589 0.337944 2.341805152028776e-38
1.180387 -0.073461 0.337919 2.341805152028776e-38
1.180015 -0.079331 0.337893 2.341805152028776e-38
1.182491 -0.085408 0.338689 2.341805152028776e-38
1.180143 -0.091142 0.338109 2.341805152028776e-38
1.180642 -0.097092 0.338351 2.341805152028776e-38
1.181110 -0.103052 0.338599 2.341805152028776e-38
1.182500 -0.109113 0.339134 2.341805152028776e-38
1.180989 -0.114912 0.338844 2.341805152028776e-38
1.182320 -0.120995 0.339377 2.341805152028776e-38
1.179794 -0.126685 0.338810 2.341805152028776e-38
1.177242 -0.132355 0.338241 2.341805152028776e-38
1.177528 -0.138341 0.338494 2.341805152028776e-38
1.179693 -0.144569 0.339295 2.341805152028776e-38
1.179917 -0.150581 0.339544 2.341805152028776e-38
1.180111 -0.156600 0.339792 2.341805152028776e-38
1.180274 -0.162627 0.340038 2.341805152028776e-38
1.182311 -0.168933 0.340830 2.341805152028776e-38
1.178608 -0.174421 0.339974 2.341805152028776e-38
1.181411 0.235736 0.337191 2.341805152028776e-38
1.173125 0.227943 0.334514 2.341805152028776e-38
1.167630 0.220781 0.332643 2.341805152028776e-38
1.170617 0.215250 0.333196 2.341805152028776e-38
1.174526 0.209868 0.334015 2.341805152028776e-38
1.175563 0.203961 0.334023 2.341805152028776e-38
1.175622 0.197893 0.333760 2.341805152028776e-38
1.174699 0.191678 0.333224 2.341805152028776e-38
1.176588 0.185943 0.333518 2.341805152028776e-38
1.175590 0.179768 0.333013 2.341805152028776e-38
1.174559 0.173609 0.332506 2.341805152028776e-38
1.174450 0.167603 0.332266 2.341805152028776e-38
1.175264 0.161736 0.332295 2.341805152028776e-38
1.175095 0.155741 0.332051 2.341805152028776e-38
1.175851 0.149875 0.332075 2.341805152028776e-38
1.175622 0.143890 0.331828 2.341805152028776e-38
1.175362 0.137913 0.331579 2.341805152028776e-38
1.176030 0.132052 0.331597 2.341805152028776e-38
1.176669 0.126190 0.331615 2.341805152028776e-38
1.178236 0.120424 0.331900 2.341805152028776e-38
1.178811 0.114561 0.331933 2.341805152028776e-38
1.180315 0.108787 0.332241 2.341805152028776e-38
1.178912 0.102750 0.331737 2.341805152028776e-38
1.178439 0.096810 0.331501 2.341805152028776e-38
1.177937 0.090877 0.331262 2.341805152028776e-38
1.179326 0.085091 0.331562 2.341805152028776e-38
1.177805 0.079100 0.331049 2.341805152028776e-38
1.178177 0.073247 0.331074 2.341805152028776e-38
1.177558 0.067337 0.330828 2.341805152028776e-38
1.177873 0.061485 0.330849 2.341805152028776e-38
1.178158 0.055633 0.330868 2.341805152028776e-38
1.177453 0.049739 0.330615 2.341805152028776e-38
1.180568 0.043997 0.331441 2.341805152028776e-38
1.180768 0.038132 0.331454 2.341805152028776e-38
1.182865 0.032319 0.332006 2.341805152028776e-38
1.181083 0.026401 0.331475 2.341805152028776e-38
1.183122 0.020568 0.332023 2.341805152028776e-38
1.185134 0.014715 0.332569 2.341805152028776e-38
1.184228 0.008822 0.332303 2.341805152028776e-38
1.184257 0.002941 0.332305 2.341805152028776e-38
1.185220 -0.002943 0.332575 2.341805152028776e-38
1.184228 -0.008822 0.332303 2.341805152028776e-38
1.181283 -0.014668 0.331488 2.341805152028776e-38
1.182160 -0.020551 0.331753 2.341805152028776e-38
1.183008 -0.026444 0.332016 2.341805152028776e-38
1.181902 -0.032293 0.331736 2.341805152028776e-38
1.182693 -0.038194 0.331995 2.341805152028776e-38
1.184416 -0.044140 0.332521 2.341805152028776e-38
1.185149 -0.050064 0.332776 2.341805152028776e-38
1.182967 -0.055860 0.332219 2.341805152028776e-38
1.181719 -0.061686 0.331929 2.341805152028776e-38
1.182365 -0.067611 0.332178 2.341805152028776e-38
1.183943 -0.073605 0.332695 2.341805152028776e-38
1.182609 -0.079423 0.332399 2.341805152028776e-38
1.181247 -0.085230 0.332102 2.341805152028776e-38
1.179857 -0.091025 0.331802 2.341805152028776e-38
1.183237 -0.097204 0.332850 2.341805152028776e-38
1.183708 -0.103168 0.333087 2.341805152028776e-38
1.183191 -0.109052 0.333050 2.341805152028776e-38
1.183603 -0.115027 0.333282 2.341805152028776e-38
1.183984 -0.121012 0.333520 2.341805152028776e-38
1.181456 -0.126703 0.332964 2.341805152028776e-38
1.180814 -0.132589 0.332947 2.341805152028776e-38
1.180144 -0.138474 0.332927 2.341805152028776e-38
1.182312 -0.144709 0.333716 2.341805152028776e-38
1.181582 -0.150605 0.333694 2.341805152028776e-38
1.181777 -0.156626 0.333939 2.341805152028776e-38
1.180988 -0.162524 0.333913 2.341805152028776e-38
1.183983 -0.168964 0.334963 2.341805152028776e-38
1.180274 -0.174454 0.334124 2.341805152028776e-38
1.184033 0.235942 0.331514 2.341805152028776e-38
1.174788 0.227959 0.328616 2.341805152028776e-38
1.172126 0.221330 0.327569 2.341805152028776e-38
1.175119 0.215783 0.328108 2.341805152028776e-38
1.178085 0.210214 0.328645 2.341805152028776e-38
1.179124 0.204296 0.328649 2.341805152028776e-38
1.178227 0.198063 0.328134 2.341805152028776e-38
1.178241 0.192017 0.327906 2.341805152028776e-38
1.178223 0.185978 0.327675 2.341805152028776e-38
1.177222 0.179800 0.327177 2.341805152028776e-38
1.177143 0.173780 0.326942 2.341805152028776e-38
1.177033 0.167767 0.326705 2.341805152028776e-38
1.176893 0.161762 0.326465 2.341805152028776e-38
1.178635 0.156018 0.326754 2.341805152028776e-38
1.179392 0.150140 0.326776 2.341805152028776e-38
1.178205 0.144027 0.326266 2.341805152028776e-38
1.177945 0.138044 0.326019 2.341805152028776e-38
1.179569 0.132287 0.326309 2.341805152028776e-38
1.179241 0.126322 0.326087 2.341805152028776e-38
1.178884 0.120364 0.325864 2.341805152028776e-38
1.179456 0.114506 0.325903 2.341805152028776e-38
1.180960 0.108735 0.326205 2.341805152028776e-38
1.179555 0.102701 0.325709 2.341805152028776e-38
1.179081 0.096763 0.325476 2.341805152028776e-38
1.180499 0.090981 0.325772 2.341805152028776e-38
1.180929 0.085119 0.325800 2.341805152028776e-38
1.178444 0.079062 0.325031 2.341805152028776e-38
1.179777 0.073270 0.325321 2.341805152028776e-38
1.180120 0.067413 0.325343 2.341805152028776e-38
1.179472 0.061505 0.325098 2.341805152028776e-38
1.179757 0.055651 0.325117 2.341805152028776e-38
1.182904 0.049917 0.325929 2.341805152028776e-38
1.182170 0.044011 0.325679 2.341805152028776e-38
1.183334 0.038175 0.325957 2.341805152028776e-38
1.182542 0.032277 0.325703 2.341805152028776e-38
1.183649 0.026431 0.325977 2.341805152028776e-38
1.184727 0.020574 0.326250 2.341805152028776e-38
1.185777 0.014708 0.326521 2.341805152028776e-38
1.186799 0.008832 0.326790 2.341805152028776e-38
1.187792 0.002946 0.327057 2.341805152028776e-38
1.186827 -0.002944 0.326792 2.341805152028776e-38
1.184870 -0.008818 0.326259 2.341805152028776e-38
1.183849 -0.014684 0.325990 2.341805152028776e-38
1.185691 -0.020591 0.326516 2.341805152028776e-38
1.186540 -0.026495 0.326774 2.341805152028776e-38
1.185433 -0.032356 0.326499 2.341805152028776e-38
1.185261 -0.038237 0.326488 2.341805152028776e-38
1.186024 -0.044154 0.326741 2.341805152028776e-38
1.186757 -0.050080 0.326991 2.341805152028776e-38
1.187462 -0.056014 0.327240 2.341805152028776e-38
1.187174 -0.061907 0.327221 2.341805152028776e-38
1.185896 -0.067743 0.326935 2.341805152028776e-38
1.184589 -0.073569 0.326647 2.341805152028776e-38
1.182292 -0.079320 0.326092 2.341805152028776e-38
1.182852 -0.085258 0.326331 2.341805152028776e-38
1.182422 -0.091130 0.326303 2.341805152028776e-38
1.183885 -0.097157 0.326802 2.341805152028776e-38
1.183397 -0.103036 0.326770 2.341805152028776e-38
1.183841 -0.109000 0.327000 2.341805152028776e-38
1.184255 -0.114972 0.327228 2.341805152028776e-38
1.182720 -0.120756 0.326924 2.341805152028776e-38
1.183076 -0.126733 0.327148 2.341805152028776e-38
1.183402 -0.132717 0.327369 2.341805152028776e-38
1.181776 -0.138493 0.327079 2.341805152028776e-38
1.182034 -0.144495 0.327326 2.341805152028776e-38
1.181305 -0.150384 0.327306 2.341805152028776e-38
1.181502 -0.156397 0.327549 2.341805152028776e-38
1.182625 -0.162550 0.328055 2.341805152028776e-38
1.186579 -0.169128 0.329354 2.341805152028776e-38
1.180959 -0.174343 0.328002 2.341805152028776e-38
1.182840 0.235391 0.324781 2.341805152028776e-38
1.178317 0.228338 0.323232 2.341805152028776e-38
1.174703 0.221518 0.321940 2.341805152028776e-38
1.174850 0.215441 0.321686 2.341805152028776e-38
1.175916 0.209541 0.321689 2.341805152028776e-38
1.177890 0.203825 0.321985 2.341805152028776e-38
1.178884 0.197940 0.322021 2.341805152028776e-38
1.177942 0.191741 0.321534 2.341805152028776e-38
1.178876 0.185859 0.321566 2.341805152028776e-38
1.176917 0.179538 0.320815 2.341805152028776e-38
1.178745 0.173807 0.321102 2.341805152028776e-38
1.177679 0.167656 0.320606 2.341805152028776e-38
1.177537 0.161654 0.320369 2.341805152028776e-38
1.178322 0.155786 0.320390 2.341805152028776e-38
1.178120 0.149794 0.320149 2.341805152028776e-38
1.177882 0.143819 0.319925 2.341805152028776e-38
1.178569 0.137969 0.319971 2.341805152028776e-38
1.180187 0.132224 0.320275 2.341805152028776e-38
1.180817 0.126364 0.320318 2.341805152028776e-38
1.181419 0.120501 0.320357 2.341805152028776e-38
1.181992 0.114637 0.320395 2.341805152028776e-38
1.178691 0.108416 0.319389 2.341805152028776e-38
1.179206 0.102567 0.319422 2.341805152028776e-38
1.180654 0.096794 0.319714 2.341805152028776e-38
1.182074 0.091010 0.320004 2.341805152028776e-38
1.181540 0.085077 0.319771 2.341805152028776e-38
1.181941 0.079216 0.319796 2.341805152028776e-38
1.182313 0.073353 0.319820 2.341805152028776e-38
1.182656 0.067489 0.319841 2.341805152028776e-38
1.181043 0.061524 0.319340 2.341805152028776e-38
1.182293 0.055713 0.319618 2.341805152028776e-38
1.183515 0.049892 0.319895 2.341805152028776e-38
1.184708 0.044060 0.320170 2.341805152028776e-38
1.183943 0.038156 0.319926 2.341805152028776e-38
1.184113 0.032288 0.319941 2.341805152028776e-38
1.184255 0.026418 0.319954 2.341805152028776e-38
1.185334 0.020565 0.320224 2.341805152028776e-38
1.186385 0.014702 0.320493 2.341805152028776e-38
1.187407 0.008828 0.320759 2.341805152028776e-38
1.186470 0.002940 0.320500 2.341805152028776e-38
1.187436 -0.002943 0.320761 2.341805152028776e-38
1.188373 -0.008835 0.321019 2.341805152028776e-38
1.189281 -0.014737 0.321275 2.341805152028776e-38
1.189195 -0.020632 0.321268 2.341805152028776e-38
1.189081 -0.026526 0.321257 2.341805152028776e-38
1.186043 -0.032340 0.320463 2.341805152028776e-38
1.186837 -0.038250 0.320708 2.341805152028776e-38
1.188567 -0.044204 0.321213 2.341805152028776e-38
1.190267 -0.050176 0.321720 2.341805152028776e-38
1.188079 -0.055986 0.321182 2.341805152028776e-38
1.184899 -0.061725 0.320382 2.341805152028776e-38
1.184584 -0.067599 0.320363 2.341805152028776e-38
1.184240 -0.073473 0.320341 2.341805152028776e-38
1.183867 -0.079345 0.320318 2.341805152028776e-38
1.184429 -0.085285 0.320553 2.341805152028776e-38
1.184962 -0.091233 0.320786 2.341805152028776e-38
1.183540 -0.097031 0.320496 2.341805152028776e-38
1.182091 -0.102818 0.320204 2.341805152028776e-38
1.182537 -0.108770 0.320431 2.341805152028776e-38
1.183914 -0.114823 0.320916 2.341805152028776e-38
1.185261 -0.120893 0.321399 2.341805152028776e-38
1.186577 -0.126980 0.321880 2.341805152028776e-38
1.184984 -0.132761 0.321577 2.341805152028776e-38
1.183364 -0.138530 0.321273 2.341805152028776e-38
1.183632 -0.144521 0.321486 2.341805152028776e-38
1.182909 -0.150403 0.321450 2.341805152028776e-38
1.183108 -0.156419 0.321691 2.341805152028776e-38
1.184233 -0.162573 0.322191 2.341805152028776e-38
1.185326 -0.168745 0.322688 2.341805152028776e-38
1.180656 -0.174089 0.321622 2.341805152028776e-38
1.182557 0.235025 0.318325 2.341805152028776e-38
1.179924 0.228346 0.317312 2.341805152028776e-38
1.174403 0.221166 0.315530 2.341805152028776e-38
1.174540 0.215106 0.315293 2.341805152028776e-38
1.177493 0.209577 0.315842 2.341805152028776e-38
1.178515 0.203697 0.315877 2.341805152028776e-38
1.179508 0.197813 0.315911 2.341805152028776e-38
1.177609 0.191462 0.315175 2.341805152028776e-38
1.177586 0.185437 0.314948 2.341805152028776e-38
1.179445 0.179711 0.315230 2.341805152028776e-38
1.179363 0.173691 0.314999 2.341805152028776e-38
1.179250 0.167679 0.314766 2.341805152028776e-38
1.178149 0.161543 0.314275 2.341805152028776e-38
1.178926 0.155689 0.314316 2.341805152028776e-38
1.180630 0.149959 0.314621 2.341805152028776e-38
1.180387 0.143983 0.314412 2.341805152028776e-38
1.182035 0.138238 0.314713 2.341805152028776e-38
1.181734 0.132266 0.314500 2.341805152028776e-38
1.181404 0.126301 0.314284 2.341805152028776e-38
1.182967 0.120539 0.314579 2.341805152028776e-38
1.181616 0.114486 0.314103 2.341805152028776e-38
1.181197 0.108539 0.313882 2.341805152028776e-38
1.181712 0.102682 0.313914 2.341805152028776e-38
1.183162 0.096903 0.314200 2.341805152028776e-38
1.182656 0.090964 0.313973 2.341805152028776e-38
1.183085 0.085103 0.313999 2.341805152028776e-38
1.181557 0.079110 0.313512 2.341805152028776e-38
1.184822 0.073436 0.314304 2.341805152028776e-38
1.185164 0.067567 0.314334 2.341805152028776e-38
1.184511 0.061647 0.314105 2.341805152028776e-38
1.183830 0.055735 0.313874 2.341805152028776e-38
1.184085 0.049871 0.313896 2.341805152028776e-38
1.184313 0.044007 0.313916 2.341805152028776e-38
1.185478 0.038172 0.314189 2.341805152028776e-38
1.185648 0.032301 0.314204 2.341805152028776e-38
1.185790 0.026429 0.314216 2.341805152028776e-38
1.186871 0.020574 0.314482 2.341805152028776e-38
1.185989 0.014684 0.314233 2.341805152028776e-38
1.186046 0.008810 0.314238 2.341805152028776e-38
1.187041 0.002939 0.314497 2.341805152028776e-38
1.188975 -0.002944 0.315009 2.341805152028776e-38
1.190879 -0.008846 0.315519 2.341805152028776e-38
1.189856 -0.014732 0.315258 2.341805152028776e-38
1.187837 -0.020590 0.314738 2.341805152028776e-38
1.186757 -0.026451 0.314472 2.341805152028776e-38
1.185648 -0.032301 0.314204 2.341805152028776e-38
1.187410 -0.038235 0.314701 2.341805152028776e-38
1.190109 -0.044222 0.315452 2.341805152028776e-38
1.189880 -0.050115 0.315432 2.341805152028776e-38
1.186727 -0.055871 0.314642 2.341805152028776e-38
1.185477 -0.061697 0.314361 2.341805152028776e-38
1.185164 -0.067567 0.314334 2.341805152028776e-38
1.184822 -0.073436 0.314304 2.341805152028776e-38
1.186380 -0.079433 0.314791 2.341805152028776e-38
1.185014 -0.085241 0.314511 2.341805152028776e-38
1.183620 -0.091038 0.314229 2.341805152028776e-38
1.184125 -0.096982 0.314456 2.341805152028776e-38
1.183638 -0.102850 0.314426 2.341805152028776e-38
1.182160 -0.108627 0.314138 2.341805152028776e-38
1.184502 -0.114766 0.314871 2.341805152028776e-38
1.186814 -0.120931 0.315602 2.341805152028776e-38
1.187171 -0.126918 0.315819 2.341805152028776e-38
1.185577 -0.132696 0.315522 2.341805152028776e-38
1.185876 -0.138687 0.315735 2.341805152028776e-38
1.184226 -0.144451 0.315435 2.341805152028776e-38
1.184466 -0.150447 0.315643 2.341805152028776e-38
1.183718 -0.156322 0.315593 2.341805152028776e-38
1.185812 -0.162594 0.316319 2.341805152028776e-38
1.187864 -0.168904 0.317065 2.341805152028776e-38
1.184145 -0.174396 0.316277 2.341805152028776e-38
1.456463 -0.229352 0.389535 2.341805152028776e-38
1.186038 0.235410 0.312886 2.341805152028776e-38
1.182451 0.228534 0.311637 2.341805152028776e-38
1.176909 0.221370 0.309917 2.341805152028776e-38
1.177037 0.215318 0.309705 2.341805152028776e-38
1.179994 0.209782 0.310241 2.341805152028776e-38
1.181971 0.204059 0.310525 2.341805152028776e-38
1.180101 0.197684 0.309803 2.341805152028776e-38
1.179153 0.191490 0.309330 2.341805152028776e-38
1.180086 0.185614 0.309356 2.341805152028776e-38
1.181946 0.179880 0.309630 2.341805152028776e-38
1.183779 0.174136 0.309903 2.341805152028776e-38
1.181744 0.167846 0.309189 2.341805152028776e-38
1.181589 0.161852 0.308991 2.341805152028776e-38
1.181404 0.155865 0.308790 2.341805152028776e-38
1.182150 0.150007 0.308837 2.341805152028776e-38
1.182867 0.144145 0.308883 2.341805152028776e-38
1.183556 0.138281 0.308926 2.341805152028776e-38
1.181329 0.132092 0.308215 2.341805152028776e-38
1.182922 0.126340 0.308505 2.341805152028776e-38
1.184487 0.120576 0.308793 2.341805152028776e-38
1.185060 0.114707 0.308828 2.341805152028776e-38
1.184641 0.108748 0.308610 2.341805152028776e-38
1.183228 0.102713 0.308138 2.341805152028776e-38
1.183715 0.096853 0.308168 2.341805152028776e-38
1.184170 0.090994 0.308205 2.341805152028776e-38
1.183631 0.085064 0.307990 2.341805152028776e-38
1.184994 0.079271 0.308275 2.341805152028776e-38
1.185364 0.073406 0.308307 2.341805152028776e-38
1.185705 0.067540 0.308336 2.341805152028776e-38
1.186984 0.061723 0.308614 2.341805152028776e-38
1.187269 0.055849 0.308638 2.341805152028776e-38
1.186558 0.049933 0.308408 2.341805152028776e-38
1.188720 0.044133 0.308930 2.341805152028776e-38
1.187952 0.038219 0.308696 2.341805152028776e-38
1.188123 0.032341 0.308710 2.341805152028776e-38
1.188265 0.026462 0.308723 2.341805152028776e-38
1.189347 0.020599 0.308984 2.341805152028776e-38
1.187497 0.014690 0.308488 2.341805152028776e-38
1.187554 0.008814 0.308493 2.341805152028776e-38
1.189518 0.002943 0.308998 2.341805152028776e-38
1.189518 -0.002943 0.308998 2.341805152028776e-38
1.190457 -0.008836 0.309247 2.341805152028776e-38
1.189432 -0.014714 0.308991 2.341805152028776e-38
1.187411 -0.020565 0.308481 2.341805152028776e-38
1.189233 -0.026483 0.308974 2.341805152028776e-38
1.186188 -0.032288 0.308208 2.341805152028776e-38
1.186985 -0.038188 0.308445 2.341805152028776e-38
1.189687 -0.044169 0.309182 2.341805152028776e-38
1.189459 -0.050055 0.309162 2.341805152028776e-38
1.187269 -0.055849 0.308638 2.341805152028776e-38
1.185051 -0.061622 0.308111 2.341805152028776e-38
1.184739 -0.067485 0.308084 2.341805152028776e-38
1.187296 -0.073526 0.308809 2.341805152028776e-38
1.186926 -0.079400 0.308778 2.341805152028776e-38
1.187493 -0.085341 0.308995 2.341805152028776e-38
1.188030 -0.091290 0.309210 2.341805152028776e-38
1.187574 -0.097168 0.309172 2.341805152028776e-38
1.184193 -0.102797 0.308390 2.341805152028776e-38
1.183677 -0.108660 0.308359 2.341805152028776e-38
1.184097 -0.114614 0.308577 2.341805152028776e-38
1.186413 -0.120772 0.309295 2.341805152028776e-38
1.186772 -0.126751 0.309509 2.341805152028776e-38
1.186139 -0.132630 0.309470 2.341805152028776e-38
1.184517 -0.138394 0.309177 2.341805152028776e-38
1.184789 -0.144380 0.309385 2.341805152028776e-38
1.185031 -0.150372 0.309590 2.341805152028776e-38
1.188122 -0.156752 0.310546 2.341805152028776e-38
1.187344 -0.162640 0.310495 2.341805152028776e-38
1.189412 -0.168935 0.311195 2.341805152028776e-38
1.187610 -0.174699 0.310906 2.341805152028776e-38
1.187590 0.235418 0.306937 2.341805152028776e-38
1.183980 0.228569 0.305749 2.341805152028776e-38
1.180333 0.221765 0.304557 2.341805152028776e-38
1.180462 0.215702 0.304347 2.341805152028776e-38
1.181514 0.209815 0.304379 2.341805152028776e-38
1.182537 0.203925 0.304409 2.341805152028776e-38
1.181619 0.197712 0.303945 2.341805152028776e-38
1.180669 0.191516 0.303479 2.341805152028776e-38
1.182559 0.185787 0.303748 2.341805152028776e-38
1.183460 0.179908 0.303779 2.341805152028776e-38
1.183364 0.173900 0.303588 2.341805152028776e-38
1.183237 0.167898 0.303395 2.341805152028776e-38
1.182121 0.161771 0.302953 2.341805152028776e-38
1.182896 0.155913 0.303001 2.341805152028776e-38
1.183642 0.150053 0.303047 2.341805152028776e-38
1.183397 0.144072 0.302845 2.341805152028776e-38
1.183122 0.138098 0.302641 2.341805152028776e-38
1.183782 0.132239 0.302680 2.341805152028776e-38
1.184412 0.126377 0.302718 2.341805152028776e-38
1.185978 0.120612 0.303000 2.341805152028776e-38
1.185587 0.114648 0.302787 2.341805152028776e-38
1.185164 0.108695 0.302583 2.341805152028776e-38
1.185676 0.102834 0.302626 2.341805152028776e-38
1.186159 0.096971 0.302666 2.341805152028776e-38
1.185648 0.091031 0.302458 2.341805152028776e-38
1.186075 0.085168 0.302493 2.341805152028776e-38
1.184539 0.079174 0.302034 2.341805152028776e-38
1.184908 0.073317 0.302064 2.341805152028776e-38
1.187184 0.067568 0.302586 2.341805152028776e-38
1.188464 0.061748 0.302859 2.341805152028776e-38
1.188749 0.055872 0.302883 2.341805152028776e-38
1.189974 0.050035 0.303151 2.341805152028776e-38
1.190202 0.044151 0.303170 2.341805152028776e-38
1.189433 0.038235 0.302940 2.341805152028776e-38
1.189603 0.032354 0.302954 2.341805152028776e-38
1.189746 0.026473 0.302966 2.341805152028776e-38
1.189860 0.020591 0.302975 2.341805152028776e-38
1.188976 0.014696 0.302736 2.341805152028776e-38
1.188064 0.008810 0.302494 2.341805152028776e-38
1.191000 0.002944 0.303236 2.341805152028776e-38
1.191000 -0.002944 0.303236 2.341805152028776e-38
1.189033 -0.008818 0.302740 2.341805152028776e-38
1.189945 -0.014708 0.302982 2.341805152028776e-38
1.189860 -0.020591 0.302975 2.341805152028776e-38
1.188777 -0.026451 0.302719 2.341805152028776e-38
1.186697 -0.032275 0.302214 2.341805152028776e-38
1.189433 -0.038235 0.302940 2.341805152028776e-38
1.189233 -0.044115 0.302923 2.341805152028776e-38
1.188037 -0.049953 0.302657 2.341805152028776e-38
1.188749 -0.055872 0.302883 2.341805152028776e-38
1.185561 -0.061597 0.302119 2.341805152028776e-38
1.187184 -0.067568 0.302586 2.341805152028776e-38
1.188777 -0.073556 0.303051 2.341805152028776e-38
1.189374 -0.079497 0.303266 2.341805152028776e-38
1.188975 -0.085376 0.303233 2.341805152028776e-38
1.188547 -0.091254 0.303197 2.341805152028776e-38
1.187125 -0.097050 0.302913 2.341805152028776e-38
1.186641 -0.102918 0.302872 2.341805152028776e-38
1.186129 -0.108783 0.302830 2.341805152028776e-38
1.187517 -0.114834 0.303280 2.341805152028776e-38
1.187907 -0.120808 0.303492 2.341805152028776e-38
1.188267 -0.126789 0.303703 2.341805152028776e-38
1.186671 -0.132562 0.303419 2.341805152028776e-38
1.188898 -0.138772 0.304118 2.341805152028776e-38
1.188207 -0.144658 0.304076 2.341805152028776e-38
1.187488 -0.150540 0.304032 2.341805152028776e-38
1.186739 -0.156420 0.303986 2.341805152028776e-38
1.186923 -0.162428 0.304184 2.341805152028776e-38
1.191874 -0.169124 0.305609 2.341805152028776e-38
1.185281 -0.174182 0.304080 2.341805152028776e-38
1.188141 0.235270 0.300788 2.341805152028776e-38
1.185478 0.228607 0.299861 2.341805152028776e-38
1.181825 0.221800 0.298691 2.341805152028776e-38
1.180998 0.215560 0.298241 2.341805152028776e-38
1.182049 0.209675 0.298270 2.341805152028776e-38
1.184028 0.203952 0.298538 2.341805152028776e-38
1.182150 0.197577 0.297840 2.341805152028776e-38
1.180239 0.191228 0.297139 2.341805152028776e-38
1.179241 0.185077 0.296710 2.341805152028776e-38
1.178210 0.178943 0.296283 2.341805152028776e-38
1.180989 0.173389 0.296819 2.341805152028776e-38
1.182781 0.167676 0.297111 2.341805152028776e-38
1.183584 0.161819 0.297159 2.341805152028776e-38
1.183397 0.155833 0.296965 2.341805152028776e-38
1.183180 0.149853 0.296767 2.341805152028776e-38
1.183896 0.143997 0.296810 2.341805152028776e-38
1.184584 0.138138 0.296850 2.341805152028776e-38
1.184279 0.132169 0.296646 2.341805152028776e-38
1.182978 0.126107 0.296204 2.341805152028776e-38
1.183574 0.120261 0.296252 2.341805152028776e-38
1.185108 0.114506 0.296541 2.341805152028776e-38
1.187581 0.108827 0.297068 2.341805152028776e-38
1.187127 0.102875 0.296869 2.341805152028776e-38
1.185676 0.096852 0.296425 2.341805152028776e-38
1.188066 0.091142 0.296945 2.341805152028776e-38
1.186557 0.085133 0.296497 2.341805152028776e-38
1.186955 0.079270 0.296529 2.341805152028776e-38
1.188293 0.073466 0.296801 2.341805152028776e-38
1.188635 0.067595 0.296829 2.341805152028776e-38
1.189917 0.061773 0.297097 2.341805152028776e-38
1.190201 0.055894 0.297120 2.341805152028776e-38
1.187549 0.049892 0.296415 2.341805152028776e-38
1.184868 0.043917 0.295708 2.341805152028776e-38
1.186036 0.038095 0.295966 2.341805152028776e-38
1.188146 0.032288 0.296464 2.341805152028776e-38
1.190228 0.026462 0.296960 2.341805152028776e-38
1.189372 0.020565 0.296727 2.341805152028776e-38
1.190428 0.014702 0.296976 2.341805152028776e-38
1.192425 0.008836 0.297465 2.341805152028776e-38
1.193424 0.002948 0.297709 2.341805152028776e-38
1.192454 -0.002945 0.297467 2.341805152028776e-38
1.191455 -0.008828 0.297223 2.341805152028776e-38
1.190428 -0.014702 0.296976 2.341805152028776e-38
1.188402 -0.020548 0.296485 2.341805152028776e-38
1.189258 -0.026440 0.296718 2.341805152028776e-38
1.188146 -0.032288 0.296464 2.341805152028776e-38
1.186036 -0.038095 0.295966 2.341805152028776e-38
1.185838 -0.043953 0.295950 2.341805152028776e-38
1.189488 -0.049973 0.296899 2.341805152028776e-38
1.189232 -0.055848 0.296878 2.341805152028776e-38
1.189917 -0.061773 0.297097 2.341805152028776e-38
1.188635 -0.067595 0.296829 2.341805152028776e-38
1.189262 -0.073526 0.297043 2.341805152028776e-38
1.188892 -0.079400 0.297013 2.341805152028776e-38
1.186557 -0.085133 0.296497 2.341805152028776e-38
1.188066 -0.091142 0.296945 2.341805152028776e-38
1.188578 -0.097089 0.297150 2.341805152028776e-38
1.189060 -0.103043 0.297352 2.341805152028776e-38
1.188547 -0.108916 0.297310 2.341805152028776e-38
1.188006 -0.114786 0.297266 2.341805152028776e-38
1.188401 -0.120751 0.297461 2.341805152028776e-38
1.189732 -0.126827 0.297895 2.341805152028776e-38
1.188136 -0.132600 0.297613 2.341805152028776e-38
1.186512 -0.138363 0.297333 2.341805152028776e-38
1.186786 -0.144348 0.297534 2.341805152028776e-38
1.187031 -0.150341 0.297733 2.341805152028776e-38
1.186283 -0.156213 0.297689 2.341805152028776e-38
1.187430 -0.162345 0.298125 2.341805152028776e-38
1.189507 -0.168630 0.298800 2.341805152028776e-38
1.184830 -0.173953 0.297784 2.341805152028776e-38
1.186754 0.234741 0.294170 2.341805152028776e-38
1.185038 0.228274 0.293495 2.341805152028776e-38
1.180422 0.221295 0.292109 2.341805152028776e-38
1.181502 0.215415 0.292138 2.341805152028776e-38
1.182553 0.209532 0.292165 2.341805152028776e-38
1.184532 0.203812 0.292426 2.341805152028776e-38
1.184562 0.197770 0.292227 2.341805152028776e-38
1.182634 0.191439 0.291576 2.341805152028776e-38
1.181634 0.185283 0.291158 2.341805152028776e-38
1.181562 0.179288 0.290975 2.341805152028776e-38
1.181461 0.173299 0.290790 2.341805152028776e-38
1.184216 0.167725 0.291312 2.341805152028776e-38
1.183094 0.161603 0.290886 2.341805152028776e-38
1.184831 0.155877 0.291167 2.341805152028776e-38
1.182685 0.149651 0.290500 2.341805152028776e-38
1.184365 0.143920 0.290777 2.341805152028776e-38
1.185050 0.138068 0.290823 2.341805152028776e-38
1.183773 0.132001 0.290402 2.341805152028776e-38
1.182466 0.125950 0.289978 2.341805152028776e-38
1.184994 0.120308 0.290500 2.341805152028776e-38
1.188464 0.114737 0.291257 2.341805152028776e-38
1.187070 0.108693 0.290826 2.341805152028776e-38
1.186614 0.102748 0.290630 2.341805152028776e-38
1.188066 0.096969 0.290906 2.341805152028776e-38
1.188521 0.091103 0.290942 2.341805152028776e-38
1.188948 0.085236 0.290977 2.341805152028776e-38
1.189346 0.079366 0.291009 2.341805152028776e-38
1.188746 0.073435 0.290801 2.341805152028776e-38
1.190058 0.067621 0.291066 2.341805152028776e-38
1.191341 0.061797 0.291328 2.341805152028776e-38
1.189685 0.055825 0.290876 2.341805152028776e-38
1.185088 0.049748 0.289710 2.341805152028776e-38
1.182402 0.043790 0.289017 2.341805152028776e-38
1.185513 0.038047 0.289745 2.341805152028776e-38
1.190539 0.032327 0.290945 2.341805152028776e-38
1.190681 0.026451 0.290956 2.341805152028776e-38
1.193709 0.020624 0.291677 2.341805152028776e-38
1.193794 0.014732 0.291684 2.341805152028776e-38
1.193851 0.008839 0.291689 2.341805152028776e-38
1.193880 0.002946 0.291691 2.341805152028776e-38
1.192908 -0.002944 0.291454 2.341805152028776e-38
1.192880 -0.008832 0.291451 2.341805152028776e-38
1.193794 -0.014732 0.291684 2.341805152028776e-38
1.193709 -0.020624 0.291677 2.341805152028776e-38
1.192623 -0.026494 0.291431 2.341805152028776e-38
1.190539 -0.032327 0.290945 2.341805152028776e-38
1.191339 -0.038234 0.291168 2.341805152028776e-38
1.192110 -0.044150 0.291390 2.341805152028776e-38
1.192853 -0.050074 0.291609 2.341805152028776e-38
1.191626 -0.055916 0.291351 2.341805152028776e-38
1.189401 -0.061696 0.290854 2.341805152028776e-38
1.188118 -0.067511 0.290591 2.341805152028776e-38
1.188746 -0.073435 0.290801 2.341805152028776e-38
1.188377 -0.079301 0.290771 2.341805152028776e-38
1.187010 -0.085097 0.290502 2.341805152028776e-38
1.188521 -0.091103 0.290942 2.341805152028776e-38
1.190970 -0.097206 0.291617 2.341805152028776e-38
1.190486 -0.103083 0.291578 2.341805152028776e-38
1.191907 -0.109135 0.292011 2.341805152028776e-38
1.191365 -0.115018 0.291968 2.341805152028776e-38
1.192727 -0.121093 0.292396 2.341805152028776e-38
1.188262 -0.126568 0.291400 2.341805152028776e-38
1.185704 -0.132216 0.290876 2.341805152028776e-38
1.186980 -0.138292 0.291297 2.341805152028776e-38
1.187258 -0.144272 0.291487 2.341805152028776e-38
1.187504 -0.150261 0.291684 2.341805152028776e-38
1.187721 -0.156258 0.291877 2.341805152028776e-38
1.187907 -0.162261 0.292069 2.341805152028776e-38
1.189988 -0.168543 0.292732 2.341805152028776e-38
1.186267 -0.174004 0.291973 2.341805152028776e-38
1.187240 0.234587 0.288038 2.341805152028776e-38
1.183609 0.227754 0.286911 2.341805152028776e-38
1.180896 0.221145 0.286014 2.341805152028776e-38
1.182933 0.215442 0.286272 2.341805152028776e-38
1.184941 0.209726 0.286527 2.341805152028776e-38
1.186911 0.204021 0.286813 2.341805152028776e-38
1.185972 0.197828 0.286408 2.341805152028776e-38
1.185962 0.191805 0.286232 2.341805152028776e-38
1.185922 0.185788 0.286054 2.341805152028776e-38
1.185852 0.179777 0.285874 2.341805152028776e-38
1.185752 0.173771 0.285692 2.341805152028776e-38
1.185622 0.167772 0.285507 2.341805152028776e-38
1.186426 0.161911 0.285553 2.341805152028776e-38
1.185272 0.155794 0.285132 2.341805152028776e-38
1.186015 0.149940 0.285180 2.341805152028776e-38
1.185761 0.143971 0.285004 2.341805152028776e-38
1.188376 0.138346 0.285522 2.341805152028776e-38
1.187098 0.132267 0.285109 2.341805152028776e-38
1.186757 0.126307 0.284926 2.341805152028776e-38
1.190258 0.120747 0.285670 2.341805152028776e-38
1.190828 0.114875 0.285715 2.341805152028776e-38
1.188464 0.108734 0.285060 2.341805152028776e-38
1.188976 0.102871 0.285101 2.341805152028776e-38
1.187521 0.096848 0.284674 2.341805152028776e-38
1.188946 0.091064 0.284942 2.341805152028776e-38
1.189372 0.085199 0.284975 2.341805152028776e-38
1.188800 0.079267 0.284774 2.341805152028776e-38
1.190140 0.073463 0.285036 2.341805152028776e-38
1.191453 0.067647 0.285295 2.341805152028776e-38
1.192737 0.061821 0.285552 2.341805152028776e-38
1.192051 0.055892 0.285342 2.341805152028776e-38
1.189392 0.049890 0.284665 2.341805152028776e-38
1.188647 0.043987 0.284450 2.341805152028776e-38
1.191762 0.038218 0.285163 2.341805152028776e-38
1.193877 0.032392 0.285642 2.341805152028776e-38
1.194020 0.026504 0.285653 2.341805152028776e-38
1.196079 0.020648 0.286127 2.341805152028776e-38
1.195192 0.014737 0.285901 2.341805152028776e-38
1.194277 0.008835 0.285673 2.341805152028776e-38
1.194305 0.002945 0.285675 2.341805152028776e-38
1.194305 -0.002945 0.285675 2.341805152028776e-38
1.195249 -0.008842 0.285906 2.341805152028776e-38
1.194220 -0.014725 0.285669 2.341805152028776e-38
1.195107 -0.020632 0.285895 2.341805152028776e-38
1.195965 -0.026547 0.286118 2.341805152028776e-38
1.196794 -0.032472 0.286340 2.341805152028776e-38
1.196623 -0.038374 0.286326 2.341805152028776e-38
1.196423 -0.044275 0.286310 2.341805152028776e-38
1.194251 -0.050093 0.285827 2.341805152028776e-38
1.193022 -0.055937 0.285575 2.341805152028776e-38
1.191766 -0.061770 0.285320 2.341805152028776e-38
1.190482 -0.067592 0.285063 2.341805152028776e-38
1.192082 -0.073583 0.285501 2.341805152028776e-38
1.190741 -0.079396 0.285239 2.341805152028776e-38
1.191312 -0.085338 0.285440 2.341805152028776e-38
1.192825 -0.091361 0.285872 2.341805152028776e-38
1.190429 -0.097085 0.285371 2.341805152028776e-38
1.190914 -0.103039 0.285565 2.341805152028776e-38
1.187495 -0.108646 0.284828 2.341805152028776e-38
1.187923 -0.114595 0.285018 2.341805152028776e-38
1.190258 -0.120747 0.285670 2.341805152028776e-38
1.189659 -0.126616 0.285623 2.341805152028776e-38
1.189032 -0.132483 0.285573 2.341805152028776e-38
1.188376 -0.138346 0.285522 2.341805152028776e-38
1.189623 -0.144440 0.285932 2.341805152028776e-38
1.190840 -0.150550 0.286340 2.341805152028776e-38
1.191058 -0.156554 0.286524 2.341805152028776e-38
1.190281 -0.162437 0.286480 2.341805152028776e-38
1.192364 -0.168726 0.287131 2.341805152028776e-38
1.186714 -0.173912 0.285924 2.341805152028776e-38
1.184828 0.233864 0.281229 2.341805152028776e-38
1.185970 0.227967 0.281258 2.341805152028776e-38
1.182296 0.221171 0.280150 2.341805152028776e-38
1.185290 0.215644 0.280633 2.341805152028776e-38
1.187286 0.209952 0.280921 2.341805152028776e-38
1.188295 0.204080 0.280980 2.341805152028776e-38
1.187355 0.197884 0.280582 2.341805152028776e-38
1.187344 0.191859 0.280410 2.341805152028776e-38
1.186341 0.185689 0.280008 2.341805152028776e-38
1.186269 0.179680 0.279830 2.341805152028776e-38
1.185204 0.173537 0.279424 2.341805152028776e-38
1.187964 0.167954 0.279923 2.341805152028776e-38
1.188767 0.162088 0.279971 2.341805152028776e-38
1.187607 0.155974 0.279576 2.341805152028776e-38
1.187381 0.149997 0.279405 2.341805152028776e-38
1.190027 0.144377 0.279915 2.341805152028776e-38
1.189744 0.138398 0.279740 2.341805152028776e-38
1.188464 0.132317 0.279336 2.341805152028776e-38
1.189091 0.126458 0.279384 2.341805152028776e-38
1.187751 0.120400 0.278975 2.341805152028776e-38
1.189289 0.114638 0.279246 2.341805152028776e-38
1.189830 0.108775 0.279288 2.341805152028776e-38
1.187432 0.102658 0.278644 2.341805152028776e-38
1.188885 0.096884 0.278909 2.341805152028776e-38
1.191282 0.091173 0.279400 2.341805152028776e-38
1.191709 0.085300 0.279432 2.341805152028776e-38
1.190165 0.079297 0.279008 2.341805152028776e-38
1.192478 0.073550 0.279492 2.341805152028776e-38
1.193792 0.067728 0.279746 2.341805152028776e-38
1.194106 0.061844 0.279770 2.341805152028776e-38
1.194391 0.055958 0.279792 2.341805152028776e-38
1.192702 0.049990 0.279356 2.341805152028776e-38
1.191956 0.044076 0.279145 2.341805152028776e-38
1.194102 0.038263 0.279617 2.341805152028776e-38
1.195246 0.032405 0.279858 2.341805152028776e-38
1.195389 0.026514 0.279869 2.341805152028776e-38
1.196476 0.020639 0.280105 2.341805152028776e-38
1.197536 0.014755 0.280340 2.341805152028776e-38
1.195646 0.008839 0.279888 2.341805152028776e-38
1.194700 0.002944 0.279663 2.341805152028776e-38
1.193727 -0.002941 0.279435 2.341805152028776e-38
1.193698 -0.008824 0.279433 2.341805152028776e-38
1.195589 -0.014731 0.279884 2.341805152028776e-38
1.196476 -0.020639 0.280105 2.341805152028776e-38
1.197336 -0.026557 0.280324 2.341805152028776e-38
1.199140 -0.032510 0.280769 2.341805152028776e-38
1.196048 -0.038326 0.280072 2.341805152028776e-38
1.194875 -0.044184 0.279829 2.341805152028776e-38
1.195620 -0.050112 0.280039 2.341805152028776e-38
1.194391 -0.055958 0.279792 2.341805152028776e-38
1.192161 -0.061743 0.279314 2.341805152028776e-38
1.193792 -0.067728 0.279746 2.341805152028776e-38
1.194422 -0.073670 0.279947 2.341805152028776e-38
1.194051 -0.079556 0.279919 2.341805152028776e-38
1.192680 -0.085370 0.279660 2.341805152028776e-38
1.190311 -0.091098 0.279172 2.341805152028776e-38
1.190826 -0.097042 0.279365 2.341805152028776e-38
1.186462 -0.102575 0.278417 2.341805152028776e-38
1.180133 -0.107889 0.277012 2.341805152028776e-38
1.183474 -0.114077 0.277881 2.341805152028776e-38
1.188720 -0.120498 0.279202 2.341805152028776e-38
1.192964 -0.126870 0.280294 2.341805152028776e-38
1.192336 -0.132748 0.280246 2.341805152028776e-38
1.192646 -0.138735 0.280423 2.341805152028776e-38
1.191960 -0.144612 0.280370 2.341805152028776e-38
1.191246 -0.150485 0.280315 2.341805152028776e-38
1.190503 -0.156354 0.280258 2.341805152028776e-38
1.192627 -0.162615 0.280880 2.341805152028776e-38
1.193750 -0.168772 0.281287 2.341805152028776e-38
1.186167 -0.173678 0.279651 2.341805152028776e-38
1.252708 -0.189744 0.295503 2.341805152028776e-38
1.185248 0.233704 0.275120 2.341805152028776e-38
1.185431 0.227625 0.274924 2.341805152028776e-38
1.183661 0.221208 0.274297 2.341805152028776e-38
1.185684 0.215531 0.274581 2.341805152028776e-38
1.188641 0.210010 0.275084 2.341805152028776e-38
1.187729 0.203807 0.274696 2.341805152028776e-38
1.188709 0.197939 0.274751 2.341805152028776e-38
1.187734 0.191756 0.274359 2.341805152028776e-38
1.187692 0.185739 0.274186 2.341805152028776e-38
1.187619 0.179728 0.274012 2.341805152028776e-38
1.188481 0.173865 0.274058 2.341805152028776e-38
1.188344 0.167871 0.273895 2.341805152028776e-38
1.187211 0.161753 0.273510 2.341805152028776e-38
1.187979 0.155904 0.273568 2.341805152028776e-38
1.189687 0.150174 0.273847 2.341805152028776e-38
1.189432 0.144196 0.273678 2.341805152028776e-38
1.190116 0.138336 0.273729 2.341805152028776e-38
1.189803 0.132366 0.273556 2.341805152028776e-38
1.188491 0.126299 0.273157 2.341805152028776e-38
1.190058 0.120542 0.273425 2.341805152028776e-38
1.190627 0.114680 0.273468 2.341805152028776e-38
1.189226 0.108638 0.273063 2.341805152028776e-38
1.188767 0.102696 0.272879 2.341805152028776e-38
1.187307 0.096683 0.272469 2.341805152028776e-38
1.187760 0.090834 0.272503 2.341805152028776e-38
1.189158 0.085054 0.272758 2.341805152028776e-38
1.190529 0.079261 0.273011 2.341805152028776e-38
1.192844 0.073518 0.273485 2.341805152028776e-38
1.195132 0.067753 0.273957 2.341805152028776e-38
1.194472 0.061816 0.273758 2.341805152028776e-38
1.194757 0.055933 0.273779 2.341805152028776e-38
1.193066 0.049968 0.273352 2.341805152028776e-38
1.193294 0.044092 0.273369 2.341805152028776e-38
1.194467 0.038246 0.273608 2.341805152028776e-38
1.194638 0.032364 0.273620 2.341805152028776e-38
1.194781 0.026480 0.273631 2.341805152028776e-38
1.195869 0.020613 0.273863 2.341805152028776e-38
1.196929 0.014736 0.274093 2.341805152028776e-38
1.194062 0.008820 0.273427 2.341805152028776e-38
1.194091 0.002940 0.273429 2.341805152028776e-38
1.195065 -0.002943 0.273653 2.341805152028776e-38
1.194062 -0.008820 0.273427 2.341805152028776e-38
1.194005 -0.014700 0.273423 2.341805152028776e-38
1.195869 -0.020613 0.273863 2.341805152028776e-38
1.195755 -0.026502 0.273854 2.341805152028776e-38
1.196587 -0.032417 0.274067 2.341805152028776e-38
1.195442 -0.038277 0.273831 2.341805152028776e-38
1.195242 -0.044164 0.273816 2.341805152028776e-38
1.195988 -0.050090 0.274022 2.341805152028776e-38
1.195731 -0.055979 0.274002 2.341805152028776e-38
1.195446 -0.061867 0.273981 2.341805152028776e-38
1.193186 -0.067643 0.273511 2.341805152028776e-38
1.194790 -0.073638 0.273932 2.341805152028776e-38
1.194419 -0.079520 0.273904 2.341805152028776e-38
1.193048 -0.085332 0.273651 2.341805152028776e-38
1.190676 -0.091057 0.273172 2.341805152028776e-38
1.191193 -0.096999 0.273361 2.341805152028776e-38
