VERSION .7
FIELDS x y z rgb
SIZE 4 4 4 4
TYPE F F F F
COUNT 1 1 1 1
WIDTH 957
HEIGHT 1
VIEWPOINT 0 0 0 1 0 0 0
POINTS 957
DATA ascii
1.829628 0.276886 -0.422138 2.341805152028776e-38
1.829991 0.267712 -0.421986 2.341805152028776e-38
1.832232 0.258830 -0.422301 2.341805152028776e-38
1.833463 0.249803 -0.422394 2.341805152028776e-38
1.833683 0.240643 -0.422261 2.341805152028776e-38
1.833859 0.231488 -0.422125 2.341805152028776e-38
1.837862 0.222805 -0.422875 2.341805152028776e-38
1.837950 0.213639 -0.422732 2.341805152028776e-38
1.837993 0.204477 -0.422586 2.341805152028776e-38
1.836053 0.195114 -0.421990 2.341805152028776e-38
1.835036 0.185873 -0.421614 2.341805152028776e-38
1.835914 0.176834 -0.421680 2.341805152028776e-38
1.839660 0.168056 -0.422412 2.341805152028776e-38
1.838510 0.158827 -0.422026 2.341805152028776e-38
1.842171 0.150008 -0.422751 2.341805152028776e-38
1.840932 0.140786 -0.422358 2.341805152028776e-38
1.842564 0.131788 -0.422631 2.341805152028776e-38
1.844152 0.122777 -0.422900 2.341805152028776e-38
1.844725 0.113694 -0.422943 2.341805152028776e-38
1.845253 0.104609 -0.422983 2.341805152028776e-38
1.848658 0.095672 -0.423689 2.341805152028776e-38
1.848125 0.086521 -0.423499 2.341805152028776e-38
1.847548 0.077378 -0.423306 2.341805152028776e-38
1.847901 0.068279 -0.423332 2.341805152028776e-38
1.850158 0.059241 -0.423802 2.341805152028776e-38
1.850423 0.050129 -0.423822 2.341805152028776e-38
1.850643 0.041017 -0.423838 2.341805152028776e-38
1.951206 0.033633 -0.446841 2.341805152028776e-38
2.015676 0.024816 -0.461583 2.341805152028776e-38
2.029034 0.747047 -0.503329 2.341805152028776e-38
1.865333 0.675732 -0.461832 2.341805152028776e-38
1.801864 0.642121 -0.445266 2.341805152028776e-38
1.784974 0.625626 -0.440255 2.341805152028776e-38
1.781773 0.614092 -0.438637 2.341805152028776e-38
1.779422 0.602927 -0.437237 2.341805152028776e-38
1.780700 0.593041 -0.436736 2.341805152028776e-38
1.780962 0.582932 -0.436052 2.341805152028776e-38
1.778380 0.571957 -0.434688 2.341805152028776e-38
1.777590 0.561617 -0.433770 2.341805152028776e-38
1.781392 0.552750 -0.433977 2.341805152028776e-38
1.785149 0.543864 -0.434177 2.341805152028776e-38
1.787929 0.534682 -0.434143 2.341805152028776e-38
1.790642 0.525532 -0.434135 2.341805152028776e-38
1.792355 0.516138 -0.433922 2.341805152028776e-38
1.794020 0.506747 -0.433702 2.341805152028776e-38
1.793757 0.496837 -0.433023 2.341805152028776e-38
1.795321 0.487458 -0.432790 2.341805152028776e-38
1.797777 0.478333 -0.432778 2.341805152028776e-38
1.800186 0.469202 -0.432759 2.341805152028776e-38
1.800632 0.459645 -0.432339 2.341805152028776e-38
1.801024 0.450104 -0.431918 2.341805152028776e-38
1.803259 0.441039 -0.431946 2.341805152028776e-38
1.803554 0.431515 -0.431515 2.341805152028776e-38
1.805695 0.422446 -0.431531 2.341805152028776e-38
1.807791 0.413373 -0.431543 2.341805152028776e-38
1.812693 0.404931 -0.432229 2.341805152028776e-38
1.812774 0.395468 -0.431833 2.341805152028776e-38
1.814708 0.386431 -0.431893 2.341805152028776e-38
1.815643 0.377189 -0.431723 2.341805152028776e-38
1.816532 0.367952 -0.431548 2.341805152028776e-38
1.818329 0.358906 -0.431596 2.341805152028776e-38
1.821038 0.350039 -0.431867 2.341805152028776e-38
1.820832 0.340621 -0.431453 2.341805152028776e-38
1.820574 0.331224 -0.431045 2.341805152028776e-38
1.821208 0.322050 -0.430912 2.341805152028776e-38
1.823717 0.313209 -0.431229 2.341805152028776e-38
1.826182 0.304351 -0.431543 2.341805152028776e-38
1.827644 0.295323 -0.431627 2.341805152028776e-38
1.829062 0.286290 -0.431707 2.341805152028776e-38
1.829473 0.277105 -0.431556 2.341805152028776e-38
1.827911 0.267642 -0.430948 2.341805152028776e-38
1.829195 0.258611 -0.431018 2.341805152028776e-38
1.829467 0.249448 -0.430864 2.341805152028776e-38
1.830652 0.240428 -0.430956 2.341805152028776e-38
1.832760 0.231524 -0.431271 2.341805152028776e-38
1.832893 0.222371 -0.431128 2.341805152028776e-38
1.834915 0.213448 -0.431437 2.341805152028776e-38
1.836894 0.204509 -0.431742 2.341805152028776e-38
1.833020 0.194939 -0.430679 2.341805152028776e-38
1.835880 0.186099 -0.431205 2.341805152028776e-38
1.838697 0.177236 -0.431728 2.341805152028776e-38
1.838564 0.168083 -0.431565 2.341805152028776e-38
1.837415 0.158852 -0.431170 2.341805152028776e-38
1.837192 0.149716 -0.431000 2.341805152028776e-38
1.837894 0.140660 -0.431054 2.341805152028776e-38
1.842438 0.131879 -0.432016 2.341805152028776e-38
1.845970 0.122991 -0.432747 2.341805152028776e-38
1.846543 0.113892 -0.432791 2.341805152028776e-38
1.846100 0.104736 -0.432604 2.341805152028776e-38
1.845613 0.095586 -0.432413 2.341805152028776e-38
1.846053 0.086489 -0.432447 2.341805152028776e-38
1.848396 0.077472 -0.432933 2.341805152028776e-38
1.847776 0.068326 -0.432732 2.341805152028776e-38
1.847111 0.059188 -0.432528 2.341805152028776e-38
1.847376 0.050085 -0.432549 2.341805152028776e-38
1.847596 0.040980 -0.432566 2.341805152028776e-38
1.988935 0.034309 -0.465627 2.341805152028776e-38
1.853749 0.672423 -0.469245 2.341805152028776e-38
1.797681 0.641483 -0.454189 2.341805152028776e-38
1.782649 0.625650 -0.449541 2.341805152028776e-38
1.778537 0.613807 -0.447664 2.341805152028776e-38
1.776192 0.602656 -0.446241 2.341805152028776e-38
1.777471 0.592783 -0.445736 2.341805152028776e-38
1.781464 0.583839 -0.445924 2.341805152028776e-38
1.786302 0.575243 -0.446388 2.341805152028776e-38
1.791099 0.566618 -0.446845 2.341805152028776e-38
1.788422 0.555656 -0.445443 2.341805152028776e-38
1.783818 0.544175 -0.443571 2.341805152028776e-38
1.785668 0.534716 -0.443312 2.341805152028776e-38
1.789334 0.525808 -0.443508 2.341805152028776e-38
1.791060 0.516395 -0.443277 2.341805152028776e-38
1.791791 0.506740 -0.442827 2.341805152028776e-38
1.792470 0.497097 -0.442370 2.341805152028776e-38
1.795913 0.488230 -0.442601 2.341805152028776e-38
1.802133 0.480099 -0.443520 2.341805152028776e-38
1.806434 0.471432 -0.443970 2.341805152028776e-38
1.804095 0.461054 -0.442794 2.341805152028776e-38
1.801667 0.450780 -0.441674 2.341805152028776e-38
1.802960 0.441475 -0.441475 2.341805152028776e-38
1.803259 0.431946 -0.441039 2.341805152028776e-38
1.806350 0.423095 -0.441293 2.341805152028776e-38
1.809397 0.414229 -0.441541 2.341805152028776e-38
1.811452 0.405136 -0.441553 2.341805152028776e-38
1.810610 0.395416 -0.440866 2.341805152028776e-38
1.811598 0.386167 -0.440685 2.341805152028776e-38
1.814438 0.377331 -0.440977 2.341805152028776e-38
1.816282 0.368286 -0.441034 2.341805152028776e-38
1.819035 0.359424 -0.441318 2.341805152028776e-38
1.819835 0.350179 -0.441135 2.341805152028776e-38
1.817720 0.340402 -0.440253 2.341805152028776e-38
1.817467 0.331006 -0.439830 2.341805152028776e-38
1.820997 0.322303 -0.440330 2.341805152028776e-38
1.825427 0.313778 -0.441108 2.341805152028776e-38
1.825975 0.304585 -0.440966 2.341805152028776e-38
1.828399 0.295706 -0.441284 2.341805152028776e-38
1.828857 0.286511 -0.441136 2.341805152028776e-38
1.828309 0.277174 -0.440752 2.341805152028776e-38
1.826751 0.267710 -0.440133 2.341805152028776e-38
1.827071 0.258541 -0.439974 2.341805152028776e-38
1.828310 0.249509 -0.440043 2.341805152028776e-38
1.829504 0.240472 -0.440110 2.341805152028776e-38
1.829686 0.231315 -0.439952 2.341805152028776e-38
1.829818 0.222170 -0.439807 2.341805152028776e-38
1.832804 0.213367 -0.440354 2.341805152028776e-38
1.833815 0.204325 -0.440433 2.341805152028776e-38
1.835750 0.195380 -0.440741 2.341805152028776e-38
1.837641 0.186422 -0.441046 2.341805152028776e-38
1.839490 0.177449 -0.441348 2.341805152028776e-38
1.838390 0.168197 -0.440949 2.341805152028776e-38
1.837244 0.158960 -0.440547 2.341805152028776e-38
1.837992 0.149897 -0.440605 2.341805152028776e-38
1.839665 0.140904 -0.440893 2.341805152028776e-38
1.842266 0.131968 -0.441410 2.341805152028776e-38
1.845794 0.123074 -0.442156 2.341805152028776e-38
1.847338 0.114029 -0.442433 2.341805152028776e-38
1.844955 0.104751 -0.441777 2.341805152028776e-38
1.845440 0.095651 -0.441815 2.341805152028776e-38
1.847824 0.086639 -0.442315 2.341805152028776e-38
1.847250 0.077484 -0.442114 2.341805152028776e-38
1.846631 0.068336 -0.441909 2.341805152028776e-38
1.845968 0.059197 -0.441701 2.341805152028776e-38
1.848177 0.050145 -0.442187 2.341805152028776e-38
1.849370 0.041051 -0.442437 2.341805152028776e-38
1.943871 0.033558 -0.465015 2.341805152028776e-38
1.890509 0.698031 -0.490107 2.341805152028776e-38
1.819288 0.660848 -0.470676 2.341805152028776e-38
1.792538 0.640512 -0.462852 2.341805152028776e-38
1.778443 0.625025 -0.458351 2.341805152028776e-38
1.773419 0.612882 -0.456205 2.341805152028776e-38
1.773836 0.602691 -0.455469 2.341805152028776e-38
1.775118 0.592827 -0.454960 2.341805152028776e-38
1.780038 0.584184 -0.455388 2.341805152028776e-38
1.794150 0.578523 -0.458190 2.341805152028776e-38
1.787845 0.566332 -0.455828 2.341805152028776e-38
1.786101 0.555670 -0.454639 2.341805152028776e-38
1.783366 0.544765 -0.453207 2.341805152028776e-38
1.787082 0.535862 -0.453421 2.341805152028776e-38
1.785159 0.525296 -0.452211 2.341805152028776e-38
1.787844 0.516118 -0.452174 2.341805152028776e-38
1.790451 0.506993 -0.452183 2.341805152028776e-38
1.792070 0.497611 -0.451958 2.341805152028776e-38
1.803015 0.490783 -0.454089 2.341805152028776e-38
1.816754 0.484614 -0.456922 2.341805152028776e-38
1.815435 0.474393 -0.455970 2.341805152028776e-38
1.805586 0.462036 -0.452887 2.341805152028776e-38
1.798486 0.450507 -0.450507 2.341805152028776e-38
1.799779 0.441211 -0.450308 2.341805152028776e-38
1.801024 0.431918 -0.450104 2.341805152028776e-38
1.804114 0.423073 -0.450368 2.341805152028776e-38
1.807160 0.414212 -0.450627 2.341805152028776e-38
1.807318 0.404700 -0.450172 2.341805152028776e-38
1.808376 0.395409 -0.449948 2.341805152028776e-38
1.810336 0.386325 -0.449955 2.341805152028776e-38
1.811283 0.377072 -0.449761 2.341805152028776e-38
1.812174 0.367843 -0.449586 2.341805152028776e-38
1.813017 0.358617 -0.449406 2.341805152028776e-38
1.815723 0.349763 -0.449695 2.341805152028776e-38
1.816475 0.340536 -0.449508 2.341805152028776e-38
1.817181 0.331314 -0.449316 2.341805152028776e-38
1.818797 0.322266 -0.449357 2.341805152028776e-38
1.821326 0.313379 -0.449631 2.341805152028776e-38
1.821887 0.304175 -0.449453 2.341805152028776e-38
1.825266 0.295464 -0.450015 2.341805152028776e-38
1.823805 0.285976 -0.449392 2.341805152028776e-38
1.824217 0.276803 -0.449238 2.341805152028776e-38
1.823622 0.267493 -0.448843 2.341805152028776e-38
1.822018 0.258060 -0.448209 2.341805152028776e-38
1.822292 0.248914 -0.448045 2.341805152028776e-38
1.823483 0.239899 -0.448114 2.341805152028776e-38
1.823667 0.230758 -0.447943 2.341805152028776e-38
1.826699 0.221974 -0.448479 2.341805152028776e-38
1.828721 0.213060 -0.448787 2.341805152028776e-38
1.832627 0.204354 -0.449578 2.341805152028776e-38
1.833595 0.195305 -0.449656 2.341805152028776e-38
1.836451 0.186448 -0.450204 2.341805152028776e-38
1.836365 0.177288 -0.450038 2.341805152028776e-38
1.836234 0.168132 -0.449868 2.341805152028776e-38
1.837994 0.159150 -0.450168 2.341805152028776e-38
1.836806 0.149918 -0.449754 2.341805152028776e-38
1.835572 0.140701 -0.449336 2.341805152028776e-38
1.837200 0.131709 -0.449626 2.341805152028776e-38
1.840724 0.122833 -0.450387 2.341805152028776e-38
1.842266 0.113806 -0.450670 2.341805152028776e-38
1.841825 0.104656 -0.450476 2.341805152028776e-38
1.844250 0.095664 -0.450989 2.341805152028776e-38
1.843721 0.086515 -0.450787 2.341805152028776e-38
1.843147 0.077373 -0.450582 2.341805152028776e-38
1.843499 0.068274 -0.450610 2.341805152028776e-38
1.843808 0.059174 -0.450635 2.341805152028776e-38
1.843101 0.050047 -0.450419 2.341805152028776e-38
1.844293 0.040970 -0.450674 2.341805152028776e-38
1.993076 0.034434 -0.486999 2.341805152028776e-38
1.833187 0.666875 -0.484564 2.341805152028776e-38
1.791003 0.640854 -0.472454 2.341805152028776e-38
1.773277 0.624071 -0.466897 2.341805152028776e-38
1.771011 0.612903 -0.465437 2.341805152028776e-38
1.769595 0.602095 -0.464210 2.341805152028776e-38
1.771796 0.592556 -0.463939 2.341805152028776e-38
1.776712 0.583927 -0.464383 2.341805152028776e-38
1.787128 0.577059 -0.466264 2.341805152028776e-38
1.781771 0.565159 -0.464073 2.341805152028776e-38
1.783734 0.555679 -0.463831 2.341805152028776e-38
1.783791 0.545632 -0.463099 2.341805152028776e-38
1.782862 0.535326 -0.462119 2.341805152028776e-38
1.781874 0.525051 -0.461132 2.341805152028776e-38
1.785489 0.516155 -0.461342 2.341805152028776e-38
1.785325 0.506184 -0.460582 2.341805152028776e-38
1.789748 0.497599 -0.461078 2.341805152028776e-38
1.804428 0.491799 -0.464221 2.341805152028776e-38
1.810657 0.483613 -0.465190 2.341805152028776e-38
1.802764 0.471698 -0.462539 2.341805152028776e-38
1.800439 0.461327 -0.461327 2.341805152028776e-38
1.799937 0.451470 -0.460591 2.341805152028776e-38
1.801267 0.442100 -0.460331 2.341805152028776e-38
1.801575 0.432566 -0.459885 2.341805152028776e-38
1.804667 0.423711 -0.460159 2.341805152028776e-38
1.802985 0.413756 -0.459223 2.341805152028776e-38
1.805038 0.404682 -0.459246 2.341805152028776e-38
1.808941 0.396019 -0.459746 2.341805152028776e-38
1.808057 0.386317 -0.459036 2.341805152028776e-38
1.807121 0.376640 -0.458321 2.341805152028776e-38
1.805172 0.366815 -0.457387 2.341805152028776e-38
1.807916 0.357995 -0.457689 2.341805152028776e-38
1.808712 0.348791 -0.457505 2.341805152028776e-38
1.812322 0.340129 -0.458041 2.341805152028776e-38
1.814937 0.331269 -0.458331 2.341805152028776e-38
1.815597 0.322055 -0.458135 2.341805152028776e-38
1.819080 0.313341 -0.458659 2.341805152028776e-38
1.819650 0.304124 -0.458456 2.341805152028776e-38
1.822090 0.295224 -0.458732 2.341805152028776e-38
1.820633 0.285740 -0.458092 2.341805152028776e-38
1.822964 0.276866 -0.458418 2.341805152028776e-38
1.821411 0.267414 -0.457776 2.341805152028776e-38
1.820772 0.258121 -0.457372 2.341805152028776e-38
1.822970 0.249236 -0.457688 2.341805152028776e-38
1.833784 0.241478 -0.460174 2.341805152028776e-38
1.834939 0.232400 -0.460243 2.341805152028776e-38
1.828344 0.222381 -0.458377 2.341805152028776e-38
1.827479 0.213108 -0.457955 2.341805152028776e-38
1.832353 0.204496 -0.458981 2.341805152028776e-38
1.832361 0.195331 -0.458802 2.341805152028776e-38
1.835216 0.186473 -0.459360 2.341805152028776e-38
1.834165 0.177218 -0.458949 2.341805152028776e-38
1.836933 0.168332 -0.459501 2.341805152028776e-38
1.836760 0.159172 -0.459324 2.341805152028776e-38
1.834607 0.149859 -0.458660 2.341805152028776e-38
1.835310 0.140795 -0.458718 2.341805152028776e-38
1.839841 0.132004 -0.459739 2.341805152028776e-38
1.841426 0.122979 -0.460031 2.341805152028776e-38
1.840063 0.113761 -0.459595 2.341805152028776e-38
1.840592 0.104670 -0.459638 2.341805152028776e-38
1.842045 0.095627 -0.459919 2.341805152028776e-38
1.840548 0.086435 -0.459472 2.341805152028776e-38
1.840944 0.077342 -0.459504 2.341805152028776e-38
1.840327 0.068212 -0.459291 2.341805152028776e-38
1.841605 0.059151 -0.459558 2.341805152028776e-38
1.840899 0.050027 -0.459338 2.341805152028776e-38
1.845000 0.041019 -0.460324 2.341805152028776e-38
1.858829 0.677211 -0.501818 2.341805152028776e-38
1.787565 0.640584 -0.481607 2.341805152028776e-38
1.770813 0.624077 -0.476148 2.341805152028776e-38
1.768555 0.612917 -0.474665 2.341805152028776e-38
1.768063 0.602430 -0.473666 2.341805152028776e-38
1.772106 0.593511 -0.473888 2.341805152028776e-38
1.774262 0.583966 -0.473611 2.341805152028776e-38
1.776367 0.574423 -0.473324 2.341805152028776e-38
1.779344 0.565174 -0.473276 2.341805152028776e-38
1.779469 0.555103 -0.472526 2.341805152028776e-38
1.781380 0.545641 -0.472278 2.341805152028776e-38
1.781384 0.535622 -0.471531 2.341805152028776e-38
1.784122 0.526447 -0.471513 2.341805152028776e-38
1.782156 0.515917 -0.470261 2.341805152028776e-38
1.786657 0.507281 -0.470721 2.341805152028776e-38
1.792049 0.498882 -0.471420 2.341805152028776e-38
1.793628 0.489491 -0.471192 2.341805152028776e-38
1.797030 0.480603 -0.471449 2.341805152028776e-38
1.796638 0.470717 -0.470717 2.341805152028776e-38
1.797131 0.461093 -0.470224 2.341805152028776e-38
1.797572 0.451484 -0.469725 2.341805152028776e-38
1.798903 0.442119 -0.469467 2.341805152028776e-38
1.801128 0.432986 -0.469448 2.341805152028776e-38
1.801393 0.423456 -0.468989 2.341805152028776e-38
1.801604 0.413945 -0.468531 2.341805152028776e-38
1.802712 0.404659 -0.468313 2.341805152028776e-38
1.805665 0.395793 -0.468582 2.341805152028776e-38
1.802888 0.385696 -0.467372 2.341805152028776e-38
1.807647 0.377226 -0.468123 2.341805152028776e-38
1.803817 0.366984 -0.466658 2.341805152028776e-38
1.805631 0.357933 -0.466672 2.341805152028776e-38
1.808330 0.349101 -0.466980 2.341805152028776e-38
1.810035 0.340076 -0.467037 2.341805152028776e-38
1.812648 0.331219 -0.467337 2.341805152028776e-38
1.816172 0.322518 -0.467878 2.341805152028776e-38
1.816790 0.313299 -0.467679 2.341805152028776e-38
1.814493 0.303606 -0.466738 2.341805152028776e-38
1.814058 0.294257 -0.466285 2.341805152028776e-38
1.818364 0.285676 -0.467058 2.341805152028776e-38
1.821665 0.276927 -0.467598 2.341805152028776e-38
1.820117 0.267473 -0.466945 2.341805152028776e-38
1.820439 0.258315 -0.466780 2.341805152028776e-38
1.832240 0.250739 -0.469565 2.341805152028776e-38
1.840167 0.242546 -0.471363 2.341805152028776e-38
1.832673 0.232332 -0.469219 2.341805152028776e-38
1.828974 0.222667 -0.468056 2.341805152028776e-38
1.827149 0.213271 -0.467381 2.341805152028776e-38
1.828167 0.204223 -0.467443 2.341805152028776e-38
1.830104 0.195273 -0.467747 2.341805152028776e-38
1.832963 0.186409 -0.468295 2.341805152028776e-38
1.831920 0.177149 -0.467854 2.341805152028776e-38
1.833722 0.168176 -0.468166 2.341805152028776e-38
1.832583 0.158941 -0.467739 2.341805152028776e-38
1.831399 0.149720 -0.467309 2.341805152028776e-38
1.839832 0.141258 -0.469340 2.341805152028776e-38
1.846294 0.132576 -0.470874 2.341805152028776e-38
1.845947 0.123382 -0.470679 2.341805152028776e-38
1.841685 0.113955 -0.469494 2.341805152028776e-38
1.838345 0.104628 -0.468552 2.341805152028776e-38
1.837862 0.095488 -0.468346 2.341805152028776e-38
1.839270 0.086446 -0.468629 2.341805152028776e-38
1.839666 0.077352 -0.468662 2.341805152028776e-38
1.840987 0.068292 -0.468938 2.341805152028776e-38
1.839359 0.059127 -0.468471 2.341805152028776e-38
1.843498 0.050139 -0.469480 2.341805152028776e-38
1.842750 0.041003 -0.469251 2.341805152028776e-38
1.789546 0.642271 -0.492251 2.341805152028776e-38
1.772838 0.625738 -0.486685 2.341805152028776e-38
1.768794 0.613878 -0.484640 2.341805152028776e-38
1.768313 0.603385 -0.483629 2.341805152028776e-38
1.770523 0.593843 -0.483361 2.341805152028776e-38
1.774522 0.584909 -0.483586 2.341805152028776e-38
1.775711 0.575061 -0.483051 2.341805152028776e-38
1.776847 0.565223 -0.482508 2.341805152028776e-38
1.778852 0.555686 -0.482207 2.341805152028776e-38
1.778921 0.545644 -0.481451 2.341805152028776e-38
1.781711 0.536470 -0.481447 2.341805152028776e-38
1.782596 0.526739 -0.480936 2.341805152028776e-38
1.785287 0.517559 -0.480918 2.341805152028776e-38
1.787932 0.508372 -0.480893 2.341805152028776e-38
1.792394 0.499699 -0.481362 2.341805152028776e-38
1.790275 0.489218 -0.480074 2.341805152028776e-38
1.791804 0.479841 -0.479841 2.341805152028776e-38
1.794221 0.470712 -0.479852 2.341805152028776e-38
1.795654 0.461335 -0.479606 2.341805152028776e-38
1.796099 0.451727 -0.479104 2.341805152028776e-38
1.795552 0.441901 -0.478346 2.341805152028776e-38
1.797777 0.432778 -0.478333 2.341805152028776e-38
1.799012 0.423429 -0.478065 2.341805152028776e-38
1.798288 0.413694 -0.477340 2.341805152028776e-38
1.800340 0.404631 -0.477373 2.341805152028776e-38
1.802347 0.395562 -0.477402 2.341805152028776e-38
1.803361 0.386285 -0.477176 2.341805152028776e-38
1.804328 0.377013 -0.476944 2.341805152028776e-38
1.807145 0.368133 -0.477210 2.341805152028776e-38
1.807070 0.358674 -0.476719 2.341805152028776e-38
1.805994 0.349047 -0.475974 2.341805152028776e-38
1.810557 0.340555 -0.476777 2.341805152028776e-38
1.815076 0.332036 -0.477587 2.341805152028776e-38
1.814789 0.322637 -0.477140 2.341805152028776e-38
1.813500 0.313088 -0.476438 2.341805152028776e-38
1.812162 0.303563 -0.475733 2.341805152028776e-38
1.815552 0.294839 -0.476278 2.341805152028776e-38
1.816988 0.285791 -0.476318 2.341805152028776e-38
1.819336 0.276885 -0.476605 2.341805152028776e-38
1.820683 0.267825 -0.476638 2.341805152028776e-38
1.822934 0.258915 -0.476949 2.341805152028776e-38
1.830888 0.250792 -0.478785 2.341805152028776e-38
1.833048 0.241838 -0.479113 2.341805152028776e-38
1.826522 0.231773 -0.477180 2.341805152028776e-38
1.823787 0.222249 -0.476247 2.341805152028776e-38
1.822926 0.212982 -0.475812 2.341805152028776e-38
1.824904 0.204054 -0.476126 2.341805152028776e-38
1.827802 0.195215 -0.476689 2.341805152028776e-38
1.828732 0.186158 -0.476746 2.341805152028776e-38
1.830581 0.177190 -0.477051 2.341805152028776e-38
1.832386 0.168210 -0.477353 2.341805152028776e-38
1.831256 0.158966 -0.476899 2.341805152028776e-38
1.829115 0.149660 -0.476190 2.341805152028776e-38
1.837539 0.141200 -0.478258 2.341805152028776e-38
1.834338 0.131828 -0.477309 2.341805152028776e-38
1.833989 0.122686 -0.477110 2.341805152028776e-38
1.834561 0.113609 -0.477159 2.341805152028776e-38
1.836055 0.104585 -0.477455 2.341805152028776e-38
1.838473 0.095600 -0.477999 2.341805152028776e-38
1.838913 0.086502 -0.478037 2.341805152028776e-38
1.840277 0.077443 -0.478322 2.341805152028776e-38
1.840630 0.068336 -0.478352 2.341805152028776e-38
1.841906 0.059259 -0.478629 2.341805152028776e-38
1.841203 0.050118 -0.478401 2.341805152028776e-38
1.841424 0.041007 -0.478419 2.341805152028776e-38
1.827077 0.667667 -0.513960 2.341805152028776e-38
1.784185 0.641334 -0.500896 2.341805152028776e-38
1.769325 0.625469 -0.495742 2.341805152028776e-38
1.765306 0.613596 -0.493645 2.341805152028776e-38
1.766677 0.603707 -0.493104 2.341805152028776e-38
1.769807 0.594477 -0.493094 2.341805152028776e-38
1.771053 0.584632 -0.492564 2.341805152028776e-38
1.770404 0.574200 -0.491515 2.341805152028776e-38
1.772459 0.564679 -0.491225 2.341805152028776e-38
1.775385 0.555448 -0.491182 2.341805152028776e-38
1.774567 0.545075 -0.490109 2.341805152028776e-38
1.777354 0.535916 -0.490111 2.341805152028776e-38
1.777311 0.525927 -0.489341 2.341805152028776e-38
1.780927 0.517038 -0.489585 2.341805152028776e-38
1.783569 0.507868 -0.489566 2.341805152028776e-38
1.785232 0.498431 -0.489286 2.341805152028776e-38
1.786846 0.488998 -0.488998 2.341805152028776e-38
1.791209 0.480325 -0.489474 2.341805152028776e-38
1.793628 0.471192 -0.489491 2.341805152028776e-38
1.793192 0.461330 -0.488736 2.341805152028776e-38
1.789889 0.450783 -0.487210 2.341805152028776e-38
1.794036 0.442139 -0.487720 2.341805152028776e-38
1.795321 0.432790 -0.487458 2.341805152028776e-38
1.796557 0.423447 -0.487191 2.341805152028776e-38
1.795861 0.413674 -0.486408 2.341805152028776e-38
1.797923 0.404597 -0.486425 2.341805152028776e-38
1.798985 0.395325 -0.486204 2.341805152028776e-38
1.800945 0.386261 -0.486234 2.341805152028776e-38
1.802860 0.377191 -0.486259 2.341805152028776e-38
1.805676 0.368311 -0.486534 2.341805152028776e-38
1.804656 0.358663 -0.485785 2.341805152028776e-38
1.807381 0.349775 -0.486052 2.341805152028776e-38
1.807212 0.340338 -0.485548 2.341805152028776e-38
1.809838 0.331455 -0.485832 2.341805152028776e-38
1.809551 0.322074 -0.485380 2.341805152028776e-38
1.813027 0.313367 -0.485945 2.341805152028776e-38
1.813601 0.304156 -0.485741 2.341805152028776e-38
1.815083 0.295105 -0.485789 2.341805152028776e-38
1.815565 0.285901 -0.485577 2.341805152028776e-38
1.816001 0.276702 -0.485363 2.341805152028776e-38
1.815434 0.267369 -0.484889 2.341805152028776e-38
1.818648 0.258596 -0.485435 2.341805152028776e-38
1.822778 0.249933 -0.486232 2.341805152028776e-38
1.823981 0.240875 -0.486295 2.341805152028776e-38
1.819379 0.231091 -0.484838 2.341805152028776e-38
1.820483 0.222062 -0.484910 2.341805152028776e-38
1.821544 0.213028 -0.484979 2.341805152028776e-38
1.824482 0.204206 -0.485557 2.341805152028776e-38
1.823533 0.194950 -0.485108 2.341805152028776e-38
1.828309 0.186297 -0.486190 2.341805152028776e-38
1.828233 0.177137 -0.485991 2.341805152028776e-38
1.830037 0.168160 -0.486300 2.341805152028776e-38
1.827946 0.158835 -0.485582 2.341805152028776e-38
1.826771 0.149616 -0.485117 2.341805152028776e-38
1.824587 0.140338 -0.484393 2.341805152028776e-38
1.829106 0.131573 -0.485457 2.341805152028776e-38
1.827796 0.122379 -0.484983 2.341805152028776e-38
1.833194 0.113622 -0.486302 2.341805152028776e-38
1.832757 0.104487 -0.486091 2.341805152028776e-38
1.836137 0.095560 -0.486901 2.341805152028776e-38
1.840440 0.086648 -0.487964 2.341805152028776e-38
1.838906 0.077451 -0.487486 2.341805152028776e-38
1.839259 0.068343 -0.487517 2.341805152028776e-38
1.837635 0.059172 -0.487031 2.341805152028776e-38
1.837900 0.050071 -0.487054 2.341805152028776e-38
1.837154 0.040947 -0.486817 2.341805152028776e-38
1.800755 0.659068 -0.516823 2.341805152028776e-38
1.776965 0.639736 -0.508987 2.341805152028776e-38
1.766675 0.625515 -0.505046 2.341805152028776e-38
1.765403 0.614603 -0.503698 2.341805152028776e-38
1.767719 0.604981 -0.503381 2.341805152028776e-38
1.769037 0.595105 -0.502840 2.341805152028776e-38
1.766621 0.584045 -0.501267 2.341805152028776e-38
1.768731 0.574526 -0.500987 2.341805152028776e-38
1.771708 0.565302 -0.500959 2.341805152028776e-38
1.772795 0.555492 -0.500402 2.341805152028776e-38
1.773827 0.545694 -0.499838 2.341805152028776e-38
1.776652 0.536471 -0.499790 2.341805152028776e-38
1.777542 0.526755 -0.499272 2.341805152028776e-38
1.777453 0.516780 -0.498487 2.341805152028776e-38
1.781950 0.508151 -0.498995 2.341805152028776e-38
1.784546 0.498977 -0.498977 2.341805152028776e-38
1.786164 0.489541 -0.498691 2.341805152028776e-38
1.786798 0.479859 -0.498139 2.341805152028776e-38
1.786446 0.469946 -0.497322 2.341805152028776e-38
1.786943 0.460356 -0.496819 2.341805152028776e-38
1.791133 0.451722 -0.497351 2.341805152028776e-38
1.792470 0.442370 -0.497097 2.341805152028776e-38
1.793757 0.433023 -0.496837 2.341805152028776e-38
1.794057 0.423458 -0.496311 2.341805152028776e-38
1.794305 0.413908 -0.495780 2.341805152028776e-38
1.796387 0.404798 -0.495764 2.341805152028776e-38
1.798410 0.395705 -0.495769 2.341805152028776e-38
1.803204 0.387244 -0.496584 2.341805152028776e-38
1.803234 0.377760 -0.496094 2.341805152028776e-38
1.804160 0.368483 -0.495860 2.341805152028776e-38
1.805038 0.359212 -0.495622 2.341805152028776e-38
1.805869 0.349947 -0.495379 2.341805152028776e-38
1.806652 0.340687 -0.495132 2.341805152028776e-38
1.809288 0.331783 -0.495401 2.341805152028776e-38
1.810929 0.322696 -0.495407 2.341805152028776e-38
1.811553 0.313476 -0.495201 2.341805152028776e-38
1.812129 0.304264 -0.494997 2.341805152028776e-38
1.815517 0.295523 -0.495569 2.341805152028776e-38
1.814095 0.286007 -0.494837 2.341805152028776e-38
1.814533 0.276807 -0.494622 2.341805152028776e-38
1.814924 0.267613 -0.494403 2.341805152028776e-38
1.819093 0.258969 -0.495222 2.341805152028776e-38
1.819395 0.249769 -0.494997 2.341805152028776e-38
1.819650 0.240576 -0.494770 2.341805152028776e-38
1.819860 0.231390 -0.494539 2.341805152028776e-38
1.820973 0.222341 -0.494595 2.341805152028776e-38
1.823953 0.213521 -0.495187 2.341805152028776e-38
1.824972 0.204463 -0.495255 2.341805152028776e-38
1.824986 0.195299 -0.495060 2.341805152028776e-38
1.826877 0.186336 -0.495382 2.341805152028776e-38
1.826802 0.177174 -0.495180 2.341805152028776e-38
1.828606 0.168196 -0.495495 2.341805152028776e-38
1.828442 0.159037 -0.495287 2.341805152028776e-38
1.827271 0.149806 -0.494814 2.341805152028776e-38
1.827979 0.140740 -0.494860 2.341805152028776e-38
1.830569 0.131810 -0.495423 2.341805152028776e-38
1.832153 0.122794 -0.495723 2.341805152028776e-38
1.831766 0.113647 -0.495499 2.341805152028776e-38
1.833262 0.104617 -0.495793 2.341805152028776e-38
1.837606 0.095727 -0.496866 2.341805152028776e-38
1.837086 0.086569 -0.496633 2.341805152028776e-38
1.834592 0.077338 -0.495876 2.341805152028776e-38
1.835912 0.068279 -0.496159 2.341805152028776e-38
1.835256 0.059147 -0.495925 2.341805152028776e-38
1.836485 0.050076 -0.496209 2.341805152028776e-38
1.836706 0.040973 -0.496228 2.341805152028776e-38
1.784414 0.654111 -0.522348 2.341805152028776e-38
1.770617 0.638458 -0.517291 2.341805152028776e-38
1.763976 0.625554 -0.514345 2.341805152028776e-38
1.764532 0.615286 -0.513510 2.341805152028776e-38
1.763205 0.604413 -0.512136 2.341805152028776e-38
1.763639 0.594194 -0.511284 2.341805152028776e-38
1.764894 0.584361 -0.510741 2.341805152028776e-38
1.767006 0.574845 -0.510463 2.341805152028776e-38
1.769067 0.565331 -0.510177 2.341805152028776e-38
1.772916 0.556395 -0.510412 2.341805152028776e-38
1.775800 0.547159 -0.510375 2.341805152028776e-38
1.774019 0.536520 -0.509006 2.341805152028776e-38
1.774021 0.526478 -0.508166 2.341805152028776e-38
1.776711 0.517324 -0.508168 2.341805152028776e-38
1.778427 0.507898 -0.507898 2.341805152028776e-38
1.779165 0.498215 -0.507357 2.341805152028776e-38
1.784499 0.489822 -0.508133 2.341805152028776e-38
1.782344 0.479390 -0.506784 2.341805152028776e-38
1.783860 0.469984 -0.506487 2.341805152028776e-38
1.786259 0.460823 -0.506449 2.341805152028776e-38
1.786711 0.451238 -0.505934 2.341805152028776e-38
1.790855 0.442596 -0.506475 2.341805152028776e-38
1.791208 0.433022 -0.505952 2.341805152028776e-38
1.794325 0.424129 -0.506218 2.341805152028776e-38
1.794580 0.414570 -0.505684 2.341805152028776e-38
1.795724 0.405238 -0.505409 2.341805152028776e-38
1.798703 0.396328 -0.505659 2.341805152028776e-38
1.801634 0.387411 -0.505914 2.341805152028776e-38
1.800723 0.377729 -0.505156 2.341805152028776e-38
1.804484 0.369036 -0.505717 2.341805152028776e-38
1.806312 0.359944 -0.505744 2.341805152028776e-38
1.807148 0.350664 -0.505502 2.341805152028776e-38
1.806041 0.341031 -0.504726 2.341805152028776e-38
1.803935 0.331250 -0.503682 2.341805152028776e-38
1.805574 0.322182 -0.503693 2.341805152028776e-38
1.810968 0.313769 -0.504759 2.341805152028776e-38
1.811560 0.304528 -0.504516 2.341805152028776e-38
1.812092 0.295315 -0.504308 2.341805152028776e-38
1.813530 0.286259 -0.504360 2.341805152028776e-38
1.814924 0.277198 -0.504409 2.341805152028776e-38
1.816272 0.268134 -0.504455 2.341805152028776e-38
1.815667 0.258794 -0.503968 2.341805152028776e-38
1.816924 0.249733 -0.504007 2.341805152028776e-38
1.817181 0.240543 -0.503779 2.341805152028776e-38
1.821218 0.231847 -0.504607 2.341805152028776e-38
1.822342 0.222768 -0.504638 2.341805152028776e-38
1.819591 0.213239 -0.503606 2.341805152028776e-38
1.821577 0.204288 -0.503910 2.341805152028776e-38
1.823509 0.195337 -0.504243 2.341805152028776e-38
1.826358 0.186471 -0.504837 2.341805152028776e-38
1.826286 0.177303 -0.504632 2.341805152028776e-38
1.826168 0.168141 -0.504424 2.341805152028776e-38
1.825045 0.158902 -0.503947 2.341805152028776e-38
1.826758 0.149916 -0.504263 2.341805152028776e-38
1.829390 0.140991 -0.504840 2.341805152028776e-38
1.831017 0.131976 -0.505150 2.341805152028776e-38
1.830676 0.122820 -0.504925 2.341805152028776e-38
1.831253 0.113730 -0.504963 2.341805152028776e-38
1.833710 0.104749 -0.505529 2.341805152028776e-38
1.834199 0.095647 -0.505561 2.341805152028776e-38
1.831754 0.086406 -0.504793 2.341805152028776e-38
1.832153 0.077315 -0.504819 2.341805152028776e-38
1.836362 0.068365 -0.505904 2.341805152028776e-38
1.837636 0.059283 -0.506189 2.341805152028776e-38
1.835976 0.050112 -0.505675 2.341805152028776e-38
1.841017 0.041109 -0.507017 2.341805152028776e-38
1.783431 0.654789 -0.532311 2.341805152028776e-38
1.766948 0.638154 -0.526360 2.341805152028776e-38
1.763043 0.626231 -0.524178 2.341805152028776e-38
1.763607 0.615962 -0.523336 2.341805152028776e-38
1.760469 0.604462 -0.521406 2.341805152028776e-38
1.762732 0.594869 -0.521086 2.341805152028776e-38
1.764029 0.584973 -0.520488 2.341805152028776e-38
1.767061 0.575754 -0.520482 2.341805152028776e-38
1.770963 0.566820 -0.520737 2.341805152028776e-38
1.772981 0.557291 -0.520445 2.341805152028776e-38
1.773109 0.547196 -0.519606 2.341805152028776e-38
1.774100 0.537402 -0.519029 2.341805152028776e-38
1.774115 0.527347 -0.518175 2.341805152028776e-38
1.774992 0.517592 -0.517592 2.341805152028776e-38
1.776711 0.508168 -0.517324 2.341805152028776e-38
1.779307 0.499007 -0.517319 2.341805152028776e-38
1.780927 0.489585 -0.517038 2.341805152028776e-38
1.781568 0.479916 -0.516481 2.341805152028776e-38
1.782156 0.470261 -0.515917 2.341805152028776e-38
1.785489 0.461342 -0.516155 2.341805152028776e-38
1.785977 0.451702 -0.515579 2.341805152028776e-38
1.788256 0.442583 -0.515587 2.341805152028776e-38
1.790483 0.433469 -0.515599 2.341805152028776e-38
1.793602 0.424571 -0.515876 2.341805152028776e-38
1.793861 0.415008 -0.515339 2.341805152028776e-38
1.795009 0.405672 -0.515067 2.341805152028776e-38
1.797049 0.396549 -0.515058 2.341805152028776e-38
1.799984 0.387626 -0.515314 2.341805152028776e-38
1.800989 0.378294 -0.515027 2.341805152028776e-38
1.804755 0.369584 -0.515592 2.341805152028776e-38
1.803753 0.359916 -0.514817 2.341805152028776e-38
1.803645 0.350456 -0.514306 2.341805152028776e-38
1.799702 0.340296 -0.512713 2.341805152028776e-38
1.801386 0.331235 -0.512733 2.341805152028776e-38
1.804921 0.322509 -0.513289 2.341805152028776e-38
1.806516 0.313432 -0.513301 2.341805152028776e-38
1.809014 0.304512 -0.513580 2.341805152028776e-38
1.813370 0.295891 -0.514394 2.341805152028776e-38
1.813867 0.286657 -0.514162 2.341805152028776e-38
1.815263 0.277585 -0.514215 2.341805152028776e-38
1.816613 0.268510 -0.514265 2.341805152028776e-38
1.814105 0.258887 -0.513233 2.341805152028776e-38
1.815363 0.249825 -0.513276 2.341805152028776e-38
1.819440 0.241139 -0.514126 2.341805152028776e-38
1.817745 0.231691 -0.513354 2.341805152028776e-38
1.818868 0.222620 -0.513389 2.341805152028776e-38
1.818034 0.213322 -0.512881 2.341805152028776e-38
1.819067 0.204256 -0.512910 2.341805152028776e-38
1.821012 0.195291 -0.513207 2.341805152028776e-38
1.824829 0.186510 -0.514041 2.341805152028776e-38
1.823803 0.177243 -0.513551 2.341805152028776e-38
1.824646 0.168173 -0.513610 2.341805152028776e-38
1.825443 0.159100 -0.513666 2.341805152028776e-38
1.828116 0.150182 -0.514258 2.341805152028776e-38
1.828826 0.141093 -0.514307 2.341805152028776e-38
1.829492 0.132002 -0.514353 2.341805152028776e-38
1.832035 0.123038 -0.514935 2.341805152028776e-38
1.832613 0.113932 -0.514975 2.341805152028776e-38
1.832185 0.104770 -0.514741 2.341805152028776e-38
1.831712 0.095616 -0.514504 2.341805152028776e-38
1.832156 0.086515 -0.514534 2.341805152028776e-38
1.833518 0.077452 -0.514831 2.341805152028776e-38
1.834835 0.068379 -0.515125 2.341805152028776e-38
1.834184 0.059233 -0.514875 2.341805152028776e-38
1.837338 0.050201 -0.515703 2.341805152028776e-38
1.842373 0.041182 -0.517069 2.341805152028776e-38
2.127657 0.026418 -0.597058 2.341805152028776e-38
1.785990 0.656807 -0.543401 2.341805152028776e-38
1.765041 0.638496 -0.535964 2.341805152028776e-38
1.758431 0.625611 -0.532927 2.341805152028776e-38
1.758089 0.615043 -0.531804 2.341805152028776e-38
1.758593 0.604817 -0.530946 2.341805152028776e-38
1.759948 0.594920 -0.530355 2.341805152028776e-38
1.761249 0.585033 -0.529754 2.341805152028776e-38
1.762489 0.575164 -0.529151 2.341805152028776e-38
1.764555 0.565661 -0.528870 2.341805152028776e-38
1.767486 0.556447 -0.528855 2.341805152028776e-38
1.771288 0.547510 -0.529107 2.341805152028776e-38
1.771364 0.537440 -0.528253 2.341805152028776e-38
1.773227 0.527941 -0.527941 2.341805152028776e-38
1.774115 0.518175 -0.527347 2.341805152028776e-38
1.774021 0.508166 -0.526478 2.341805152028776e-38
1.775691 0.498752 -0.526206 2.341805152028776e-38
1.775457 0.488830 -0.525378 2.341805152028776e-38
1.778882 0.479934 -0.525642 2.341805152028776e-38
1.781332 0.470776 -0.525624 2.341805152028776e-38
1.782805 0.461373 -0.525326 2.341805152028776e-38
1.785159 0.452211 -0.525296 2.341805152028776e-38
1.786534 0.442814 -0.524985 2.341805152028776e-38
1.788773 0.433682 -0.524983 2.341805152028776e-38
1.789084 0.424119 -0.524449 2.341805152028776e-38
1.790281 0.414788 -0.524183 2.341805152028776e-38
1.793305 0.405887 -0.524460 2.341805152028776e-38
1.795345 0.396764 -0.524459 2.341805152028776e-38
1.797340 0.387638 -0.524452 2.341805152028776e-38
1.800229 0.378707 -0.524715 2.341805152028776e-38
1.802132 0.369570 -0.524698 2.341805152028776e-38
1.801148 0.359883 -0.523880 2.341805152028776e-38
1.799155 0.350060 -0.522817 2.341805152028776e-38
1.796163 0.340092 -0.521475 2.341805152028776e-38
1.797846 0.331039 -0.521501 2.341805152028776e-38
1.800430 0.322153 -0.521797 2.341805152028776e-38
1.805813 0.313747 -0.522912 2.341805152028776e-38
1.807364 0.304662 -0.522927 2.341805152028776e-38
1.808869 0.295574 -0.522938 2.341805152028776e-38
1.811279 0.286634 -0.523220 2.341805152028776e-38
1.813644 0.277682 -0.523499 2.341805152028776e-38
1.811194 0.268038 -0.522446 2.341805152028776e-38
1.811545 0.258841 -0.522222 2.341805152028776e-38
1.812803 0.249781 -0.522269 2.341805152028776e-38
1.813062 0.240592 -0.522039 2.341805152028776e-38
1.814230 0.231531 -0.522080 2.341805152028776e-38
1.815352 0.222468 -0.522119 2.341805152028776e-38
1.815475 0.213290 -0.521879 2.341805152028776e-38
1.818419 0.204441 -0.522461 2.341805152028776e-38
1.819407 0.195366 -0.522492 2.341805152028776e-38
1.821308 0.186387 -0.522794 2.341805152028776e-38
1.822207 0.177304 -0.522820 2.341805152028776e-38
1.824019 0.168307 -0.523118 2.341805152028776e-38
1.824829 0.159216 -0.523139 2.341805152028776e-38
1.824629 0.150051 -0.522906 2.341805152028776e-38
1.827256 0.141119 -0.523506 2.341805152028776e-38
1.826962 0.131957 -0.523278 2.341805152028776e-38
1.828543 0.122931 -0.523597 2.341805152028776e-38
1.831040 0.113954 -0.524187 2.341805152028776e-38
1.832533 0.104900 -0.524499 2.341805152028776e-38
1.831102 0.095684 -0.523984 2.341805152028776e-38
1.830586 0.086531 -0.523740 2.341805152028776e-38
1.830986 0.077427 -0.523768 2.341805152028776e-38
1.831341 0.068321 -0.523793 2.341805152028776e-38
1.834535 0.059307 -0.524639 2.341805152028776e-38
1.836724 0.050237 -0.525207 2.341805152028776e-38
1.840792 0.041190 -0.526322 2.341805152028776e-38
2.006321 0.034915 -0.573608 2.341805152028776e-38
2.125682 0.026422 -0.607700 2.341805152028776e-38
1.781248 0.656203 -0.552344 2.341805152028776e-38
1.760368 0.637858 -0.544740 2.341805152028776e-38
1.753776 0.624983 -0.541652 2.341805152028776e-38
1.755248 0.615069 -0.541076 2.341805152028776e-38
1.754849 0.604539 -0.539932 2.341805152028776e-38
1.758935 0.595579 -0.540176 2.341805152028776e-38
1.759330 0.585388 -0.539294 2.341805152028776e-38
1.759667 0.575218 -0.538404 2.341805152028776e-38
1.762682 0.565961 -0.538354 2.341805152028776e-38
1.766531 0.557040 -0.538625 2.341805152028776e-38
1.768500 0.547533 -0.538331 2.341805152028776e-38
1.770418 0.538029 -0.538029 2.341805152028776e-38
1.770444 0.527979 -0.537161 2.341805152028776e-38
1.772257 0.518490 -0.536844 2.341805152028776e-38
1.771250 0.508211 -0.535682 2.341805152028776e-38
1.772955 0.498749 -0.535355 2.341805152028776e-38
1.773651 0.489090 -0.534799 2.341805152028776e-38
1.776149 0.479944 -0.534795 2.341805152028776e-38
1.780456 0.471285 -0.535343 2.341805152028776e-38
1.784721 0.462601 -0.535885 2.341805152028776e-38
1.784289 0.452713 -0.535024 2.341805152028776e-38
1.784736 0.443081 -0.534437 2.341805152028776e-38
1.786063 0.433690 -0.534123 2.341805152028776e-38
1.787328 0.424327 -0.533830 2.341805152028776e-38
1.789463 0.415213 -0.533845 2.341805152028776e-38
1.794360 0.406732 -0.534692 2.341805152028776e-38
1.794530 0.397180 -0.534139 2.341805152028776e-38
1.796527 0.388050 -0.534139 2.341805152028776e-38
1.798477 0.378916 -0.534134 2.341805152028776e-38
1.800381 0.369779 -0.534125 2.341805152028776e-38
1.799413 0.360073 -0.533273 2.341805152028776e-38
1.799336 0.350578 -0.532697 2.341805152028776e-38
1.797299 0.340777 -0.531613 2.341805152028776e-38
1.800874 0.332058 -0.532202 2.341805152028776e-38
1.803462 0.323146 -0.532509 2.341805152028776e-38
1.805060 0.314057 -0.532532 2.341805152028776e-38
1.805665 0.304806 -0.532273 2.341805152028776e-38
1.806224 0.295561 -0.532011 2.341805152028776e-38
1.809580 0.286775 -0.532582 2.341805152028776e-38
1.810996 0.277676 -0.532592 2.341805152028776e-38
1.810466 0.268294 -0.532041 2.341805152028776e-38
1.810838 0.259066 -0.531767 2.341805152028776e-38
1.812100 0.249996 -0.531809 2.341805152028776e-38
1.812362 0.240800 -0.531578 2.341805152028776e-38
1.812578 0.231611 -0.531344 2.341805152028776e-38
1.814654 0.222663 -0.531665 2.341805152028776e-38
1.814779 0.213478 -0.531425 2.341805152028776e-38
1.816767 0.204516 -0.531740 2.341805152028776e-38
1.817756 0.195438 -0.531774 2.341805152028776e-38
1.819655 0.186457 -0.532085 2.341805152028776e-38
1.822466 0.177557 -0.532672 2.341805152028776e-38
1.823322 0.168460 -0.532699 2.341805152028776e-38
1.823176 0.159278 -0.532444 2.341805152028776e-38
1.825855 0.150340 -0.533025 2.341805152028776e-38
1.824661 0.141086 -0.532486 2.341805152028776e-38
1.824379 0.131919 -0.532225 2.341805152028776e-38
1.827883 0.123018 -0.533080 2.341805152028776e-38
1.830379 0.114033 -0.533676 2.341805152028776e-38
1.827078 0.104699 -0.532597 2.341805152028776e-38
1.827566 0.095601 -0.532633 2.341805152028776e-38
1.828969 0.086547 -0.532944 2.341805152028776e-38
1.831288 0.077522 -0.533532 2.341805152028776e-38
1.832603 0.068441 -0.533837 2.341805152028776e-38
1.833874 0.059349 -0.534139 2.341805152028776e-38
1.834141 0.050220 -0.534158 2.341805152028776e-38
1.841083 0.041241 -0.536131 2.341805152028776e-38
1.774661 0.654927 -0.560693 2.341805152028776e-38
1.760124 0.638900 -0.554957 2.341805152028776e-38
1.753593 0.625959 -0.551772 2.341805152028776e-38
1.755073 0.616040 -0.551193 2.341805152028776e-38
1.753778 0.605191 -0.549754 2.341805152028776e-38
1.756958 0.595922 -0.549727 2.341805152028776e-38
1.757360 0.585735 -0.548838 2.341805152028776e-38
1.756792 0.575271 -0.547658 2.341805152028776e-38
1.758901 0.565718 -0.547321 2.341805152028776e-38
1.763692 0.557047 -0.547840 2.341805152028776e-38
1.765663 0.547548 -0.547548 2.341805152028776e-38
1.766665 0.537772 -0.546965 2.341805152028776e-38
1.767614 0.528009 -0.546374 2.341805152028776e-38
1.767588 0.517989 -0.545492 2.341805152028776e-38
1.768427 0.508256 -0.544887 2.341805152028776e-38
1.771059 0.499058 -0.544843 2.341805152028776e-38
1.770869 0.489088 -0.543939 2.341805152028776e-38
1.775219 0.480449 -0.544509 2.341805152028776e-38
1.777672 0.471295 -0.544506 2.341805152028776e-38
1.779150 0.461894 -0.544212 2.341805152028776e-38
1.779649 0.452263 -0.543629 2.341805152028776e-38
1.782887 0.443340 -0.543891 2.341805152028776e-38
1.784218 0.433951 -0.543580 2.341805152028776e-38
1.785498 0.424567 -0.543263 2.341805152028776e-38
1.788593 0.415631 -0.543518 2.341805152028776e-38
1.791618 0.406721 -0.543818 2.341805152028776e-38
1.789919 0.396760 -0.542694 2.341805152028776e-38
1.793787 0.388049 -0.543268 2.341805152028776e-38
1.794799 0.378722 -0.542986 2.341805152028776e-38
1.797641 0.369787 -0.543267 2.341805152028776e-38
1.798558 0.360463 -0.542976 2.341805152028776e-38
1.795663 0.350412 -0.541545 2.341805152028776e-38
1.795537 0.340943 -0.540962 2.341805152028776e-38
1.799125 0.332200 -0.541531 2.341805152028776e-38
1.801712 0.323287 -0.541848 2.341805152028776e-38
1.802366 0.314033 -0.541593 2.341805152028776e-38
1.802028 0.304625 -0.541051 2.341805152028776e-38
1.803533 0.295544 -0.541073 2.341805152028776e-38
1.804992 0.286460 -0.541091 2.341805152028776e-38
1.807354 0.277520 -0.541391 2.341805152028776e-38
1.806826 0.268145 -0.540835 2.341805152028776e-38
1.806250 0.258788 -0.540277 2.341805152028776e-38
1.808475 0.249842 -0.540568 2.341805152028776e-38
1.811606 0.241012 -0.541140 2.341805152028776e-38
1.811830 0.231810 -0.540889 2.341805152028776e-38
1.812002 0.222621 -0.540651 2.341805152028776e-38
1.813081 0.213551 -0.540693 2.341805152028776e-38
1.813162 0.204371 -0.540449 2.341805152028776e-38
1.814150 0.195302 -0.540486 2.341805152028776e-38
1.817001 0.186425 -0.541088 2.341805152028776e-38
1.818855 0.177435 -0.541404 2.341805152028776e-38
1.820665 0.168433 -0.541718 2.341805152028776e-38
1.821476 0.159337 -0.541745 2.341805152028776e-38
1.822241 0.150239 -0.541770 2.341805152028776e-38
1.821050 0.140991 -0.541225 2.341805152028776e-38
1.824593 0.132108 -0.542098 2.341805152028776e-38
1.825224 0.123001 -0.542117 2.341805152028776e-38
1.823896 0.113774 -0.541566 2.341805152028776e-38
1.825394 0.104730 -0.541866 2.341805152028776e-38
1.825889 0.095626 -0.541880 2.341805152028776e-38
1.827297 0.086566 -0.542177 2.341805152028776e-38
1.826745 0.077415 -0.541904 2.341805152028776e-38
1.826146 0.068273 -0.541633 2.341805152028776e-38
1.828373 0.059235 -0.542224 2.341805152028776e-38
1.831515 0.050202 -0.543096 2.341805152028776e-38
1.834613 0.041140 -0.543965 2.341805152028776e-38
2.080349 0.025914 -0.616748 2.341805152028776e-38
1.774217 0.645169 -0.569821 2.341805152028776e-38
1.760525 0.629566 -0.564277 2.341805152028776e-38
1.756646 0.617638 -0.561911 2.341805152028776e-38
1.754462 0.606462 -0.560167 2.341805152028776e-38
1.757649 0.597182 -0.560147 2.341805152028776e-38
1.756246 0.586378 -0.558675 2.341805152028776e-38
1.757507 0.576509 -0.558061 2.341805152028776e-38
1.758712 0.566652 -0.557438 2.341805152028776e-38
1.764426 0.558251 -0.558251 2.341805152028776e-38
1.763692 0.547840 -0.557047 2.341805152028776e-38
1.767446 0.538904 -0.557329 2.341805152028776e-38
1.767486 0.528855 -0.556447 2.341805152028776e-38
1.769307 0.519367 -0.556136 2.341805152028776e-38
1.767396 0.508823 -0.554663 2.341805152028776e-38
1.770952 0.499882 -0.554915 2.341805152028776e-38
1.771694 0.490160 -0.554294 2.341805152028776e-38
1.773307 0.480704 -0.553954 2.341805152028776e-38
1.776693 0.471789 -0.554237 2.341805152028776e-38
1.778174 0.462385 -0.553947 2.341805152028776e-38
1.778679 0.452750 -0.553361 2.341805152028776e-38
1.781918 0.443824 -0.553636 2.341805152028776e-38
1.783252 0.434430 -0.553327 2.341805152028776e-38
1.786399 0.425487 -0.553590 2.341805152028776e-38
1.786704 0.415879 -0.552982 2.341805152028776e-38
1.789758 0.406924 -0.553234 2.341805152028776e-38
1.789940 0.397370 -0.552664 2.341805152028776e-38
1.791937 0.388244 -0.552677 2.341805152028776e-38
1.793888 0.379115 -0.552685 2.341805152028776e-38
1.796731 0.370175 -0.552978 2.341805152028776e-38
1.785448 0.358397 -0.548936 2.341805152028776e-38
1.787248 0.349320 -0.548932 2.341805152028776e-38
1.792763 0.340957 -0.550077 2.341805152028776e-38
1.796357 0.332205 -0.550641 2.341805152028776e-38
1.797081 0.322924 -0.550336 2.341805152028776e-38
1.801514 0.314332 -0.551220 2.341805152028776e-38
1.804011 0.305398 -0.551540 2.341805152028776e-38
1.804575 0.296141 -0.551278 2.341805152028776e-38
1.805092 0.286891 -0.551014 2.341805152028776e-38
1.806508 0.277794 -0.551034 2.341805152028776e-38
1.804091 0.268132 -0.549897 2.341805152028776e-38
1.807308 0.259321 -0.550489 2.341805152028776e-38
1.807638 0.250097 -0.550212 2.341805152028776e-38
1.809818 0.241133 -0.550510 2.341805152028776e-38
1.811954 0.232158 -0.550806 2.341805152028776e-38
1.813096 0.223056 -0.550811 2.341805152028776e-38
1.811336 0.213620 -0.549959 2.341805152028776e-38
1.813321 0.204654 -0.550291 2.341805152028776e-38
1.812407 0.195367 -0.549754 2.341805152028776e-38
1.817160 0.186684 -0.550946 2.341805152028776e-38
1.818061 0.177589 -0.550981 2.341805152028776e-38
1.820823 0.168668 -0.551591 2.341805152028776e-38
1.820681 0.159476 -0.551333 2.341805152028776e-38
1.822402 0.150450 -0.551649 2.341805152028776e-38
1.823123 0.141338 -0.551675 2.341805152028776e-38
1.824755 0.132294 -0.551987 2.341805152028776e-38
1.823476 0.123047 -0.551431 2.341805152028776e-38
1.825017 0.113996 -0.551739 2.341805152028776e-38
1.824603 0.104825 -0.551468 2.341805152028776e-38
1.827011 0.095812 -0.552062 2.341805152028776e-38
1.827462 0.086690 -0.552076 2.341805152028776e-38
1.825955 0.077485 -0.551511 2.341805152028776e-38
1.825359 0.068335 -0.551233 2.341805152028776e-38
