VERSION .7
FIELDS x y z rgb
SIZE 4 4 4 4
TYPE F F F F
COUNT 1 1 1 1
WIDTH 938
HEIGHT 1
VIEWPOINT 0 0 0 1 0 0 0
POINTS 938
DATA ascii
1.643622 -0.865006 -0.375893 2.341805152028776e-38
1.635374 -0.872203 -0.375093 2.341805152028776e-38
1.630487 -0.881295 -0.375115 2.341805152028776e-38
1.622111 -0.888481 -0.374335 2.341805152028776e-38
1.619704 -0.898935 -0.374933 2.341805152028776e-38
1.618940 -0.910354 -0.375917 2.341805152028776e-38
1.614692 -0.919856 -0.376099 2.341805152028776e-38
1.608650 -0.928423 -0.375898 2.341805152028776e-38
1.603385 -0.937486 -0.375900 2.341805152028776e-38
1.601442 -0.948522 -0.376686 2.341805152028776e-38
1.596063 -0.957552 -0.376667 2.341805152028776e-38
1.588120 -0.965029 -0.376044 2.341805152028776e-38
1.580127 -0.972474 -0.375420 2.341805152028776e-38
1.574545 -0.981491 -0.375409 2.341805152028776e-38
1.568083 -0.989956 -0.375189 2.341805152028776e-38
1.562401 -0.998911 -0.375157 2.341805152028776e-38
1.556668 -1.007838 -0.375114 2.341805152028776e-38
1.549245 -1.015660 -0.374666 2.341805152028776e-38
1.542535 -1.024062 -0.374437 2.341805152028776e-38
1.536587 -1.032980 -0.374399 2.341805152028776e-38
1.531397 -1.042418 -0.374548 2.341805152028776e-38
1.524536 -1.050722 -0.374292 2.341805152028776e-38
1.517630 -1.058985 -0.374025 2.341805152028776e-38
1.506633 -1.064434 -0.372777 2.341805152028776e-38
1.500376 -1.073254 -0.372720 2.341805152028776e-38
1.492481 -1.080891 -0.372257 2.341805152028776e-38
1.484548 -1.088476 -0.371784 2.341805152028776e-38
1.475790 -1.095423 -0.371103 2.341805152028776e-38
1.474815 -1.108225 -0.372400 2.341805152028776e-38
1.468225 -1.116967 -0.372322 2.341805152028776e-38
1.460807 -1.125075 -0.372037 2.341805152028776e-38
1.454890 -1.134343 -0.372136 2.341805152028776e-38
1.450454 -1.144798 -0.372620 2.341805152028776e-38
1.439816 -1.150351 -0.371514 2.341805152028776e-38
1.431371 -1.157758 -0.371019 2.341805152028776e-38
1.427441 -1.168835 -0.371699 2.341805152028776e-38
1.421166 -1.178033 -0.371775 2.341805152028776e-38
1.411827 -1.184679 -0.371051 2.341805152028776e-38
1.403955 -1.192529 -0.370711 2.341805152028776e-38
1.397460 -1.201678 -0.370778 2.341805152028776e-38
1.392367 -1.212101 -0.371234 2.341805152028776e-38
1.384257 -1.219916 -0.370890 2.341805152028776e-38
1.373910 -1.225723 -0.369945 2.341805152028776e-38
1.364998 -1.232766 -0.369385 2.341805152028776e-38
1.360344 -1.243767 -0.370010 2.341805152028776e-38
1.350533 -1.250136 -0.369257 2.341805152028776e-38
1.342125 -1.257775 -0.368888 2.341805152028776e-38
1.335809 -1.267385 -0.369098 2.341805152028776e-38
1.333669 -1.281043 -0.370476 2.341805152028776e-38
1.330676 -1.294072 -0.371654 2.341805152028776e-38
1.321227 -1.300980 -0.371070 2.341805152028776e-38
1.315215 -1.311284 -0.371456 2.341805152028776e-38
1.311198 -1.323656 -0.372418 2.341805152028776e-38
1.341366 -1.371080 -0.383164 2.341805152028776e-38
1.651477 -0.858660 -0.386170 2.341805152028776e-38
1.641528 -0.865000 -0.384948 2.341805152028776e-38
1.635849 -0.873613 -0.384752 2.341805152028776e-38
1.628371 -0.881311 -0.384161 2.341805152028776e-38
1.620858 -0.888958 -0.383560 2.341805152028776e-38
1.618445 -0.899406 -0.384168 2.341805152028776e-38
1.617673 -0.910820 -0.385173 2.341805152028776e-38
1.614269 -0.920806 -0.385559 2.341805152028776e-38
1.606503 -0.928428 -0.384958 2.341805152028776e-38
1.602083 -0.937976 -0.385159 2.341805152028776e-38
1.597606 -0.947507 -0.385350 2.341805152028776e-38
1.593072 -0.957022 -0.385530 2.341805152028776e-38
1.584300 -0.963975 -0.384685 2.341805152028776e-38
1.577957 -0.972466 -0.384463 2.341805152028776e-38
1.570713 -0.980435 -0.384041 2.341805152028776e-38
1.565086 -0.989404 -0.384015 2.341805152028776e-38
1.559407 -0.998344 -0.383978 2.341805152028776e-38
1.552856 -1.006723 -0.383728 2.341805152028776e-38
1.548696 -1.016701 -0.384087 2.341805152028776e-38
1.540344 -1.024027 -0.383446 2.341805152028776e-38
1.532771 -1.031840 -0.382998 2.341805152028776e-38
1.530014 -1.042913 -0.383756 2.341805152028776e-38
1.523957 -1.051768 -0.383692 2.341805152028776e-38
1.516243 -1.059469 -0.383212 2.341805152028776e-38
1.508421 -1.067208 -0.382754 2.341805152028776e-38
1.500557 -1.074901 -0.382287 2.341805152028776e-38
1.490276 -1.080816 -0.381201 2.341805152028776e-38
1.480767 -1.087232 -0.380307 2.341805152028776e-38
1.477521 -1.098249 -0.381025 2.341805152028776e-38
1.473365 -1.108740 -0.381550 2.341805152028776e-38
1.464435 -1.115695 -0.380860 2.341805152028776e-38
1.458577 -1.124979 -0.380969 2.341805152028776e-38
1.451888 -1.133634 -0.380865 2.341805152028776e-38
1.445147 -1.142252 -0.380751 2.341805152028776e-38
1.438327 -1.150866 -0.380637 2.341805152028776e-38
1.430643 -1.158883 -0.380328 2.341805152028776e-38
1.425944 -1.169337 -0.380819 2.341805152028776e-38
1.417404 -1.176652 -0.380287 2.341805152028776e-38
1.410327 -1.185169 -0.380149 2.341805152028776e-38
1.403936 -1.194291 -0.380205 2.341805152028776e-38
1.396669 -1.202823 -0.380074 2.341805152028776e-38
1.387875 -1.210026 -0.379528 2.341805152028776e-38
1.382716 -1.220410 -0.379981 2.341805152028776e-38
1.373831 -1.227516 -0.379414 2.341805152028776e-38
1.368543 -1.237847 -0.379845 2.341805152028776e-38
1.358770 -1.244269 -0.379078 2.341805152028776e-38
1.348959 -1.250631 -0.378305 2.341805152028776e-38
1.338407 -1.256253 -0.377320 2.341805152028776e-38
1.335649 -1.269217 -0.378538 2.341805152028776e-38
1.331370 -1.280840 -0.379343 2.341805152028776e-38
1.326238 -1.291832 -0.379951 2.341805152028776e-38
1.318200 -1.300091 -0.379752 2.341805152028776e-38
1.316350 -1.314533 -0.381349 2.341805152028776e-38
1.308171 -1.322736 -0.381127 2.341805152028776e-38
1.341699 -1.373642 -0.393130 2.341805152028776e-38
1.646724 -0.857304 -0.394632 2.341805152028776e-38
1.642845 -0.866815 -0.394832 2.341805152028776e-38
1.637130 -0.875480 -0.394646 2.341805152028776e-38
1.628784 -0.882721 -0.393829 2.341805152028776e-38
1.621267 -0.890372 -0.393210 2.341805152028776e-38
1.614569 -0.898446 -0.392788 2.341805152028776e-38
1.616353 -0.911282 -0.394435 2.341805152028776e-38
1.609519 -0.919362 -0.394012 2.341805152028776e-38
1.603459 -0.927940 -0.393808 2.341805152028776e-38
1.598196 -0.936977 -0.393802 2.341805152028776e-38
1.594564 -0.946988 -0.394201 2.341805152028776e-38
1.588356 -0.955479 -0.393965 2.341805152028776e-38
1.581265 -0.963430 -0.393514 2.341805152028776e-38
1.574069 -0.971426 -0.393089 2.341805152028776e-38
1.566834 -0.979375 -0.392653 2.341805152028776e-38
1.561213 -0.988323 -0.392622 2.341805152028776e-38
1.553070 -0.995660 -0.391957 2.341805152028776e-38
1.551458 -1.007201 -0.392944 2.341805152028776e-38
1.545631 -1.016135 -0.392906 2.341805152028776e-38
1.535657 -1.022361 -0.391830 2.341805152028776e-38
1.528908 -1.030696 -0.391575 2.341805152028776e-38
1.525345 -1.041198 -0.392139 2.341805152028776e-38
1.520103 -1.050584 -0.392278 2.341805152028776e-38
1.513978 -1.059417 -0.392210 2.341805152028776e-38
1.507751 -1.068281 -0.392154 2.341805152028776e-38
1.497498 -1.074261 -0.391049 2.341805152028776e-38
1.488018 -1.080736 -0.390141 2.341805152028776e-38
1.483243 -1.090618 -0.390468 2.341805152028776e-38
1.477619 -1.099901 -0.390577 2.341805152028776e-38
1.469516 -1.107482 -0.390085 2.341805152028776e-38
1.462153 -1.115604 -0.389789 2.341805152028776e-38
1.453971 -1.123084 -0.389276 2.341805152028776e-38
1.447293 -1.131714 -0.389166 2.341805152028776e-38
1.440565 -1.140307 -0.389046 2.341805152028776e-38
1.435256 -1.150151 -0.389351 2.341805152028776e-38
1.427577 -1.158153 -0.389032 2.341805152028776e-38
1.419855 -1.166107 -0.388702 2.341805152028776e-38
1.413594 -1.175265 -0.388776 2.341805152028776e-38
1.407273 -1.184393 -0.388838 2.341805152028776e-38
1.399370 -1.192259 -0.388489 2.341805152028776e-38
1.389152 -1.198210 -0.387525 2.341805152028776e-38
1.383336 -1.207944 -0.387790 2.341805152028776e-38
1.380386 -1.220248 -0.388870 2.341805152028776e-38
1.371504 -1.227343 -0.388287 2.341805152028776e-38
1.364747 -1.236365 -0.388317 2.341805152028776e-38
1.356418 -1.244102 -0.387946 2.341805152028776e-38
1.349480 -1.253117 -0.387976 2.341805152028776e-38
1.341770 -1.261427 -0.387788 2.341805152028776e-38
1.336136 -1.271716 -0.388208 2.341805152028776e-38
1.329721 -1.281308 -0.388410 2.341805152028776e-38
1.321052 -1.288901 -0.388008 2.341805152028776e-38
1.313729 -1.297819 -0.388008 2.341805152028776e-38
1.311189 -1.311544 -0.389435 2.341805152028776e-38
1.302342 -1.319023 -0.389000 2.341805152028776e-38
1.341965 -1.376195 -0.403128 2.341805152028776e-38
1.644527 -0.857299 -0.403702 2.341805152028776e-38
1.643215 -0.868207 -0.404557 2.341805152028776e-38
1.635766 -0.875959 -0.403940 2.341805152028776e-38
1.626564 -0.882728 -0.402886 2.341805152028776e-38
1.617337 -0.889427 -0.401822 2.341805152028776e-38
1.612355 -0.898433 -0.401812 2.341805152028776e-38
1.611576 -0.909817 -0.402854 2.341805152028776e-38
1.607270 -0.919369 -0.403073 2.341805152028776e-38
1.601210 -0.927936 -0.402860 2.341805152028776e-38
1.596790 -0.937458 -0.403061 2.341805152028776e-38
1.590634 -0.945965 -0.402827 2.341805152028776e-38
1.586107 -0.955444 -0.403007 2.341805152028776e-38
1.576488 -0.961897 -0.401919 2.341805152028776e-38
1.570966 -0.970895 -0.401905 2.341805152028776e-38
1.564565 -0.979347 -0.401668 2.341805152028776e-38
1.558119 -0.987761 -0.401419 2.341805152028776e-38
1.551627 -0.996139 -0.401160 2.341805152028776e-38
1.548364 -1.006614 -0.401743 2.341805152028776e-38
1.540884 -1.014489 -0.401287 2.341805152028776e-38
1.534991 -1.023400 -0.401245 2.341805152028776e-38
1.528237 -1.031734 -0.400980 2.341805152028776e-38
1.523051 -1.041131 -0.401129 2.341805152028776e-38
1.517004 -1.049951 -0.401054 2.341805152028776e-38
1.510055 -1.058242 -0.400781 2.341805152028776e-38
1.500648 -1.064824 -0.399870 2.341805152028776e-38
1.492802 -1.072476 -0.399374 2.341805152028776e-38
1.485709 -1.080651 -0.399079 2.341805152028776e-38
1.480145 -1.089942 -0.399197 2.341805152028776e-38
1.472929 -1.098073 -0.398892 2.341805152028776e-38
1.465619 -1.106220 -0.398597 2.341805152028776e-38
1.456712 -1.113135 -0.397867 2.341805152028776e-38
1.450093 -1.121780 -0.397763 2.341805152028776e-38
1.443423 -1.130391 -0.397647 2.341805152028776e-38
1.439762 -1.141397 -0.398370 2.341805152028776e-38
1.434420 -1.151265 -0.398687 2.341805152028776e-38
1.425978 -1.158649 -0.398146 2.341805152028776e-38
1.419763 -1.167839 -0.398228 2.341805152028776e-38
1.410486 -1.174497 -0.397453 2.341805152028776e-38
1.401927 -1.181720 -0.396880 2.341805152028776e-38
1.394757 -1.190221 -0.396740 2.341805152028776e-38
1.388255 -1.199342 -0.396808 2.341805152028776e-38
1.386108 -1.212291 -0.398133 2.341805152028776e-38
1.377269 -1.219431 -0.397544 2.341805152028776e-38
1.367667 -1.225859 -0.396733 2.341805152028776e-38
1.359443 -1.233575 -0.396347 2.341805152028776e-38
1.354012 -1.243927 -0.396808 2.341805152028776e-38
1.347790 -1.253597 -0.397047 2.341805152028776e-38
1.338653 -1.260560 -0.396431 2.341805152028776e-38
1.335143 -1.272857 -0.397489 2.341805152028776e-38
1.327992 -1.281789 -0.397489 2.341805152028776e-38
1.320017 -1.290064 -0.397286 2.341805152028776e-38
1.315464 -1.301730 -0.398124 2.341805152028776e-38
1.308746 -1.311316 -0.398318 2.341805152028776e-38
1.300588 -1.319480 -0.398080 2.341805152028776e-38
1.635357 -0.853675 -0.411029 2.341805152028776e-38
1.634032 -0.864578 -0.411920 2.341805152028776e-38
1.630908 -0.874588 -0.412371 2.341805152028776e-38
1.626866 -0.884129 -0.412593 2.341805152028776e-38
1.616782 -0.890360 -0.411283 2.341805152028776e-38
1.611794 -0.899366 -0.411268 2.341805152028776e-38
1.610133 -0.910302 -0.412127 2.341805152028776e-38
1.605817 -0.919857 -0.412350 2.341805152028776e-38
1.598911 -0.927928 -0.411909 2.341805152028776e-38
1.592807 -0.936449 -0.411676 2.341805152028776e-38
1.589174 -0.946434 -0.412084 2.341805152028776e-38
1.582971 -0.954900 -0.411829 2.341805152028776e-38
1.574999 -0.962395 -0.411164 2.341805152028776e-38
1.566984 -0.969845 -0.410493 2.341805152028776e-38
1.559763 -0.977758 -0.410028 2.341805152028776e-38
1.552503 -0.985625 -0.409552 2.341805152028776e-38
1.547668 -0.995028 -0.409718 2.341805152028776e-38
1.542743 -1.004456 -0.409890 2.341805152028776e-38
1.538538 -1.014450 -0.410289 2.341805152028776e-38
1.531833 -1.022808 -0.410024 2.341805152028776e-38
1.523466 -1.030033 -0.409315 2.341805152028776e-38
1.519094 -1.039957 -0.409680 2.341805152028776e-38
1.514653 -1.049875 -0.410037 2.341805152028776e-38
1.505286 -1.056502 -0.409113 2.341805152028776e-38
1.495098 -1.062492 -0.407961 2.341805152028776e-38
1.487269 -1.070115 -0.407450 2.341805152028776e-38
1.482558 -1.079985 -0.407795 2.341805152028776e-38
1.477782 -1.089840 -0.408129 2.341805152028776e-38
1.469758 -1.097410 -0.407609 2.341805152028776e-38
1.461674 -1.104951 -0.407087 2.341805152028776e-38
1.455879 -1.114219 -0.407205 2.341805152028776e-38
1.447711 -1.121667 -0.406660 2.341805152028776e-38
1.441810 -1.130869 -0.406755 2.341805152028776e-38
1.438112 -1.141900 -0.407502 2.341805152028776e-38
1.430482 -1.149926 -0.407172 2.341805152028776e-38
1.422808 -1.157906 -0.406832 2.341805152028776e-38
1.415843 -1.166459 -0.406696 2.341805152028776e-38
1.407328 -1.173723 -0.406117 2.341805152028776e-38
1.399514 -1.181569 -0.405746 2.341805152028776e-38
1.393067 -1.190714 -0.405824 2.341805152028776e-38
1.391729 -1.204300 -0.407403 2.341805152028776e-38
1.388074 -1.215987 -0.408320 2.341805152028776e-38
1.374832 -1.219256 -0.406419 2.341805152028776e-38
1.362329 -1.223064 -0.404723 2.341805152028776e-38
1.354095 -1.230778 -0.404335 2.341805152028776e-38
1.347959 -1.240440 -0.404588 2.341805152028776e-38
1.341755 -1.250076 -0.404829 2.341805152028776e-38
1.334064 -1.258346 -0.404627 2.341805152028776e-38
1.331265 -1.271293 -0.405922 2.341805152028776e-38
1.324095 -1.280231 -0.405927 2.341805152028776e-38
1.317525 -1.289851 -0.406147 2.341805152028776e-38
1.308806 -1.297380 -0.405710 2.341805152028776e-38
1.306938 -1.311772 -0.407411 2.341805152028776e-38
1.294666 -1.315752 -0.405876 2.341805152028776e-38
1.633049 -0.853693 -0.420071 2.341805152028776e-38
1.632573 -0.865054 -0.421204 2.341805152028776e-38
1.631161 -0.875980 -0.422104 2.341805152028776e-38
1.625397 -0.884592 -0.421882 2.341805152028776e-38
1.616172 -0.891289 -0.420761 2.341805152028776e-38
1.612030 -0.900769 -0.420962 2.341805152028776e-38
1.611175 -0.912232 -0.422077 2.341805152028776e-38
1.606001 -0.921310 -0.422078 2.341805152028776e-38
1.596561 -0.927914 -0.420956 2.341805152028776e-38
1.590458 -0.936425 -0.420713 2.341805152028776e-38
1.586823 -0.946400 -0.421125 2.341805152028776e-38
1.578931 -0.953876 -0.420429 2.341805152028776e-38
1.571792 -0.961870 -0.419971 2.341805152028776e-38
1.562956 -0.968791 -0.419058 2.341805152028776e-38
1.558221 -0.978239 -0.419245 2.341805152028776e-38
1.551783 -0.986622 -0.418977 2.341805152028776e-38
1.546121 -0.995497 -0.418919 2.341805152028776e-38
1.540346 -1.004423 -0.418885 2.341805152028776e-38
1.536139 -1.014406 -0.419288 2.341805152028776e-38
1.528625 -1.022211 -0.418791 2.341805152028776e-38
1.522688 -1.031060 -0.418728 2.341805152028776e-38
1.520720 -1.042637 -0.419763 2.341805152028776e-38
1.515431 -1.052047 -0.419916 2.341805152028776e-38
1.505259 -1.058120 -0.418745 2.341805152028776e-38
1.495067 -1.064114 -0.417564 2.341805152028776e-38
1.486440 -1.071169 -0.416815 2.341805152028776e-38
1.482508 -1.081612 -0.417385 2.341805152028776e-38
1.476928 -1.090900 -0.417505 2.341805152028776e-38
1.468098 -1.097908 -0.416757 2.341805152028776e-38
1.462346 -1.107209 -0.416884 2.341805152028776e-38
1.456537 -1.116484 -0.417000 2.341805152028776e-38
1.446816 -1.122744 -0.415997 2.341805152028776e-38
1.441674 -1.132546 -0.416311 2.341805152028776e-38
1.432591 -1.139362 -0.415532 2.341805152028776e-38
1.429535 -1.151028 -0.416520 2.341805152028776e-38
1.421099 -1.158389 -0.415947 2.341805152028776e-38
1.420149 -1.171901 -0.417574 2.341805152028776e-38
1.409358 -1.177319 -0.416314 2.341805152028776e-38
1.400006 -1.183952 -0.415500 2.341805152028776e-38
1.395025 -1.194372 -0.416017 2.341805152028776e-38
1.395128 -1.209250 -0.418068 2.341805152028776e-38
1.387038 -1.217102 -0.417677 2.341805152028776e-38
1.375258 -1.221664 -0.416171 2.341805152028776e-38
1.362736 -1.225493 -0.414439 2.341805152028776e-38
1.353031 -1.231915 -0.413603 2.341805152028776e-38
1.345451 -1.240252 -0.413417 2.341805152028776e-38
1.340672 -1.251207 -0.414101 2.341805152028776e-38
1.332264 -1.258805 -0.413671 2.341805152028776e-38
1.328044 -1.270395 -0.414550 2.341805152028776e-38
1.321550 -1.280023 -0.414781 2.341805152028776e-38
1.316372 -1.290997 -0.415442 2.341805152028776e-38
1.309723 -1.300586 -0.415651 2.341805152028776e-38
1.307135 -1.314295 -0.417165 2.341805152028776e-38
1.294173 -1.317585 -0.415374 2.341805152028776e-38
1.627231 -0.851911 -0.428209 2.341805152028776e-38
1.628479 -0.864155 -0.429815 2.341805152028776e-38
1.625353 -0.874138 -0.430275 2.341805152028776e-38
1.620455 -0.883187 -0.430270 2.341805152028776e-38
1.616359 -0.892684 -0.430482 2.341805152028776e-38
1.613890 -0.903144 -0.431149 2.341805152028776e-38
1.607920 -0.911755 -0.430929 2.341805152028776e-38
1.599371 -0.918877 -0.430016 2.341805152028776e-38
1.591635 -0.926426 -0.429319 2.341805152028776e-38
1.586381 -0.935407 -0.429293 2.341805152028776e-38
1.582748 -0.945361 -0.429709 2.341805152028776e-38
1.576503 -0.953866 -0.429466 2.341805152028776e-38
1.569367 -0.961849 -0.428993 2.341805152028776e-38
1.563846 -0.970813 -0.428964 2.341805152028776e-38
1.554975 -0.977677 -0.428015 2.341805152028776e-38
1.547721 -0.985521 -0.427509 2.341805152028776e-38
1.539588 -0.992819 -0.426778 2.341805152028776e-38
1.535451 -1.002787 -0.427196 2.341805152028776e-38
1.530438 -1.012207 -0.427376 2.341805152028776e-38
1.526177 -1.022150 -0.427772 2.341805152028776e-38
1.521046 -1.031535 -0.427929 2.341805152028776e-38
1.515858 -1.040899 -0.428075 2.341805152028776e-38
1.509748 -1.049765 -0.428016 2.341805152028776e-38
1.501985 -1.057490 -0.427496 2.341805152028776e-38
1.491804 -1.063468 -0.426285 2.341805152028776e-38
1.487133 -1.073357 -0.426648 2.341805152028776e-38
1.482398 -1.083233 -0.427000 2.341805152028776e-38
1.470513 -1.087923 -0.425320 2.341805152028776e-38
1.466383 -1.098401 -0.425910 2.341805152028776e-38
1.459851 -1.107105 -0.425810 2.341805152028776e-38
1.454813 -1.116962 -0.426150 2.341805152028776e-38
1.446633 -1.124411 -0.425574 2.341805152028776e-38
1.442234 -1.134829 -0.426122 2.341805152028776e-38
1.434645 -1.142888 -0.425782 2.341805152028776e-38
1.427770 -1.151511 -0.425656 2.341805152028776e-38
1.421598 -1.160714 -0.425744 2.341805152028776e-38
1.414616 -1.169267 -0.425595 2.341805152028776e-38
1.406837 -1.177157 -0.425209 2.341805152028776e-38
1.397460 -1.183809 -0.424384 2.341805152028776e-38
1.391736 -1.193582 -0.424683 2.341805152028776e-38
1.390359 -1.207166 -0.426323 2.341805152028776e-38
1.380088 -1.213063 -0.425243 2.341805152028776e-38
1.370524 -1.219530 -0.424379 2.341805152028776e-38
1.358719 -1.224016 -0.422842 2.341805152028776e-38
1.350467 -1.231732 -0.422435 2.341805152028776e-38
1.345752 -1.242700 -0.423142 2.341805152028776e-38
1.335258 -1.248338 -0.422036 2.341805152028776e-38
1.329700 -1.258585 -0.422493 2.341805152028776e-38
1.327566 -1.272204 -0.424068 2.341805152028776e-38
1.324545 -1.285235 -0.425426 2.341805152028776e-38
1.318633 -1.295549 -0.425873 2.341805152028776e-38
1.312645 -1.305843 -0.426306 2.341805152028776e-38
1.308640 -1.318191 -0.427400 2.341805152028776e-38
1.294980 -1.320801 -0.425343 2.341805152028776e-38
1.621373 -0.850123 -0.436307 2.341805152028776e-38
1.623481 -0.862794 -0.438173 2.341805152028776e-38
1.621216 -0.873213 -0.438869 2.341805152028776e-38
1.618885 -0.883640 -0.439554 2.341805152028776e-38
1.615637 -0.893602 -0.439997 2.341805152028776e-38
1.612280 -0.903630 -0.440463 2.341805152028776e-38
1.605462 -0.911753 -0.440000 2.341805152028776e-38
1.596075 -0.918379 -0.438831 2.341805152028776e-38
1.590026 -0.926892 -0.438578 2.341805152028776e-38
1.586445 -0.936856 -0.439010 2.341805152028776e-38
1.581117 -0.945835 -0.438976 2.341805152028776e-38
1.573192 -0.953347 -0.438268 2.341805152028776e-38
1.567719 -0.962331 -0.438244 2.341805152028776e-38
1.560543 -0.970261 -0.437746 2.341805152028776e-38
1.551681 -0.977109 -0.436772 2.341805152028776e-38
1.543612 -0.984415 -0.436019 2.341805152028776e-38
1.537911 -0.993315 -0.435980 2.341805152028776e-38
1.532955 -1.002743 -0.436171 2.341805152028776e-38
1.529563 -1.013227 -0.436813 2.341805152028776e-38
1.526101 -1.023709 -0.437444 2.341805152028776e-38
1.519350 -1.032003 -0.437137 2.341805152028776e-38
1.514136 -1.041387 -0.437293 2.341805152028776e-38
1.506418 -1.049145 -0.436769 2.341805152028776e-38
1.497866 -1.056293 -0.436002 2.341805152028776e-38
1.491658 -1.065077 -0.435918 2.341805152028776e-38
1.487763 -1.075539 -0.436516 2.341805152028776e-38
1.482227 -1.084846 -0.436639 2.341805152028776e-38
1.469531 -1.088996 -0.434702 2.341805152028776e-38
1.461499 -1.096551 -0.434145 2.341805152028776e-38
1.456528 -1.106407 -0.434500 2.341805152028776e-38
1.450720 -1.115655 -0.434612 2.341805152028776e-38
1.446389 -1.126071 -0.435175 2.341805152028776e-38
1.438889 -1.134116 -0.434819 2.341805152028776e-38
1.430546 -1.141551 -0.434237 2.341805152028776e-38
1.425949 -1.151988 -0.434797 2.341805152028776e-38
1.419020 -1.160567 -0.434652 2.341805152028776e-38
1.414288 -1.170970 -0.435188 2.341805152028776e-38
1.407231 -1.179501 -0.435025 2.341805152028776e-38
1.398570 -1.186807 -0.434416 2.341805152028776e-38
1.390611 -1.194688 -0.434025 2.341805152028776e-38
1.382608 -1.202521 -0.433623 2.341805152028776e-38
1.375292 -1.210947 -0.433439 2.341805152028776e-38
1.366472 -1.218037 -0.432783 2.341805152028776e-38
1.359712 -1.227097 -0.432830 2.341805152028776e-38
1.352879 -1.236135 -0.432870 2.341805152028776e-38
1.342415 -1.241835 -0.431749 2.341805152028776e-38
1.335485 -1.250784 -0.431765 2.341805152028776e-38
1.329908 -1.261037 -0.432228 2.341805152028776e-38
1.330525 -1.277385 -0.434759 2.341805152028776e-38
1.326066 -1.289081 -0.435682 2.341805152028776e-38
1.320127 -1.299408 -0.436134 2.341805152028776e-38
1.311352 -1.306967 -0.435656 2.341805152028776e-38
1.310758 -1.322768 -0.437913 2.341805152028776e-38
1.294331 -1.322637 -0.434901 2.341805152028776e-38
1.619776 -0.850589 -0.445547 2.341805152028776e-38
1.621871 -0.863254 -0.447446 2.341805152028776e-38
1.619600 -0.873667 -0.448150 2.341805152028776e-38
1.617262 -0.884087 -0.448844 2.341805152028776e-38
1.613143 -0.893596 -0.449066 2.341805152028776e-38
1.609768 -0.903634 -0.449547 2.341805152028776e-38
1.607176 -0.914148 -0.450252 2.341805152028776e-38
1.595257 -0.919331 -0.448343 2.341805152028776e-38
1.588365 -0.927352 -0.447843 2.341805152028776e-38
1.583106 -0.936320 -0.447805 2.341805152028776e-38
1.577750 -0.945326 -0.447786 2.341805152028776e-38
1.573154 -0.954838 -0.448005 2.341805152028776e-38
1.566017 -0.962807 -0.447502 2.341805152028776e-38
1.557191 -0.969703 -0.446515 2.341805152028776e-38
1.550803 -0.978090 -0.446226 2.341805152028776e-38
1.539445 -0.983319 -0.444514 2.341805152028776e-38
1.534548 -0.992750 -0.444716 2.341805152028776e-38
1.530406 -1.002694 -0.445142 2.341805152028776e-38
1.529439 -1.014777 -0.446502 2.341805152028776e-38
1.523545 -1.023636 -0.446432 2.341805152028776e-38
1.516796 -1.031919 -0.446113 2.341805152028776e-38
1.509150 -1.039676 -0.445575 2.341805152028776e-38
1.502241 -1.047964 -0.445272 2.341805152028776e-38
1.492907 -1.054530 -0.444249 2.341805152028776e-38
1.491451 -1.066679 -0.445575 2.341805152028776e-38
1.493053 -1.081133 -0.447833 2.341805152028776e-38
1.485109 -1.088778 -0.447257 2.341805152028776e-38
1.469271 -1.090641 -0.444335 2.341805152028776e-38
1.459678 -1.097031 -0.443290 2.341805152028776e-38
1.453928 -1.106291 -0.443412 2.341805152028776e-38
1.448119 -1.115527 -0.443523 2.341805152028776e-38
1.439954 -1.122943 -0.442914 2.341805152028776e-38
1.436257 -1.133998 -0.443738 2.341805152028776e-38
1.429435 -1.142635 -0.443611 2.341805152028776e-38
1.424073 -1.152457 -0.443943 2.341805152028776e-38
1.414885 -1.159181 -0.443085 2.341805152028776e-38
1.416890 -1.175147 -0.445745 2.341805152028776e-38
1.406055 -1.180606 -0.444411 2.341805152028776e-38
1.398131 -1.188537 -0.444020 2.341805152028776e-38
1.385742 -1.192616 -0.442206 2.341805152028776e-38
1.378486 -1.201062 -0.442026 2.341805152028776e-38
1.368263 -1.206895 -0.440895 2.341805152028776e-38
1.365253 -1.219145 -0.442107 2.341805152028776e-38
1.356309 -1.226257 -0.441453 2.341805152028776e-38
1.350197 -1.235935 -0.441724 2.341805152028776e-38
1.346870 -1.248232 -0.442921 2.341805152028776e-38
1.344153 -1.261203 -0.444338 2.341805152028776e-38
1.332164 -1.265488 -0.442697 2.341805152028776e-38
1.327801 -1.277164 -0.443646 2.341805152028776e-38
1.319158 -1.284776 -0.443181 2.341805152028776e-38
1.315317 -1.297113 -0.444340 2.341805152028776e-38
1.305182 -1.303273 -0.443382 2.341805152028776e-38
1.304595 -1.319039 -0.445682 2.341805152028776e-38
1.284102 -1.314729 -0.441214 2.341805152028776e-38
1.618985 -0.851501 -0.455035 2.341805152028776e-38
1.621921 -0.864621 -0.457208 2.341805152028776e-38
1.618784 -0.874576 -0.457680 2.341805152028776e-38
1.616438 -0.884995 -0.458382 2.341805152028776e-38
1.610583 -0.893606 -0.458143 2.341805152028776e-38
1.608051 -0.904108 -0.458869 2.341805152028776e-38
1.597864 -0.910292 -0.457410 2.341805152028776e-38
1.592701 -0.919306 -0.457389 2.341805152028776e-38
1.587487 -0.928297 -0.457356 2.341805152028776e-38
1.585551 -0.939258 -0.458285 2.341805152028776e-38
1.579326 -0.947808 -0.458032 2.341805152028776e-38
1.570568 -0.954811 -0.457042 2.341805152028776e-38
1.562608 -0.962260 -0.456283 2.341805152028776e-38
1.555438 -0.970167 -0.455753 2.341805152028776e-38
1.542485 -0.974401 -0.453523 2.341805152028776e-38
1.534396 -0.981718 -0.452756 2.341805152028776e-38
1.531950 -0.992706 -0.453680 2.341805152028776e-38
1.531863 -1.005300 -0.455315 2.341805152028776e-38
1.528448 -1.015784 -0.455974 2.341805152028776e-38
1.522547 -1.024641 -0.455897 2.341805152028776e-38
1.514981 -1.032389 -0.455333 2.341805152028776e-38
1.506516 -1.039612 -0.454549 2.341805152028776e-38
1.498018 -1.046776 -0.453753 2.341805152028776e-38
1.493450 -1.056684 -0.454149 2.341805152028776e-38
1.491973 -1.068841 -0.455497 2.341805152028776e-38
1.489619 -1.080451 -0.456592 2.341805152028776e-38
1.476175 -1.084094 -0.454330 2.341805152028776e-38
1.466613 -1.090542 -0.453271 2.341805152028776e-38
1.459352 -1.098671 -0.452922 2.341805152028776e-38
1.450503 -1.105580 -0.452079 2.341805152028776e-38
1.444697 -1.114799 -0.452187 2.341805152028776e-38
1.438810 -1.124018 -0.452294 2.341805152028776e-38
1.432048 -1.132669 -0.452172 2.341805152028776e-38
1.426750 -1.142498 -0.452519 2.341805152028776e-38
1.419123 -1.150474 -0.452132 2.341805152028776e-38
1.414454 -1.160868 -0.452694 2.341805152028776e-38
1.411205 -1.172492 -0.453723 2.341805152028776e-38
1.400362 -1.177953 -0.452370 2.341805152028776e-38
1.393934 -1.187113 -0.452447 2.341805152028776e-38
1.383770 -1.193073 -0.451312 2.341805152028776e-38
1.377974 -1.202788 -0.451604 2.341805152028776e-38
1.369201 -1.209909 -0.450925 2.341805152028776e-38
1.361791 -1.218314 -0.450732 2.341805152028776e-38
1.354294 -1.226714 -0.450538 2.341805152028776e-38
1.353186 -1.240977 -0.452486 2.341805152028776e-38
1.348396 -1.251975 -0.453224 2.341805152028776e-38
1.338571 -1.258309 -0.452275 2.341805152028776e-38
1.327992 -1.263924 -0.451083 2.341805152028776e-38
1.321526 -1.273565 -0.451333 2.341805152028776e-38
1.315686 -1.283856 -0.451810 2.341805152028776e-38
1.307007 -1.291398 -0.451319 2.341805152028776e-38
1.299659 -1.300258 -0.451292 2.341805152028776e-38
1.295663 -1.312537 -0.452445 2.341805152028776e-38
1.280629 -1.313770 -0.449799 2.341805152028776e-38
1.623284 -0.855118 -0.466017 2.341805152028776e-38
1.623622 -0.866895 -0.467488 2.341805152028776e-38
1.619617 -0.876402 -0.467717 2.341805152028776e-38
1.613839 -0.884991 -0.467457 2.341805152028776e-38
1.605430 -0.892198 -0.466479 2.341805152028776e-38
1.599524 -0.900771 -0.466228 2.341805152028776e-38
1.597782 -0.911714 -0.467197 2.341805152028776e-38
1.592611 -0.920731 -0.467169 2.341805152028776e-38
1.586553 -0.929235 -0.466884 2.341805152028776e-38
1.580406 -0.937765 -0.466617 2.341805152028776e-38
1.576683 -0.947787 -0.467091 2.341805152028776e-38
1.568759 -0.955282 -0.466323 2.341805152028776e-38
1.561625 -0.963233 -0.465789 2.341805152028776e-38
1.551164 -0.969084 -0.464259 2.341805152028776e-38
1.544775 -0.977453 -0.463953 2.341805152028776e-38
1.536648 -0.984819 -0.463180 2.341805152028776e-38
1.531739 -0.994239 -0.463378 2.341805152028776e-38
1.530013 -1.005771 -0.464549 2.341805152028776e-38
1.525785 -1.015710 -0.464969 2.341805152028776e-38
1.518277 -1.023471 -0.464394 2.341805152028776e-38
1.510688 -1.031237 -0.463832 2.341805152028776e-38
1.502234 -1.038439 -0.463027 2.341805152028776e-38
1.497718 -1.048361 -0.463439 2.341805152028776e-38
1.491556 -1.057150 -0.463347 2.341805152028776e-38
1.486918 -1.067038 -0.463734 2.341805152028776e-38
1.479852 -1.075215 -0.463377 2.341805152028776e-38
1.473458 -1.084001 -0.463287 2.341805152028776e-38
1.463901 -1.090436 -0.462201 2.341805152028776e-38
1.456643 -1.098553 -0.461841 2.341805152028776e-38
1.452422 -1.108980 -0.462449 2.341805152028776e-38
1.445061 -1.117028 -0.462064 2.341805152028776e-38
1.436073 -1.123899 -0.461202 2.341805152028776e-38
1.430831 -1.133742 -0.461563 2.341805152028776e-38
1.424011 -1.142354 -0.461421 2.341805152028776e-38
1.420902 -1.153985 -0.462492 2.341805152028776e-38
1.410965 -1.160083 -0.461346 2.341805152028776e-38
1.405452 -1.169856 -0.461667 2.341805152028776e-38
1.396110 -1.176543 -0.460775 2.341805152028776e-38
1.393377 -1.188828 -0.462073 2.341805152028776e-38
1.382474 -1.194155 -0.460667 2.341805152028776e-38
1.378129 -1.205143 -0.461449 2.341805152028776e-38
1.367893 -1.210984 -0.460263 2.341805152028776e-38
1.364055 -1.222654 -0.461294 2.341805152028776e-38
1.355095 -1.229769 -0.460604 2.341805152028776e-38
1.352526 -1.242729 -0.462098 2.341805152028776e-38
1.341329 -1.247781 -0.460650 2.341805152028776e-38
1.335064 -1.257401 -0.460898 2.341805152028776e-38
1.323763 -1.262361 -0.459446 2.341805152028776e-38
1.319397 -1.274001 -0.460428 2.341805152028776e-38
1.310082 -1.280893 -0.459693 2.341805152028776e-38
1.306248 -1.293182 -0.460892 2.341805152028776e-38
1.296832 -1.299983 -0.460131 2.341805152028776e-38
1.293482 -1.312964 -0.461554 2.341805152028776e-38
1.276427 -1.312107 -0.458125 2.341805152028776e-38
1.627978 -0.847408 -0.475817 2.341805152028776e-38
1.622374 -0.856018 -0.475565 2.341805152028776e-38
1.618430 -0.865511 -0.475804 2.341805152028776e-38
1.617836 -0.876837 -0.477036 2.341805152028776e-38
1.611175 -0.885001 -0.476539 2.341805152028776e-38
1.604463 -0.893138 -0.476038 2.341805152028776e-38
1.598554 -0.901709 -0.475776 2.341805152028776e-38
1.595960 -0.912169 -0.476506 2.341805152028776e-38
1.589111 -0.920210 -0.475971 2.341805152028776e-38
1.585551 -0.930183 -0.476435 2.341805152028776e-38
1.579378 -0.938738 -0.476172 2.341805152028776e-38
1.573989 -0.947759 -0.476147 2.341805152028776e-38
1.566069 -0.955243 -0.475358 2.341805152028776e-38
1.563879 -0.966235 -0.476313 2.341805152028776e-38
1.555871 -0.973643 -0.475500 2.341805152028776e-38
1.548607 -0.981567 -0.474952 2.341805152028776e-38
1.538016 -0.987389 -0.473406 2.341805152028776e-38
1.533091 -0.996821 -0.473603 2.341805152028776e-38
1.526492 -1.005170 -0.473286 2.341805152028776e-38
1.524680 -1.016703 -0.474461 2.341805152028776e-38
1.516364 -1.023926 -0.473622 2.341805152028776e-38
1.511143 -1.033359 -0.473811 2.341805152028776e-38
1.505069 -1.042220 -0.473736 2.341805152028776e-38
1.500528 -1.052163 -0.474150 2.341805152028776e-38
1.492765 -1.059851 -0.473550 2.341805152028776e-38
1.488108 -1.069750 -0.473940 2.341805152028776e-38
1.478647 -1.076267 -0.472837 2.341805152028776e-38
1.470687 -1.083900 -0.472239 2.341805152028776e-38
1.464241 -1.092640 -0.472128 2.341805152028776e-38
1.460834 -1.103681 -0.473006 2.341805152028776e-38
1.452733 -1.111195 -0.472371 2.341805152028776e-38
1.446881 -1.120447 -0.472477 2.341805152028776e-38
1.437854 -1.127357 -0.471604 2.341805152028776e-38
1.433347 -1.137817 -0.472216 2.341805152028776e-38
1.427257 -1.147055 -0.472317 2.341805152028776e-38
1.421860 -1.156876 -0.472654 2.341805152028776e-38
1.411164 -1.162369 -0.471231 2.341805152028776e-38
1.404114 -1.170941 -0.471068 2.341805152028776e-38
1.396249 -1.178874 -0.470653 2.341805152028776e-38
1.392020 -1.189905 -0.471472 2.341805152028776e-38
1.377458 -1.192061 -0.468788 2.341805152028776e-38
1.373847 -1.203661 -0.469830 2.341805152028776e-38
1.366496 -1.212080 -0.469625 2.341805152028776e-38
1.361919 -1.223102 -0.470424 2.341805152028776e-38
1.353676 -1.230860 -0.469965 2.341805152028776e-38
1.349665 -1.242503 -0.470985 2.341805152028776e-38
1.337769 -1.246883 -0.469257 2.341805152028776e-38
1.335028 -1.259810 -0.470748 2.341805152028776e-38
1.322287 -1.263467 -0.468777 2.341805152028776e-38
1.317906 -1.275102 -0.469774 2.341805152028776e-38
1.312048 -1.285380 -0.470261 2.341805152028776e-38
1.307489 -1.297003 -0.471229 2.341805152028776e-38
1.297369 -1.303131 -0.470202 2.341805152028776e-38
1.295314 -1.317530 -0.472152 2.341805152028776e-38
1.278250 -1.316691 -0.468653 2.341805152028776e-38
1.647589 -0.859030 -0.491531 2.341805152028776e-38
1.622262 -0.857363 -0.485386 2.341805152028776e-38
1.619162 -0.867316 -0.485878 2.341805152028776e-38
1.614279 -0.876377 -0.485867 2.341805152028776e-38
1.607613 -0.884538 -0.485362 2.341805152028776e-38
1.600906 -0.892659 -0.484845 2.341805152028776e-38
1.595001 -0.901214 -0.484572 2.341805152028776e-38
1.592407 -0.911658 -0.485310 2.341805152028776e-38
1.588908 -0.921622 -0.485781 2.341805152028776e-38
1.582803 -0.930173 -0.485505 2.341805152028776e-38
1.575801 -0.938222 -0.484975 2.341805152028776e-38
1.567931 -0.945728 -0.484177 2.341805152028776e-38
1.565802 -0.956710 -0.485156 2.341805152028776e-38
1.560310 -0.965668 -0.485101 2.341805152028776e-38
1.553942 -0.974095 -0.484782 2.341805152028776e-38
1.545834 -0.981529 -0.483980 2.341805152028776e-38
1.537692 -0.988907 -0.483165 2.341805152028776e-38
1.529516 -0.996230 -0.482338 2.341805152028776e-38
1.526957 -1.007224 -0.483287 2.341805152028776e-38
1.520302 -1.015541 -0.482946 2.341805152028776e-38
1.512764 -1.023325 -0.482360 2.341805152028776e-38
1.505951 -1.031648 -0.482036 2.341805152028776e-38
1.502270 -1.042136 -0.482721 2.341805152028776e-38
1.496144 -1.050954 -0.482627 2.341805152028776e-38
1.488391 -1.058621 -0.482011 2.341805152028776e-38
1.481383 -1.066805 -0.481638 2.341805152028776e-38
1.475038 -1.075602 -0.481546 2.341805152028776e-38
1.465530 -1.082070 -0.480421 2.341805152028776e-38
1.460644 -1.091941 -0.480813 2.341805152028776e-38
1.453379 -1.100046 -0.480428 2.341805152028776e-38
1.449908 -1.111050 -0.481305 2.341805152028776e-38
1.443259 -1.119732 -0.481170 2.341805152028776e-38
1.435762 -1.127820 -0.480784 2.341805152028776e-38
1.429734 -1.137068 -0.480894 2.341805152028776e-38
1.422894 -1.145682 -0.480737 2.341805152028776e-38
1.417501 -1.155481 -0.481076 2.341805152028776e-38
1.407557 -1.161580 -0.479880 2.341805152028776e-38
1.400489 -1.170158 -0.479720 2.341805152028776e-38
1.394107 -1.179322 -0.479800 2.341805152028776e-38
1.385462 -1.186570 -0.479106 2.341805152028776e-38
1.375319 -1.192494 -0.477891 2.341805152028776e-38
1.368791 -1.201532 -0.477933 2.341805152028776e-38
1.362866 -1.211243 -0.478240 2.341805152028776e-38
1.355412 -1.219658 -0.478035 2.341805152028776e-38
1.349337 -1.229336 -0.478323 2.341805152028776e-38
1.347461 -1.242924 -0.480119 2.341805152028776e-38
1.347590 -1.258522 -0.482659 2.341805152028776e-38
1.336300 -1.263568 -0.481145 2.341805152028776e-38
1.325642 -1.269247 -0.479892 2.341805152028776e-38
1.317049 -1.276867 -0.479385 2.341805152028776e-38
1.313246 -1.289177 -0.480634 2.341805152028776e-38
1.305911 -1.298084 -0.480606 2.341805152028776e-38
1.297150 -1.305583 -0.480060 2.341805152028776e-38
1.293002 -1.317940 -0.481295 2.341805152028776e-38
1.277977 -1.319179 -0.478482 2.341805152028776e-38
1.646535 -0.859919 -0.501236 2.341805152028776e-38
1.624651 -0.860057 -0.496012 2.341805152028776e-38
1.617279 -0.867745 -0.495205 2.341805152028776e-38
1.610663 -0.875925 -0.494693 2.341805152028776e-38
1.604002 -0.884070 -0.494172 2.341805152028776e-38
1.596459 -0.891702 -0.493379 2.341805152028776e-38
1.593081 -0.901663 -0.493876 2.341805152028776e-38
1.587129 -0.910178 -0.493579 2.341805152028776e-38
1.586126 -0.921592 -0.494845 2.341805152028776e-38
1.578339 -0.929177 -0.494050 2.341805152028776e-38
1.573004 -0.938194 -0.494025 2.341805152028776e-38
1.565965 -0.946187 -0.493466 2.341805152028776e-38
1.563004 -0.956657 -0.494197 2.341805152028776e-38
1.556692 -0.965095 -0.493875 2.341805152028776e-38
1.551929 -0.974575 -0.494087 2.341805152028776e-38
1.542194 -0.980965 -0.492743 2.341805152028776e-38
1.532436 -0.987281 -0.491386 2.341805152028776e-38
1.525892 -0.995632 -0.491059 2.341805152028776e-38
1.520914 -1.005012 -0.491239 2.341805152028776e-38
1.514273 -1.013300 -0.490887 2.341805152028776e-38
1.508316 -1.022176 -0.490825 2.341805152028776e-38
1.501511 -1.030477 -0.490489 2.341805152028776e-38
1.498625 -1.041494 -0.491441 2.341805152028776e-38
1.491713 -1.049739 -0.491080 2.341805152028776e-38
1.486330 -1.059066 -0.491226 2.341805152028776e-38
1.480070 -1.067846 -0.491119 2.341805152028776e-38
1.472159 -1.075500 -0.490500 2.341805152028776e-38
1.461881 -1.081380 -0.489089 2.341805152028776e-38
1.459315 -1.092971 -0.490263 2.341805152028776e-38
1.449738 -1.099323 -0.489087 2.341805152028776e-38
1.444733 -1.109133 -0.489455 2.341805152028776e-38
1.438061 -1.117826 -0.489329 2.341805152028776e-38
1.433613 -1.128276 -0.489968 2.341805152028776e-38
1.430602 -1.139922 -0.491113 2.341805152028776e-38
1.422241 -1.147333 -0.490429 2.341805152028776e-38
1.413843 -1.154690 -0.489732 2.341805152028776e-38
1.405365 -1.162037 -0.489043 2.341805152028776e-38
1.396813 -1.169367 -0.488356 2.341805152028776e-38
1.391908 -1.179763 -0.488951 2.341805152028776e-38
1.381797 -1.185744 -0.487721 2.341805152028776e-38
1.375312 -1.194818 -0.487772 2.341805152028776e-38
1.367306 -1.202597 -0.487298 2.341805152028776e-38
1.358463 -1.209755 -0.486580 2.341805152028776e-38
1.348866 -1.216208 -0.485592 2.341805152028776e-38
1.350657 -1.233014 -0.488722 2.341805152028776e-38
1.357260 -1.254485 -0.493642 2.341805152028776e-38
1.350247 -1.263545 -0.493643 2.341805152028776e-38
1.338197 -1.267981 -0.491850 2.341805152028776e-38
1.324032 -1.270333 -0.489280 2.341805152028776e-38
1.315434 -1.277948 -0.488759 2.341805152028776e-38
1.308860 -1.287543 -0.488997 2.341805152028776e-38
1.301534 -1.296428 -0.488964 2.341805152028776e-38
1.298194 -1.309425 -0.490472 2.341805152028776e-38
1.294688 -1.322483 -0.491982 2.341805152028776e-38
1.274276 -1.318182 -0.487057 2.341805152028776e-38
1.639444 -0.857673 -0.509100 2.341805152028776e-38
1.621009 -0.859583 -0.504834 2.341805152028776e-38
1.612763 -0.866842 -0.503767 2.341805152028776e-38
1.607845 -0.875928 -0.503772 2.341805152028776e-38
1.603720 -0.885458 -0.504030 2.341805152028776e-38
1.596173 -0.893093 -0.503215 2.341805152028776e-38
1.588591 -0.900678 -0.502388 2.341805152028776e-38
1.585154 -0.910614 -0.502876 2.341805152028776e-38
1.581606 -0.920611 -0.503389 2.341805152028776e-38
1.575490 -0.929154 -0.503103 2.341805152028776e-38
1.568500 -0.937169 -0.502540 2.341805152028776e-38
1.563945 -0.946639 -0.502760 2.341805152028776e-38
1.556044 -0.954077 -0.501908 2.341805152028776e-38
1.553837 -0.965032 -0.502904 2.341805152028776e-38
1.548230 -0.974022 -0.502867 2.341805152028776e-38
1.538505 -0.980394 -0.501492 2.341805152028776e-38
1.527948 -0.986170 -0.499840 2.341805152028776e-38
1.523026 -0.995555 -0.500030 2.341805152028776e-38
1.518851 -1.005455 -0.500473 2.341805152028776e-38
1.514577 -1.015388 -0.500924 2.341805152028776e-38
1.507012 -1.023186 -0.500325 2.341805152028776e-38
1.500203 -1.031484 -0.499977 2.341805152028776e-38
1.495722 -1.041395 -0.500411 2.341805152028776e-38
1.489601 -1.050184 -0.500302 2.341805152028776e-38
1.482643 -1.058382 -0.499917 2.341805152028776e-38
1.474790 -1.066055 -0.499291 2.341805152028776e-38
1.468449 -1.074821 -0.499185 2.341805152028776e-38
1.462832 -1.084129 -0.499329 2.341805152028776e-38
1.453299 -1.090520 -0.498139 2.341805152028776e-38
1.447582 -1.099759 -0.498258 2.341805152028776e-38
1.440245 -1.107833 -0.497852 2.341805152028776e-38
1.436623 -1.118875 -0.498775 2.341805152028776e-38
1.429135 -1.126932 -0.498364 2.341805152028776e-38
1.423863 -1.136750 -0.498732 2.341805152028776e-38
1.416275 -1.144732 -0.498295 2.341805152028776e-38
1.410882 -1.154502 -0.498637 2.341805152028776e-38
1.400145 -1.160025 -0.497154 2.341805152028776e-38
1.393825 -1.169188 -0.497241 2.341805152028776e-38
1.387446 -1.178321 -0.497314 2.341805152028776e-38
1.380277 -1.186797 -0.497111 2.341805152028776e-38
1.371601 -1.193966 -0.496368 2.341805152028776e-38
1.361396 -1.199847 -0.495104 2.341805152028776e-38
1.352572 -1.206975 -0.494370 2.341805152028776e-38
1.350156 -1.219864 -0.495989 2.341805152028776e-38
1.347633 -1.232775 -0.497593 2.341805152028776e-38
1.348542 -1.248985 -0.500496 2.341805152028776e-38
1.342252 -1.258669 -0.500761 2.341805152028776e-38
1.331620 -1.264410 -0.499464 2.341805152028776e-38
1.317492 -1.266727 -0.496844 2.341805152028776e-38
1.309610 -1.274981 -0.496571 2.341805152028776e-38
1.303051 -1.284545 -0.496810 2.341805152028776e-38
1.297790 -1.295444 -0.497558 2.341805152028776e-38
1.292375 -1.306394 -0.498315 2.341805152028776e-38
1.289551 -1.320111 -0.500110 2.341805152028776e-38
1.272534 -1.319260 -0.496399 2.341805152028776e-38
1.639992 -0.859442 -0.519342 2.341805152028776e-38
1.619863 -0.860466 -0.514458 2.341805152028776e-38
1.611590 -0.867763 -0.513388 2.341805152028776e-38
1.606667 -0.876845 -0.513386 2.341805152028776e-38
1.600007 -0.884975 -0.512832 2.341805152028776e-38
1.593307 -0.893065 -0.512266 2.341805152028776e-38
1.586567 -0.901113 -0.511688 2.341805152028776e-38
1.582269 -0.910590 -0.511924 2.341805152028776e-38
1.577041 -0.919624 -0.511909 2.341805152028776e-38
1.573419 -0.929614 -0.512421 2.341805152028776e-38
1.568908 -0.939105 -0.512652 2.341805152028776e-38
1.562693 -0.947583 -0.512330 2.341805152028776e-38
1.557253 -0.956531 -0.512265 2.341805152028776e-38
1.550902 -0.964998 -0.511947 2.341805152028776e-38
1.542851 -0.972434 -0.511093 2.341805152028776e-38
1.536390 -0.980853 -0.510767 2.341805152028776e-38
1.529883 -0.989235 -0.510427 2.341805152028776e-38
1.524136 -0.998109 -0.510345 2.341805152028776e-38
1.520746 -1.008551 -0.511060 2.341805152028776e-38
1.514017 -1.016931 -0.510725 2.341805152028776e-38
1.503261 -1.022565 -0.509030 2.341805152028776e-38
1.497250 -1.031391 -0.508940 2.341805152028776e-38
1.491977 -1.040738 -0.509106 2.341805152028776e-38
1.486646 -1.050066 -0.509259 2.341805152028776e-38
1.478877 -1.057726 -0.508609 2.341805152028776e-38
1.473366 -1.067080 -0.508777 2.341805152028776e-38
1.467019 -1.075843 -0.508662 2.341805152028776e-38
1.461395 -1.085147 -0.508804 2.341805152028776e-38
1.453402 -1.092692 -0.508124 2.341805152028776e-38
1.447670 -1.101936 -0.508240 2.341805152028776e-38
1.441049 -1.110642 -0.508108 2.341805152028776e-38
1.434367 -1.119323 -0.507966 2.341805152028776e-38
1.424610 -1.125580 -0.506735 2.341805152028776e-38
1.421600 -1.137181 -0.507911 2.341805152028776e-38
1.414010 -1.145155 -0.507461 2.341805152028776e-38
1.410814 -1.156781 -0.508624 2.341805152028776e-38
1.399327 -1.161697 -0.506841 2.341805152028776e-38
1.390784 -1.169000 -0.506119 2.341805152028776e-38
1.384404 -1.178120 -0.506189 2.341805152028776e-38
1.380885 -1.189727 -0.507317 2.341805152028776e-38
1.368564 -1.193739 -0.505216 2.341805152028776e-38
1.359055 -1.200279 -0.504206 2.341805152028776e-38
1.353105 -1.209966 -0.504525 2.341805152028776e-38
1.347087 -1.219631 -0.504829 2.341805152028776e-38
1.341713 -1.229923 -0.505387 2.341805152028776e-38
1.342620 -1.246100 -0.508337 2.341805152028776e-38
1.334203 -1.253805 -0.507814 2.341805152028776e-38
1.325004 -1.260830 -0.507024 2.341805152028776e-38
1.314383 -1.266457 -0.505688 2.341805152028776e-38
1.308572 -1.276716 -0.506207 2.341805152028776e-38
1.299942 -1.284247 -0.505644 2.341805152028776e-38
1.291255 -1.291737 -0.505074 2.341805152028776e-38
1.287190 -1.304041 -0.506380 2.341805152028776e-38
1.289750 -1.323251 -0.510332 2.341805152028776e-38
1.272066 -1.321716 -0.506284 2.341805152028776e-38
1.696479 -0.878560 -0.546132 2.341805152028776e-38
1.641328 -0.861650 -0.529892 2.341805152028776e-38
1.618631 -0.861382 -0.524121 2.341805152028776e-38
1.609513 -0.868219 -0.522750 2.341805152028776e-38
1.605431 -0.877756 -0.523015 2.341805152028776e-38
1.601292 -0.887282 -0.523269 2.341805152028776e-38
1.592067 -0.893971 -0.521861 2.341805152028776e-38
1.586161 -0.902492 -0.521541 2.341805152028776e-38
1.583483 -0.912979 -0.522351 2.341805152028776e-38
1.578241 -0.922024 -0.522329 2.341805152028776e-38
1.572947 -0.931046 -0.522294 2.341805152028776e-38
1.568426 -0.940539 -0.522522 2.341805152028776e-38
1.563849 -0.950017 -0.522737 2.341805152028776e-38
1.555108 -0.956975 -0.521574 2.341805152028776e-38
1.548731 -0.965465 -0.521260 2.341805152028776e-38
1.541496 -0.973407 -0.520660 2.341805152028776e-38
1.535840 -0.982340 -0.520595 2.341805152028776e-38
1.529326 -0.990724 -0.520243 2.341805152028776e-38
1.521159 -0.998017 -0.519330 2.341805152028776e-38
1.514524 -1.006361 -0.518975 2.341805152028776e-38
1.505417 -1.013098 -0.517806 2.341805152028776e-38
1.499461 -1.021935 -0.517720 2.341805152028776e-38
1.494245 -1.031290 -0.517897 2.341805152028776e-38
1.489759 -1.041176 -0.518334 2.341805152028776e-38
1.482854 -1.049384 -0.517936 2.341805152028776e-38
1.474274 -1.056507 -0.517014 2.341805152028776e-38
1.466434 -1.064144 -0.516357 2.341805152028776e-38
1.462430 -1.074579 -0.517057 2.341805152028776e-38
1.457583 -1.084435 -0.517469 2.341805152028776e-38
1.452670 -1.094277 -0.517868 2.341805152028776e-38
1.443077 -1.100635 -0.516625 2.341805152028776e-38
1.437216 -1.109915 -0.516762 2.341805152028776e-38
1.432054 -1.119763 -0.517159 2.341805152028776e-38
1.423055 -1.126609 -0.516175 2.341805152028776e-38
1.417028 -1.135799 -0.516272 2.341805152028776e-38
1.412436 -1.146175 -0.516902 2.341805152028776e-38
1.406216 -1.155390 -0.517003 2.341805152028776e-38
1.394748 -1.160284 -0.515184 2.341805152028776e-38
1.389896 -1.170663 -0.515809 2.341805152028776e-38
1.384236 -1.180408 -0.516148 2.341805152028776e-38
1.377054 -1.188874 -0.515927 2.341805152028776e-38
1.367615 -1.195434 -0.514887 2.341805152028776e-38
1.360258 -1.203890 -0.514674 2.341805152028776e-38
1.350700 -1.210380 -0.513630 2.341805152028776e-38
1.346102 -1.221328 -0.514479 2.341805152028776e-38
1.342130 -1.232921 -0.515585 2.341805152028776e-38
1.333839 -1.240585 -0.515044 2.341805152028776e-38
1.326122 -1.248934 -0.514794 2.341805152028776e-38
1.320439 -1.259236 -0.515346 2.341805152028776e-38
1.312603 -1.267515 -0.515068 2.341805152028776e-38
1.308845 -1.279787 -0.516405 2.341805152028776e-38
1.299514 -1.286649 -0.515556 2.341805152028776e-38
1.293497 -1.296900 -0.516067 2.341805152028776e-38
1.288039 -1.307850 -0.516848 2.341805152028776e-38
1.292561 -1.329141 -0.521676 2.341805152028776e-38
1.275531 -1.328326 -0.517822 2.341805152028776e-38
1.639178 -0.862092 -0.539384 2.341805152028776e-38
1.618189 -0.862742 -0.534078 2.341805152028776e-38
1.608226 -0.869125 -0.532396 2.341805152028776e-38
1.601611 -0.877276 -0.531820 2.341805152028776e-38
1.595795 -0.885852 -0.531511 2.341805152028776e-38
1.590770 -0.894869 -0.531470 2.341805152028776e-38
1.586498 -0.904380 -0.531721 2.341805152028776e-38
1.578810 -0.911999 -0.530865 2.341805152028776e-38
1.571916 -0.920052 -0.530276 2.341805152028776e-38
1.569937 -0.931001 -0.531352 2.341805152028776e-38
1.565415 -0.940482 -0.531577 2.341805152028776e-38
