VERSION .7
FIELDS x y z rgb
SIZE 4 4 4 4
TYPE F F F F
COUNT 1 1 1 1
WIDTH 957
HEIGHT 1
VIEWPOINT 0 0 0 1 0 0 0
POINTS 957
DATA ascii
1.776608 0.322948 -0.411427 2.341805152028776e-38
1.776241 0.313828 -0.411071 2.341805152028776e-38
1.777750 0.305051 -0.411156 2.341805152028776e-38
1.780178 0.296428 -0.411460 2.341805152028776e-38
1.783527 0.287945 -0.411983 2.341805152028776e-38
1.782019 0.278684 -0.411391 2.341805152028776e-38
1.786249 0.270322 -0.412130 2.341805152028776e-38
1.792369 0.262208 -0.413311 2.341805152028776e-38
1.797479 0.253921 -0.414291 2.341805152028776e-38
1.797721 0.244933 -0.414160 2.341805152028776e-38
1.797919 0.235950 -0.414025 2.341805152028776e-38
1.800007 0.227214 -0.414332 2.341805152028776e-38
1.807860 0.219168 -0.415972 2.341805152028776e-38
1.813741 0.210825 -0.417164 2.341805152028776e-38
1.814740 0.201890 -0.417239 2.341805152028776e-38
1.813757 0.192744 -0.416866 2.341805152028776e-38
1.816608 0.184006 -0.417380 2.341805152028776e-38
1.816507 0.174964 -0.417223 2.341805152028776e-38
1.819274 0.166194 -0.417731 2.341805152028776e-38
1.818114 0.157065 -0.417344 2.341805152028776e-38
1.822739 0.148426 -0.418291 2.341805152028776e-38
1.817604 0.139002 -0.417006 2.341805152028776e-38
1.818255 0.130049 -0.417055 2.341805152028776e-38
1.818863 0.121094 -0.417101 2.341805152028776e-38
1.818455 0.112075 -0.416920 2.341805152028776e-38
1.818002 0.103064 -0.416736 2.341805152028776e-38
1.823347 0.094362 -0.417888 2.341805152028776e-38
1.823782 0.085382 -0.417921 2.341805152028776e-38
1.825148 0.076440 -0.418173 2.341805152028776e-38
1.827444 0.067524 -0.418646 2.341805152028776e-38
1.837492 0.058836 -0.420900 2.341805152028776e-38
1.855295 0.050261 -0.424938 2.341805152028776e-38
1.846745 0.040930 -0.422945 2.341805152028776e-38
1.901500 0.032776 -0.435458 2.341805152028776e-38
1.749637 0.562713 -0.427662 2.341805152028776e-38
1.722795 0.544305 -0.420398 2.341805152028776e-38
1.726508 0.535720 -0.420606 2.341805152028776e-38
1.731110 0.527400 -0.421034 2.341805152028776e-38
1.733806 0.518496 -0.421001 2.341805152028776e-38
1.738306 0.510172 -0.421446 2.341805152028776e-38
1.740878 0.501315 -0.421459 2.341805152028776e-38
1.743405 0.492450 -0.421466 2.341805152028776e-38
1.744009 0.483057 -0.421013 2.341805152028776e-38
1.742683 0.473166 -0.420101 2.341805152028776e-38
1.746008 0.464559 -0.420316 2.341805152028776e-38
1.749290 0.455937 -0.420524 2.341805152028776e-38
1.752501 0.447358 -0.420783 2.341805152028776e-38
1.763227 0.440658 -0.422854 2.341805152028776e-38
1.765415 0.431784 -0.422881 2.341805152028776e-38
1.761875 0.421543 -0.421543 2.341805152028776e-38
1.757329 0.411131 -0.419972 2.341805152028776e-38
1.757469 0.401866 -0.419530 2.341805152028776e-38
1.760413 0.393252 -0.419763 2.341805152028776e-38
1.763292 0.384673 -0.420045 2.341805152028776e-38
1.765172 0.375883 -0.420104 2.341805152028776e-38
1.766056 0.366888 -0.419932 2.341805152028776e-38
1.767849 0.358091 -0.419983 2.341805152028776e-38
1.774376 0.350231 -0.421163 2.341805152028776e-38
1.776086 0.341399 -0.421206 2.341805152028776e-38
1.772966 0.331667 -0.420111 2.341805152028776e-38
1.770748 0.322159 -0.419248 2.341805152028776e-38
1.772298 0.313401 -0.419339 2.341805152028776e-38
1.773804 0.304637 -0.419427 2.341805152028776e-38
1.775268 0.295866 -0.419512 2.341805152028776e-38
1.777651 0.287245 -0.419820 2.341805152028776e-38
1.779992 0.278609 -0.420125 2.341805152028776e-38
1.784218 0.270250 -0.420881 2.341805152028776e-38
1.787441 0.261716 -0.421407 2.341805152028776e-38
1.787731 0.252749 -0.421248 2.341805152028776e-38
1.789905 0.244054 -0.421547 2.341805152028776e-38
1.790100 0.235102 -0.421409 2.341805152028776e-38
1.794115 0.226642 -0.422177 2.341805152028776e-38
1.796157 0.217915 -0.422487 2.341805152028776e-38
1.798158 0.209172 -0.422794 2.341805152028776e-38
1.798182 0.200199 -0.422643 2.341805152028776e-38
1.800098 0.191438 -0.422944 2.341805152028776e-38
1.800034 0.182465 -0.422786 2.341805152028776e-38
1.801865 0.173685 -0.423080 2.341805152028776e-38
1.802684 0.164803 -0.423143 2.341805152028776e-38
1.803461 0.155917 -0.423202 2.341805152028776e-38
1.805165 0.147106 -0.423487 2.341805152028776e-38
1.803913 0.138059 -0.423084 2.341805152028776e-38
1.806503 0.129306 -0.423590 2.341805152028776e-38
1.806136 0.120337 -0.423408 2.341805152028776e-38
1.807668 0.111495 -0.423679 2.341805152028776e-38
1.810131 0.102695 -0.424175 2.341805152028776e-38
1.813524 0.093924 -0.424895 2.341805152028776e-38
1.812984 0.084940 -0.424700 2.341805152028776e-38
1.815319 0.076086 -0.425186 2.341805152028776e-38
1.815666 0.067139 -0.425213 2.341805152028776e-38
1.821808 0.058377 -0.426603 2.341805152028776e-38
1.836669 0.049794 -0.430042 2.341805152028776e-38
1.832994 0.040656 -0.429147 2.341805152028776e-38
1.885740 0.032529 -0.441468 2.341805152028776e-38
1.727098 0.546371 -0.430878 2.341805152028776e-38
1.727104 0.536605 -0.430171 2.341805152028776e-38
1.731709 0.528279 -0.430614 2.341805152028776e-38
1.731613 0.518530 -0.429892 2.341805152028776e-38
1.732396 0.509077 -0.429395 2.341805152028776e-38
1.736843 0.500763 -0.429859 2.341805152028776e-38
1.740303 0.492179 -0.430102 2.341805152028776e-38
1.741846 0.483057 -0.429877 2.341805152028776e-38
1.740524 0.473173 -0.428951 2.341805152028776e-38
1.741968 0.464071 -0.428713 2.341805152028776e-38
1.743364 0.454972 -0.428469 2.341805152028776e-38
1.747540 0.446600 -0.428913 2.341805152028776e-38
1.758253 0.439918 -0.431031 2.341805152028776e-38
1.759492 0.430831 -0.430831 2.341805152028776e-38
1.756900 0.420841 -0.429701 2.341805152028776e-38
1.754253 0.410893 -0.428565 2.341805152028776e-38
1.758188 0.402506 -0.429045 2.341805152028776e-38
1.757336 0.393033 -0.428362 2.341805152028776e-38
1.760236 0.384415 -0.428600 2.341805152028776e-38
1.761170 0.375418 -0.428418 2.341805152028776e-38
1.764910 0.367031 -0.428940 2.341805152028776e-38
1.765750 0.358040 -0.428764 2.341805152028776e-38
1.771317 0.349995 -0.429741 2.341805152028776e-38
1.773026 0.341172 -0.429788 2.341805152028776e-38
1.768954 0.331269 -0.428442 2.341805152028776e-38
1.767699 0.321942 -0.427786 2.341805152028776e-38
1.772144 0.313657 -0.428517 2.341805152028776e-38
1.773655 0.304879 -0.428597 2.341805152028776e-38
1.775120 0.296102 -0.428685 2.341805152028776e-38
1.778463 0.287630 -0.429233 2.341805152028776e-38
1.781767 0.279134 -0.429777 2.341805152028776e-38
1.784068 0.270467 -0.430087 2.341805152028776e-38
1.785365 0.261644 -0.430161 2.341805152028776e-38
1.784693 0.252544 -0.429769 2.341805152028776e-38
1.784939 0.243590 -0.429605 2.341805152028776e-38
1.788999 0.235148 -0.430365 2.341805152028776e-38
1.789155 0.226191 -0.430207 2.341805152028776e-38
1.792160 0.217598 -0.430755 2.341805152028776e-38
1.794158 0.208868 -0.431068 2.341805152028776e-38
1.794181 0.199909 -0.430914 2.341805152028776e-38
1.795127 0.191057 -0.430988 2.341805152028776e-38
1.794095 0.182004 -0.430595 2.341805152028776e-38
1.795923 0.173246 -0.430895 2.341805152028776e-38
1.795772 0.164298 -0.430727 2.341805152028776e-38
1.794608 0.155271 -0.430323 2.341805152028776e-38
1.795338 0.146418 -0.430380 2.341805152028776e-38
1.796025 0.137561 -0.430434 2.341805152028776e-38
1.796670 0.128702 -0.430485 2.341805152028776e-38
1.799212 0.119968 -0.430997 2.341805152028776e-38
1.803655 0.111333 -0.431971 2.341805152028776e-38
1.803201 0.102381 -0.431779 2.341805152028776e-38
1.807560 0.093687 -0.432747 2.341805152028776e-38
1.807992 0.084771 -0.432781 2.341805152028776e-38
1.809353 0.075894 -0.433044 2.341805152028776e-38
1.809699 0.066970 -0.433071 2.341805152028776e-38
1.817778 0.058293 -0.434955 2.341805152028776e-38
1.832621 0.049723 -0.438465 2.341805152028776e-38
1.848397 0.041029 -0.442204 2.341805152028776e-38
1.867050 0.032232 -0.446638 2.341805152028776e-38
1.729485 0.547845 -0.440949 2.341805152028776e-38
1.725792 0.536907 -0.439288 2.341805152028776e-38
1.727607 0.527732 -0.439037 2.341805152028776e-38
1.731236 0.519116 -0.439252 2.341805152028776e-38
1.729228 0.508837 -0.438043 2.341805152028776e-38
1.731828 0.499947 -0.438007 2.341805152028776e-38
1.737158 0.491902 -0.438724 2.341805152028776e-38
1.739637 0.483052 -0.438735 2.341805152028776e-38
1.738320 0.473173 -0.437796 2.341805152028776e-38
1.737888 0.463577 -0.437086 2.341805152028776e-38
1.738342 0.454248 -0.436607 2.341805152028776e-38
1.739688 0.445174 -0.436358 2.341805152028776e-38
1.749471 0.438229 -0.438229 2.341805152028776e-38
1.755422 0.430337 -0.439210 2.341805152028776e-38
1.753778 0.420588 -0.438297 2.341805152028776e-38
1.754919 0.411537 -0.438087 2.341805152028776e-38
1.753173 0.401838 -0.437164 2.341805152028776e-38
1.754218 0.392809 -0.436945 2.341805152028776e-38
1.756166 0.383993 -0.436957 2.341805152028776e-38
1.759970 0.375577 -0.437437 2.341805152028776e-38
1.759913 0.366378 -0.437005 2.341805152028776e-38
1.761703 0.357598 -0.437064 2.341805152028776e-38
1.768216 0.349755 -0.438301 2.341805152028776e-38
1.766108 0.340206 -0.437407 2.341805152028776e-38
1.767768 0.331405 -0.437455 2.341805152028776e-38
1.769386 0.322600 -0.437498 2.341805152028776e-38
1.772873 0.314129 -0.438011 2.341805152028776e-38
1.777277 0.305800 -0.438757 2.341805152028776e-38
1.777801 0.296815 -0.438577 2.341805152028776e-38
1.779227 0.288012 -0.438664 2.341805152028776e-38
1.778690 0.278902 -0.438275 2.341805152028776e-38
1.780028 0.270098 -0.438356 2.341805152028776e-38
1.778440 0.260865 -0.437723 2.341805152028776e-38
1.778728 0.251929 -0.437560 2.341805152028776e-38
1.781860 0.243391 -0.438104 2.341805152028776e-38
1.784952 0.234830 -0.438645 2.341805152028776e-38
1.787040 0.226124 -0.438946 2.341805152028776e-38
1.786192 0.217052 -0.438533 2.341805152028776e-38
1.785295 0.208001 -0.438130 2.341805152028776e-38
1.790143 0.199616 -0.439156 2.341805152028776e-38
1.789156 0.190572 -0.438758 2.341805152028776e-38
1.791023 0.181836 -0.439067 2.341805152028776e-38
1.791882 0.172993 -0.439136 2.341805152028776e-38
1.791731 0.164058 -0.438965 2.341805152028776e-38
1.791536 0.155128 -0.438790 2.341805152028776e-38
1.792265 0.146283 -0.438848 2.341805152028776e-38
1.791983 0.137360 -0.438666 2.341805152028776e-38
1.792627 0.128513 -0.438718 2.341805152028776e-38
1.793228 0.119663 -0.438766 2.341805152028776e-38
1.797664 0.111050 -0.439759 2.341805152028776e-38
1.799150 0.102231 -0.440038 2.341805152028776e-38
1.801564 0.093450 -0.440551 2.341805152028776e-38
1.801994 0.084557 -0.440585 2.341805152028776e-38
1.803353 0.075702 -0.440853 2.341805152028776e-38
1.805639 0.066872 -0.441356 2.341805152028776e-38
1.812738 0.058177 -0.443041 2.341805152028776e-38
1.827564 0.049625 -0.446622 2.341805152028776e-38
1.824869 0.040539 -0.445927 2.341805152028776e-38
1.887206 0.032605 -0.461130 2.341805152028776e-38
1.793593 0.579147 -0.467951 2.341805152028776e-38
1.724414 0.546966 -0.449134 2.341805152028776e-38
1.722577 0.536627 -0.447928 2.341805152028776e-38
1.728105 0.528598 -0.448642 2.341805152028776e-38
1.728019 0.518859 -0.447904 2.341805152028776e-38
1.727878 0.509141 -0.447158 2.341805152028776e-38
1.732344 0.500792 -0.447611 2.341805152028776e-38
1.734903 0.491888 -0.447574 2.341805152028776e-38
1.737383 0.483040 -0.447588 2.341805152028776e-38
1.737008 0.473423 -0.446876 2.341805152028776e-38
1.735642 0.463578 -0.445917 2.341805152028776e-38
1.735161 0.454009 -0.445194 2.341805152028776e-38
1.737447 0.445187 -0.445187 2.341805152028776e-38
1.750985 0.439192 -0.448065 2.341805152028776e-38
1.754138 0.430533 -0.448287 2.341805152028776e-38
1.754389 0.421236 -0.447840 2.341805152028776e-38
1.753645 0.411732 -0.447149 2.341805152028776e-38
1.754742 0.402684 -0.446936 2.341805152028776e-38
1.753898 0.393217 -0.446235 2.341805152028776e-38
1.755848 0.384395 -0.446252 2.341805152028776e-38
1.756805 0.375367 -0.446024 2.341805152028776e-38
1.757715 0.366343 -0.445791 2.341805152028776e-38
1.760471 0.357732 -0.446061 2.341805152028776e-38
1.765075 0.349511 -0.446843 2.341805152028776e-38
1.768687 0.341073 -0.447381 2.341805152028776e-38
1.770352 0.332252 -0.447433 2.341805152028776e-38
1.771974 0.323427 -0.447481 2.341805152028776e-38
1.776418 0.315106 -0.448249 2.341805152028776e-38
1.778911 0.306422 -0.448531 2.341805152028776e-38
1.776576 0.296925 -0.447604 2.341805152028776e-38
1.776107 0.287773 -0.447155 2.341805152028776e-38
1.776532 0.278819 -0.446995 2.341805152028776e-38
1.776910 0.269872 -0.446837 2.341805152028776e-38
1.778205 0.261070 -0.446917 2.341805152028776e-38
1.779456 0.252264 -0.446994 2.341805152028776e-38
1.779703 0.243321 -0.446825 2.341805152028776e-38
1.782792 0.234763 -0.447378 2.341805152028776e-38
1.781027 0.225572 -0.446721 2.341805152028776e-38
1.780179 0.216522 -0.446301 2.341805152028776e-38
1.782177 0.207825 -0.446603 2.341805152028776e-38
1.785098 0.199222 -0.447144 2.341805152028776e-38
1.788940 0.190703 -0.447930 2.341805152028776e-38
1.788877 0.181765 -0.447762 2.341805152028776e-38
1.789735 0.172925 -0.447832 2.341805152028776e-38
1.789585 0.163993 -0.447657 2.341805152028776e-38
1.791324 0.155234 -0.447962 2.341805152028776e-38
1.790120 0.146225 -0.447538 2.341805152028776e-38
1.789839 0.137306 -0.447353 2.341805152028776e-38
1.790482 0.128463 -0.447405 2.341805152028776e-38
1.791083 0.119617 -0.447454 2.341805152028776e-38
1.794546 0.110947 -0.448226 2.341805152028776e-38
1.796030 0.102136 -0.448510 2.341805152028776e-38
1.795534 0.093212 -0.448307 2.341805152028776e-38
1.798871 0.084478 -0.449068 2.341805152028776e-38
1.800228 0.075632 -0.449341 2.341805152028776e-38
1.800573 0.066738 -0.449369 2.341805152028776e-38
1.809602 0.058123 -0.451572 2.341805152028776e-38
1.821501 0.049500 -0.454498 2.341805152028776e-38
1.822689 0.040523 -0.454757 2.341805152028776e-38
1.852937 0.032039 -0.462275 2.341805152028776e-38
1.734999 0.551089 -0.461481 2.341805152028776e-38
1.716544 0.535474 -0.455817 2.341805152028776e-38
1.719282 0.526620 -0.455814 2.341805152028776e-38
1.721974 0.517759 -0.455805 2.341805152028776e-38
1.726479 0.509438 -0.456280 2.341805152028776e-38
1.727220 0.500014 -0.455765 2.341805152028776e-38
1.729775 0.491131 -0.455734 2.341805152028776e-38
1.733217 0.482504 -0.455944 2.341805152028776e-38
1.733778 0.473157 -0.455469 2.341805152028776e-38
1.734289 0.463823 -0.454988 2.341805152028776e-38
1.732874 0.454010 -0.454010 2.341805152028776e-38
1.735161 0.445194 -0.454009 2.341805152028776e-38
1.746804 0.438733 -0.456459 2.341805152028776e-38
1.750895 0.430320 -0.456938 2.341805152028776e-38
1.754003 0.421657 -0.457165 2.341805152028776e-38
1.751380 0.411700 -0.455968 2.341805152028776e-38
1.751533 0.402440 -0.455509 2.341805152028776e-38
1.750692 0.392982 -0.454800 2.341805152028776e-38
1.754535 0.384585 -0.455314 2.341805152028776e-38
1.752650 0.374948 -0.454349 2.341805152028776e-38
1.754508 0.366136 -0.454362 2.341805152028776e-38
1.758222 0.357707 -0.454863 2.341805152028776e-38
1.765696 0.350017 -0.456351 2.341805152028776e-38
1.767405 0.341201 -0.456411 2.341805152028776e-38
1.767165 0.332021 -0.455976 2.341805152028776e-38
1.767832 0.323030 -0.455782 2.341805152028776e-38
1.772271 0.314722 -0.456569 2.341805152028776e-38
1.773805 0.305887 -0.456614 2.341805152028776e-38
1.773384 0.296728 -0.456163 2.341805152028776e-38
1.771960 0.287429 -0.455464 2.341805152028776e-38
1.776232 0.279057 -0.456236 2.341805152028776e-38
1.779502 0.270517 -0.456775 2.341805152028776e-38
1.779840 0.261554 -0.456612 2.341805152028776e-38
1.777255 0.252187 -0.455707 2.341805152028776e-38
1.775583 0.242985 -0.455045 2.341805152028776e-38
1.776746 0.234187 -0.455117 2.341805152028776e-38
1.775943 0.225140 -0.454694 2.341805152028776e-38
1.777982 0.216459 -0.455006 2.341805152028776e-38
1.779978 0.207765 -0.455315 2.341805152028776e-38
1.782896 0.199165 -0.455867 2.341805152028776e-38
1.784810 0.190440 -0.456170 2.341805152028776e-38
1.784752 0.181506 -0.455978 2.341805152028776e-38
1.784651 0.172578 -0.455782 2.341805152028776e-38
1.787397 0.163928 -0.456339 2.341805152028776e-38
1.784307 0.154754 -0.455418 2.341805152028776e-38
1.786966 0.146088 -0.455971 2.341805152028776e-38
1.785720 0.137103 -0.455536 2.341805152028776e-38
1.786362 0.128273 -0.455589 2.341805152028776e-38
1.788895 0.119569 -0.456132 2.341805152028776e-38
1.790420 0.110783 -0.456425 2.341805152028776e-38
1.791902 0.101985 -0.456715 2.341805152028776e-38
1.793343 0.093175 -0.457001 2.341805152028776e-38
1.794740 0.084353 -0.457284 2.341805152028776e-38
1.796095 0.075520 -0.457563 2.341805152028776e-38
1.798376 0.066711 -0.458085 2.341805152028776e-38
1.805458 0.058038 -0.459837 2.341805152028776e-38
1.830904 0.049796 -0.466273 2.341805152028776e-38
1.819497 0.040485 -0.463330 2.341805152028776e-38
1.840988 0.031858 -0.468773 2.341805152028776e-38
1.745480 0.555245 -0.473990 2.341805152028776e-38
1.719711 0.537212 -0.466175 2.341805152028776e-38
1.717835 0.526907 -0.464918 2.341805152028776e-38
1.724236 0.519164 -0.465917 2.341805152028776e-38
1.724104 0.509455 -0.465155 2.341805152028776e-38
1.726708 0.500577 -0.465138 2.341805152028776e-38
1.727403 0.491162 -0.464612 2.341805152028776e-38
1.730844 0.482540 -0.464832 2.341805152028776e-38
1.730505 0.472886 -0.464047 2.341805152028776e-38
1.733823 0.464313 -0.464313 2.341805152028776e-38
1.733352 0.454743 -0.463573 2.341805152028776e-38
1.736580 0.446158 -0.463828 2.341805152028776e-38
1.747276 0.439448 -0.466081 2.341805152028776e-38
1.748549 0.430333 -0.465824 2.341805152028776e-38
1.747891 0.420769 -0.465060 2.341805152028776e-38
1.749065 0.411673 -0.464792 2.341805152028776e-38
1.752057 0.403059 -0.465068 2.341805152028776e-38
1.752167 0.393804 -0.464600 2.341805152028776e-38
1.751284 0.384355 -0.463876 2.341805152028776e-38
1.753189 0.375538 -0.463900 2.341805152028776e-38
1.753155 0.366321 -0.463418 2.341805152028776e-38
1.762559 0.359051 -0.465436 2.341805152028776e-38
1.769086 0.351135 -0.466699 2.341805152028776e-38
1.770825 0.342250 -0.466705 2.341805152028776e-38
1.766791 0.332323 -0.465252 2.341805152028776e-38
1.768413 0.323500 -0.465309 2.341805152028776e-38
1.769991 0.314673 -0.465362 2.341805152028776e-38
1.769618 0.305512 -0.464910 2.341805152028776e-38
1.770152 0.296526 -0.464705 2.341805152028776e-38
1.770641 0.287545 -0.464496 2.341805152028776e-38
1.776823 0.279473 -0.465789 2.341805152028776e-38
1.782011 0.271204 -0.466827 2.341805152028776e-38
1.779500 0.261767 -0.465857 2.341805152028776e-38
1.777887 0.252517 -0.465163 2.341805152028776e-38
1.777179 0.243435 -0.464740 2.341805152028776e-38
1.778345 0.234621 -0.464815 2.341805152028776e-38
1.775626 0.225315 -0.463883 2.341805152028776e-38
1.775742 0.216394 -0.463701 2.341805152028776e-38
1.777737 0.207703 -0.464017 2.341805152028776e-38
1.781614 0.199214 -0.464832 2.341805152028776e-38
1.784489 0.190589 -0.465393 2.341805152028776e-38
1.782508 0.181453 -0.464695 2.341805152028776e-38
1.782408 0.172527 -0.464497 2.341805152028776e-38
1.784191 0.163786 -0.464798 2.341805152028776e-38
1.783040 0.154781 -0.464342 2.341805152028776e-38
1.783773 0.145950 -0.464386 2.341805152028776e-38
1.784458 0.137121 -0.464443 2.341805152028776e-38
1.787032 0.128428 -0.465000 2.341805152028776e-38
1.787632 0.119584 -0.465051 2.341805152028776e-38
1.787223 0.110678 -0.464847 2.341805152028776e-38
1.788704 0.101888 -0.465142 2.341805152028776e-38
1.791109 0.093137 -0.465685 2.341805152028776e-38
1.790572 0.084228 -0.465470 2.341805152028776e-38
1.795793 0.075571 -0.466760 2.341805152028776e-38
1.796138 0.066684 -0.466789 2.341805152028776e-38
1.803211 0.058014 -0.468574 2.341805152028776e-38
1.832496 0.049881 -0.476138 2.341805152028776e-38
1.827877 0.040706 -0.474900 2.341805152028776e-38
1.843536 0.031929 -0.478937 2.341805152028776e-38
1.720020 0.538127 -0.475864 2.341805152028776e-38
1.717263 0.527473 -0.474283 2.341805152028776e-38
1.720886 0.518889 -0.474540 2.341805152028776e-38
1.721683 0.509466 -0.474025 2.341805152028776e-38
1.722430 0.500055 -0.473503 2.341805152028776e-38
1.720335 0.489862 -0.472209 2.341805152028776e-38
1.724700 0.481531 -0.472695 2.341805152028776e-38
1.729958 0.473430 -0.473430 2.341805152028776e-38
1.734241 0.465048 -0.473906 2.341805152028776e-38
1.734713 0.455715 -0.473413 2.341805152028776e-38
1.737008 0.446876 -0.473423 2.341805152028776e-38
1.743008 0.438976 -0.474449 2.341805152028776e-38
1.744280 0.429876 -0.474193 2.341805152028776e-38
1.740803 0.419648 -0.472656 2.341805152028776e-38
1.746679 0.411690 -0.473665 2.341805152028776e-38
1.747808 0.402605 -0.473393 2.341805152028776e-38
1.748872 0.393558 -0.473154 2.341805152028776e-38
1.747991 0.384119 -0.472422 2.341805152028776e-38
1.748004 0.374906 -0.471940 2.341805152028776e-38
1.748916 0.365905 -0.471709 2.341805152028776e-38
1.763045 0.359615 -0.475047 2.341805152028776e-38
1.767671 0.351313 -0.475829 2.341805152028776e-38
1.764665 0.341509 -0.474564 2.341805152028776e-38
1.762555 0.331928 -0.473550 2.341805152028776e-38
1.766090 0.323443 -0.474088 2.341805152028776e-38
1.763860 0.313942 -0.473124 2.341805152028776e-38
1.766344 0.305298 -0.473433 2.341805152028776e-38
1.765925 0.296160 -0.472972 2.341805152028776e-38
1.768322 0.287503 -0.473274 2.341805152028776e-38
1.772587 0.279133 -0.474083 2.341805152028776e-38
1.777769 0.270877 -0.475145 2.341805152028776e-38
1.775261 0.261452 -0.474159 2.341805152028776e-38
1.776532 0.252607 -0.474193 2.341805152028776e-38
1.775844 0.243497 -0.473713 2.341805152028776e-38
1.776057 0.234546 -0.473518 2.341805152028776e-38
1.773343 0.225244 -0.472570 2.341805152028776e-38
1.777298 0.216794 -0.473407 2.341805152028776e-38
1.778334 0.207975 -0.473475 2.341805152028776e-38
1.780287 0.199260 -0.473795 2.341805152028776e-38
1.779315 0.190223 -0.473345 2.341805152028776e-38
1.779259 0.181299 -0.473147 2.341805152028776e-38
1.782046 0.172662 -0.473713 2.341805152028776e-38
1.780941 0.163648 -0.473253 2.341805152028776e-38
1.781717 0.154818 -0.473302 2.341805152028776e-38
1.782451 0.145986 -0.473347 2.341805152028776e-38
1.785069 0.137299 -0.473902 2.341805152028776e-38
1.785717 0.128451 -0.473942 2.341805152028776e-38
1.784392 0.119473 -0.473467 2.341805152028776e-38
1.784952 0.110632 -0.473504 2.341805152028776e-38
1.786431 0.101846 -0.473805 2.341805152028776e-38
1.787868 0.093048 -0.474102 2.341805152028776e-38
1.791194 0.084329 -0.474907 2.341805152028776e-38
1.793513 0.075539 -0.475453 2.341805152028776e-38
1.795789 0.066728 -0.475994 2.341805152028776e-38
1.805752 0.058145 -0.478581 2.341805152028776e-38
1.830169 0.049860 -0.485006 2.341805152028776e-38
1.854549 0.041335 -0.491427 2.341805152028776e-38
1.858593 0.032217 -0.492467 2.341805152028776e-38
1.717510 0.538169 -0.484797 2.341805152028776e-38
1.713839 0.527240 -0.482934 2.341805152028776e-38
1.719341 0.519166 -0.483667 2.341805152028776e-38
1.719217 0.509470 -0.482889 2.341805152028776e-38
1.719039 0.499797 -0.482105 2.341805152028776e-38
1.715092 0.489086 -0.480273 2.341805152028776e-38
1.723171 0.481815 -0.481815 2.341805152028776e-38
1.726563 0.473206 -0.482051 2.341805152028776e-38
1.731777 0.465082 -0.482800 2.341805152028776e-38
1.729482 0.454961 -0.481464 2.341805152028776e-38
1.733643 0.446624 -0.482001 2.341805152028776e-38
1.738701 0.438499 -0.482792 2.341805152028776e-38
1.740908 0.429645 -0.482797 2.341805152028776e-38
1.743070 0.420787 -0.482797 2.341805152028776e-38
1.750826 0.413254 -0.484352 2.341805152028776e-38
1.751024 0.403924 -0.483821 2.341805152028776e-38
1.747403 0.393760 -0.482245 2.341805152028776e-38
1.744656 0.383878 -0.480950 2.341805152028776e-38
1.745615 0.374877 -0.480724 2.341805152028776e-38
1.750309 0.366673 -0.481534 2.341805152028776e-38
1.761586 0.359788 -0.484159 2.341805152028776e-38
1.764316 0.351108 -0.484440 2.341805152028776e-38
1.764158 0.341864 -0.483937 2.341805152028776e-38
1.763004 0.332456 -0.483170 2.341805152028776e-38
1.764649 0.323597 -0.483179 2.341805152028776e-38
1.768151 0.315073 -0.483704 2.341805152028776e-38
1.771592 0.306561 -0.484278 2.341805152028776e-38
1.772134 0.297549 -0.484072 2.341805152028776e-38
1.768819 0.287921 -0.482822 2.341805152028776e-38
1.773082 0.279541 -0.483650 2.341805152028776e-38
1.775398 0.270837 -0.483954 2.341805152028776e-38
1.776715 0.261979 -0.483995 2.341805152028776e-38
1.777033 0.252982 -0.483772 2.341805152028776e-38
1.774436 0.243597 -0.482766 2.341805152028776e-38
1.776576 0.234881 -0.483058 2.341805152028776e-38
1.776758 0.225910 -0.482826 2.341805152028776e-38
1.774969 0.216724 -0.482100 2.341805152028776e-38
1.775045 0.207796 -0.481909 2.341805152028776e-38
1.777956 0.199196 -0.482496 2.341805152028776e-38
1.779866 0.190470 -0.482820 2.341805152028776e-38
1.779812 0.181536 -0.482620 2.341805152028776e-38
1.779715 0.172608 -0.482416 2.341805152028776e-38
1.780535 0.163774 -0.482470 2.341805152028776e-38
1.780350 0.154854 -0.482260 2.341805152028776e-38
1.781084 0.146020 -0.482307 2.341805152028776e-38
1.779849 0.137034 -0.481830 2.341805152028776e-38
1.780496 0.128204 -0.481871 2.341805152028776e-38
1.781099 0.119372 -0.481910 2.341805152028776e-38
1.782623 0.110598 -0.482206 2.341805152028776e-38
1.787960 0.102032 -0.483542 2.341805152028776e-38
1.790364 0.093266 -0.484093 2.341805152028776e-38
1.788869 0.084297 -0.483599 2.341805152028776e-38
1.790223 0.075468 -0.483883 2.341805152028776e-38
1.793463 0.066700 -0.484687 2.341805152028776e-38
1.804379 0.058152 -0.487581 2.341805152028776e-38
1.823940 0.049734 -0.492819 2.341805152028776e-38
1.828984 0.040801 -0.494142 2.341805152028776e-38
1.853291 0.032154 -0.500677 2.341805152028776e-38
1.740593 0.556231 -0.501965 2.341805152028776e-38
1.714954 0.538205 -0.493725 2.341805152028776e-38
1.714978 0.528418 -0.492895 2.341805152028776e-38
1.715870 0.518933 -0.492321 2.341805152028776e-38
1.715780 0.509194 -0.491483 2.341805152028776e-38
1.713753 0.498993 -0.490161 2.341805152028776e-38
1.713521 0.489362 -0.489362 2.341805152028776e-38
1.721593 0.482093 -0.490939 2.341805152028776e-38
1.724985 0.473486 -0.491186 2.341805152028776e-38
1.727403 0.464612 -0.491162 2.341805152028776e-38
1.728843 0.455488 -0.490866 2.341805152028776e-38
1.730234 0.446369 -0.490564 2.341805152028776e-38
1.737158 0.438724 -0.491902 2.341805152028776e-38
1.740303 0.430102 -0.492179 2.341805152028776e-38
1.747154 0.422372 -0.493509 2.341805152028776e-38
1.749279 0.413481 -0.493510 2.341805152028776e-38
1.747601 0.403717 -0.492446 2.341805152028776e-38
1.743987 0.393563 -0.490848 2.341805152028776e-38
1.743141 0.384085 -0.490039 2.341805152028776e-38
1.746010 0.375451 -0.490294 2.341805152028776e-38
1.751647 0.367434 -0.491388 2.341805152028776e-38
1.761025 0.360149 -0.493537 2.341805152028776e-38
1.764701 0.351652 -0.494093 2.341805152028776e-38
1.761709 0.341846 -0.492792 2.341805152028776e-38
1.762454 0.332801 -0.492545 2.341805152028776e-38
1.761255 0.323413 -0.491765 2.341805152028776e-38
1.769500 0.315745 -0.493629 2.341805152028776e-38
1.769161 0.306526 -0.493107 2.341805152028776e-38
1.769719 0.297494 -0.492864 2.341805152028776e-38
1.767361 0.288026 -0.491859 2.341805152028776e-38
1.772574 0.279794 -0.492970 2.341805152028776e-38
1.775842 0.271229 -0.493548 2.341805152028776e-38
1.778115 0.262501 -0.493858 2.341805152028776e-38
1.775573 0.253080 -0.492839 2.341805152028776e-38
1.776803 0.244219 -0.492878 2.341805152028776e-38
1.777033 0.235229 -0.492649 2.341805152028776e-38
1.772435 0.225636 -0.491091 2.341805152028776e-38
1.770658 0.216450 -0.490326 2.341805152028776e-38
1.776495 0.208188 -0.491679 2.341805152028776e-38
1.781332 0.199774 -0.492777 2.341805152028776e-38
1.780367 0.190716 -0.492312 2.341805152028776e-38
1.778397 0.181574 -0.491579 2.341805152028776e-38
1.779261 0.172738 -0.491638 2.341805152028776e-38
1.779122 0.163810 -0.491429 2.341805152028776e-38
1.777978 0.154804 -0.490950 2.341805152028776e-38
1.779672 0.146052 -0.491265 2.341805152028776e-38
1.779401 0.137139 -0.491046 2.341805152028776e-38
1.779087 0.128233 -0.490823 2.341805152028776e-38
1.778728 0.119335 -0.490598 2.341805152028776e-38
1.781213 0.110623 -0.491165 2.341805152028776e-38
1.784619 0.101945 -0.491995 2.341805152028776e-38
1.786057 0.093136 -0.492291 2.341805152028776e-38
1.785527 0.084225 -0.492054 2.341805152028776e-38
1.787842 0.075445 -0.492610 2.341805152028776e-38
1.793969 0.066787 -0.494225 2.341805152028776e-38
1.805837 0.058258 -0.497430 2.341805152028776e-38
1.817664 0.049612 -0.500632 2.341805152028776e-38
1.817884 0.040593 -0.500646 2.341805152028776e-38
1.843123 0.032008 -0.507559 2.341805152028776e-38
1.732443 0.554492 -0.509411 2.341805152028776e-38
1.716026 0.539388 -0.503726 2.341805152028776e-38
1.709619 0.527603 -0.501001 2.341805152028776e-38
1.712353 0.518698 -0.500965 2.341805152028776e-38
1.713193 0.509238 -0.500382 2.341805152028776e-38
1.716750 0.500608 -0.500608 2.341805152028776e-38
1.719308 0.491750 -0.500610 2.341805152028776e-38
1.720893 0.482625 -0.500336 2.341805152028776e-38
1.724287 0.474014 -0.500594 2.341805152028776e-38
1.725778 0.464887 -0.500307 2.341805152028776e-38
1.727220 0.455765 -0.500014 2.341805152028776e-38
1.729547 0.446888 -0.499983 2.341805152028776e-38
1.735562 0.438951 -0.501025 2.341805152028776e-38
1.739647 0.430553 -0.501572 2.341805152028776e-38
1.741814 0.421686 -0.501584 2.341805152028776e-38
1.743936 0.412814 -0.501591 2.341805152028776e-38
1.742260 0.403070 -0.500515 2.341805152028776e-38
1.738651 0.392935 -0.498895 2.341805152028776e-38
1.743448 0.384721 -0.499695 2.341805152028776e-38
1.747265 0.376273 -0.500221 2.341805152028776e-38
1.752925 0.368198 -0.501282 2.341805152028776e-38
1.761358 0.360697 -0.503194 2.341805152028776e-38
1.764089 0.352002 -0.503496 2.341805152028776e-38
1.760160 0.342007 -0.501907 2.341805152028776e-38
1.759015 0.332603 -0.501122 2.341805152028776e-38
1.759714 0.323572 -0.500872 2.341805152028776e-38
1.762262 0.314886 -0.501157 2.341805152028776e-38
1.767615 0.306682 -0.502248 2.341805152028776e-38
1.764382 0.296999 -0.500909 2.341805152028776e-38
1.767751 0.288447 -0.501454 2.341805152028776e-38
1.770114 0.279742 -0.501759 2.341805152028776e-38
1.774331 0.271326 -0.502620 2.341805152028776e-38
1.775651 0.262456 -0.502669 2.341805152028776e-38
1.775021 0.253310 -0.502175 2.341805152028776e-38
1.775298 0.244311 -0.501948 2.341805152028776e-38
1.774575 0.235192 -0.501448 2.341805152028776e-38
1.772850 0.225969 -0.500675 2.341805152028776e-38
1.772034 0.216888 -0.500170 2.341805152028776e-38
1.774042 0.208160 -0.500470 2.341805152028776e-38
1.771222 0.198884 -0.499420 2.341805152028776e-38
1.775056 0.190363 -0.500255 2.341805152028776e-38
1.775017 0.181419 -0.500009 2.341805152028776e-38
1.775884 0.172586 -0.500058 2.341805152028776e-38
1.778622 0.163931 -0.500655 2.341805152028776e-38
1.779400 0.155087 -0.500709 2.341805152028776e-38
1.782053 0.146397 -0.501300 2.341805152028776e-38
1.780826 0.137390 -0.500808 2.341805152028776e-38
1.776672 0.128191 -0.499503 2.341805152028776e-38
1.776315 0.119296 -0.499274 2.341805152028776e-38
1.781680 0.110766 -0.500662 2.341805152028776e-38
1.785082 0.102077 -0.501508 2.341805152028776e-38
1.784597 0.093156 -0.501270 2.341805152028776e-38
1.785030 0.084289 -0.501299 2.341805152028776e-38
1.790229 0.075624 -0.502676 2.341805152028776e-38
1.794425 0.066873 -0.503779 2.341805152028776e-38
1.803390 0.058239 -0.506231 2.341805152028776e-38
1.812314 0.049517 -0.508680 2.341805152028776e-38
1.838523 0.041096 -0.515988 2.341805152028776e-38
1.844477 0.032065 -0.517621 2.341805152028776e-38
1.768889 0.577253 -0.531072 2.341805152028776e-38
1.719686 0.551277 -0.515422 2.341805152028776e-38
1.707867 0.537678 -0.511016 2.341805152028776e-38
1.705141 0.527064 -0.509347 2.341805152028776e-38
1.712472 0.519572 -0.510690 2.341805152028776e-38
1.714242 0.510379 -0.510379 2.341805152028776e-38
1.719655 0.502269 -0.511158 2.341805152028776e-38
1.718554 0.492277 -0.510017 2.341805152028776e-38
1.720143 0.483149 -0.509745 2.341805152028776e-38
1.721683 0.474025 -0.509466 2.341805152028776e-38
1.721319 0.464403 -0.508632 2.341805152028776e-38
1.722760 0.455297 -0.508341 2.341805152028776e-38
1.735325 0.449086 -0.511335 2.341805152028776e-38
1.734821 0.439459 -0.510483 2.341805152028776e-38
1.735196 0.430089 -0.509899 2.341805152028776e-38
1.735502 0.420767 -0.509349 2.341805152028776e-38
1.737620 0.411919 -0.509362 2.341805152028776e-38
1.737818 0.402633 -0.508822 2.341805152028776e-38
1.738905 0.393574 -0.508551 2.341805152028776e-38
1.740884 0.384729 -0.508549 2.341805152028776e-38
1.742818 0.375879 -0.508543 2.341805152028776e-38
1.745648 0.367225 -0.508806 2.341805152028776e-38
1.755029 0.359911 -0.510984 2.341805152028776e-38
1.756827 0.351027 -0.510989 2.341805152028776e-38
1.755733 0.341611 -0.510199 2.341805152028776e-38
1.751755 0.331684 -0.508582 2.341805152028776e-38
1.756234 0.323377 -0.509430 2.341805152028776e-38
1.757833 0.314531 -0.509451 2.341805152028776e-38
1.759389 0.305681 -0.509469 2.341805152028776e-38
1.759952 0.296670 -0.509209 2.341805152028776e-38
1.764264 0.288285 -0.510043 2.341805152028776e-38
1.769487 0.280020 -0.511148 2.341805152028776e-38
1.769919 0.270988 -0.510878 2.341805152028776e-38
1.768387 0.261703 -0.510098 2.341805152028776e-38
1.766804 0.252448 -0.509324 2.341805152028776e-38
1.766125 0.243349 -0.508822 2.341805152028776e-38
1.767307 0.234520 -0.508865 2.341805152028776e-38
1.765583 0.225323 -0.508081 2.341805152028776e-38
1.766676 0.216503 -0.508118 2.341805152028776e-38
1.764860 0.207343 -0.507329 2.341805152028776e-38
1.766819 0.198640 -0.507636 2.341805152028776e-38
1.767779 0.189823 -0.507665 2.341805152028776e-38
1.769653 0.181101 -0.507967 2.341805152028776e-38
1.774355 0.172648 -0.509090 2.341805152028776e-38
1.776145 0.163890 -0.509388 2.341805152028776e-38
1.778849 0.155204 -0.509958 2.341805152028776e-38
1.778630 0.146268 -0.509723 2.341805152028776e-38
1.775487 0.137121 -0.508674 2.341805152028776e-38
1.774216 0.128147 -0.508171 2.341805152028776e-38
1.777697 0.119513 -0.509037 2.341805152028776e-38
1.783056 0.110968 -0.510451 2.341805152028776e-38
1.782616 0.102042 -0.510212 2.341805152028776e-38
1.784052 0.093225 -0.510521 2.341805152028776e-38
1.784485 0.084352 -0.510551 2.341805152028776e-38
1.787757 0.075599 -0.511402 2.341805152028776e-38
1.788103 0.066708 -0.511426 2.341805152028776e-38
1.796095 0.058064 -0.513646 2.341805152028776e-38
1.802123 0.049291 -0.515313 2.341805152028776e-38
1.841753 0.041212 -0.526597 2.341805152028776e-38
1.846738 0.032138 -0.527983 2.341805152028776e-38
1.742326 0.569550 -0.533098 2.341805152028776e-38
1.706912 0.548055 -0.521321 2.341805152028776e-38
1.705174 0.537692 -0.519917 2.341805152028776e-38
1.707043 0.528506 -0.519623 2.341805152028776e-38
1.711618 0.520160 -0.520160 2.341805152028776e-38
1.713392 0.510965 -0.519851 2.341805152028776e-38
1.716961 0.502313 -0.520094 2.341805152028776e-38
1.716793 0.492586 -0.519212 2.341805152028776e-38
1.718416 0.483407 -0.518887 2.341805152028776e-38
1.715331 0.473008 -0.517214 2.341805152028776e-38
1.717747 0.464163 -0.517210 2.341805152028776e-38
1.723830 0.456296 -0.518317 2.341805152028776e-38
1.732666 0.449109 -0.520255 2.341805152028776e-38
1.734959 0.440197 -0.520232 2.341805152028776e-38
1.735341 0.430818 -0.519646 2.341805152028776e-38
1.732873 0.420774 -0.518217 2.341805152028776e-38
1.735007 0.411905 -0.518203 2.341805152028776e-38
1.735208 0.402624 -0.517660 2.341805152028776e-38
1.738170 0.393995 -0.517948 2.341805152028776e-38
1.738276 0.384730 -0.517395 2.341805152028776e-38
1.740209 0.375885 -0.517395 2.341805152028776e-38
1.746797 0.368027 -0.518785 2.341805152028776e-38
1.751468 0.359732 -0.519613 2.341805152028776e-38
1.753274 0.350841 -0.519600 2.341805152028776e-38
1.755978 0.342131 -0.519861 2.341805152028776e-38
1.753900 0.332549 -0.518776 2.341805152028776e-38
1.753657 0.323351 -0.518248 2.341805152028776e-38
1.754311 0.314339 -0.517996 2.341805152028776e-38
1.758704 0.305992 -0.518856 2.341805152028776e-38
1.759269 0.296974 -0.518597 2.341805152028776e-38
1.760736 0.288118 -0.518613 2.341805152028776e-38
1.763108 0.279410 -0.518905 2.341805152028776e-38
1.764487 0.270545 -0.518915 2.341805152028776e-38
1.762972 0.261256 -0.518084 2.341805152028776e-38
1.763309 0.252266 -0.517809 2.341805152028776e-38
1.764538 0.243434 -0.517851 2.341805152028776e-38
1.765720 0.234603 -0.517898 2.341805152028776e-38
1.766859 0.225769 -0.517942 2.341805152028776e-38
1.766047 0.216699 -0.517424 2.341805152028776e-38
1.762329 0.207308 -0.516066 2.341805152028776e-38
1.765241 0.198715 -0.516659 2.341805152028776e-38
1.767156 0.189998 -0.516972 2.341805152028776e-38
1.770940 0.181465 -0.517840 2.341805152028776e-38
1.772771 0.172716 -0.518147 2.341805152028776e-38
1.772647 0.163778 -0.517894 2.341805152028776e-38
1.772479 0.154849 -0.517638 2.341805152028776e-38
1.774180 0.146085 -0.517939 2.341805152028776e-38
1.774881 0.137237 -0.517959 2.341805152028776e-38
1.776495 0.128457 -0.518256 2.341805152028776e-38
1.778066 0.119666 -0.518552 2.341805152028776e-38
1.780546 0.110929 -0.519147 2.341805152028776e-38
1.780107 0.102007 -0.518905 2.341805152028776e-38
1.783459 0.093293 -0.519778 2.341805152028776e-38
1.782933 0.084368 -0.519530 2.341805152028776e-38
1.787160 0.075654 -0.520676 2.341805152028776e-38
1.785589 0.066685 -0.520142 2.341805152028776e-38
1.791650 0.057982 -0.521841 2.341805152028776e-38
1.801509 0.049326 -0.524654 2.341805152028776e-38
1.842043 0.041262 -0.536410 2.341805152028776e-38
1.870062 0.032579 -0.544529 2.341805152028776e-38
1.706873 0.548984 -0.531131 2.341805152028776e-38
1.706091 0.538855 -0.529948 2.341805152028776e-38
1.706136 0.529088 -0.529088 2.341805152028776e-38
1.709794 0.520461 -0.529358 2.341805152028776e-38
1.712490 0.511543 -0.529336 2.341805152028776e-38
1.712379 0.501810 -0.528455 2.341805152028776e-38
1.711292 0.491835 -0.527283 2.341805152028776e-38
1.712916 0.482674 -0.526956 2.341805152028776e-38
1.715414 0.473772 -0.526906 2.341805152028776e-38
1.720611 0.465670 -0.527759 2.341805152028776e-38
1.722062 0.456551 -0.527472 2.341805152028776e-38
1.733674 0.450088 -0.530302 2.341805152028776e-38
1.735971 0.441163 -0.530287 2.341805152028776e-38
1.734500 0.431308 -0.529130 2.341805152028776e-38
1.731110 0.421034 -0.527400 2.341805152028776e-38
1.731392 0.411701 -0.526801 2.341805152028776e-38
1.735355 0.403260 -0.527340 2.341805152028776e-38
1.735513 0.393985 -0.526788 2.341805152028776e-38
1.735622 0.384724 -0.526232 2.341805152028776e-38
1.739430 0.376290 -0.526806 2.341805152028776e-38
1.742260 0.367635 -0.527091 2.341805152028776e-38
1.749742 0.359934 -0.528791 2.341805152028776e-38
1.755310 0.351795 -0.529920 2.341805152028776e-38
1.752371 0.341964 -0.528489 2.341805152028776e-38
1.747493 0.331820 -0.526487 2.341805152028776e-38
1.751978 0.323494 -0.527340 2.341805152028776e-38
1.753579 0.314651 -0.527372 2.341805152028776e-38
1.755134 0.305804 -0.527400 2.341805152028776e-38
1.755701 0.296794 -0.527141 2.341805152028776e-38
1.758113 0.288101 -0.527446 2.341805152028776e-38
1.758589 0.279096 -0.527181 2.341805152028776e-38
1.759019 0.270098 -0.526912 2.341805152028776e-38
1.761300 0.261389 -0.527208 2.341805152028776e-38
1.764487 0.252805 -0.527785 2.341805152028776e-38
1.765733 0.243937 -0.527792 2.341805152028776e-38
1.766934 0.235069 -0.527796 2.341805152028776e-38
1.768080 0.226212 -0.527828 2.341805152028776e-38
1.769177 0.217359 -0.527873 2.341805152028776e-38
1.768325 0.208280 -0.527346 2.341805152028776e-38
1.767428 0.199217 -0.526817 2.341805152028776e-38
1.769345 0.190478 -0.527137 2.341805152028776e-38
1.770265 0.181630 -0.527171 2.341805152028776e-38
1.770187 0.172687 -0.526918 2.341805152028776e-38
1.772929 0.164017 -0.527515 2.341805152028776e-38
1.772763 0.155076 -0.527257 2.341805152028776e-38
1.773508 0.146221 -0.527281 2.341805152028776e-38
1.775165 0.137439 -0.527588 2.341805152028776e-38
1.778692 0.128785 -0.528461 2.341805152028776e-38
1.778350 0.119843 -0.528195 2.341805152028776e-38
1.779878 0.111029 -0.528496 2.341805152028776e-38
1.777533 0.101984 -0.527659 2.341805152028776e-38
1.778973 0.093169 -0.527957 2.341805152028776e-38
1.782285 0.084434 -0.528821 2.341805152028776e-38
1.782681 0.075547 -0.528832 2.341805152028776e-38
1.783989 0.066697 -0.529129 2.341805152028776e-38
1.790043 0.057993 -0.530857 2.341805152028776e-38
1.801804 0.049388 -0.534286 2.341805152028776e-38
1.821194 0.040839 -0.539986 2.341805152028776e-38
1.833833 0.031982 -0.543694 2.341805152028776e-38
1.912579 0.023824 -0.567010 2.341805152028776e-38
1.707682 0.550210 -0.541264 2.341805152028776e-38
1.702356 0.538613 -0.538613 2.341805152028776e-38
1.706091 0.529948 -0.538855 2.341805152028776e-38
1.707921 0.520755 -0.538558 2.341805152028776e-38
1.709701 0.511565 -0.538255 2.341805152028776e-38
1.709595 0.501839 -0.537367 2.341805152028776e-38
1.710354 0.492401 -0.536761 2.341805152028776e-38
1.717510 0.484797 -0.538169 2.341805152028776e-38
1.718174 0.475354 -0.537549 2.341805152028776e-38
1.718787 0.465925 -0.536923 2.341805152028776e-38
1.723022 0.457537 -0.537495 2.341805152028776e-38
1.736477 0.451542 -0.540957 2.341805152028776e-38
1.742493 0.443539 -0.542103 2.341805152028776e-38
1.737324 0.432716 -0.539780 2.341805152028776e-38
1.732090 0.421966 -0.537452 2.341805152028776e-38
1.732379 0.412620 -0.536850 2.341805152028776e-38
1.732618 0.403290 -0.536242 2.341805152028776e-38
1.736542 0.394825 -0.536784 2.341805152028776e-38
1.736662 0.385542 -0.536214 2.341805152028776e-38
1.741408 0.377296 -0.537092 2.341805152028776e-38
1.746114 0.369018 -0.537966 2.341805152028776e-38
1.752657 0.361095 -0.539413 2.341805152028776e-38
1.753531 0.351990 -0.539124 2.341805152028776e-38
1.751540 0.342341 -0.537964 2.341805152028776e-38
1.750437 0.332907 -0.537090 2.341805152028776e-38
1.754931 0.324544 -0.537943 2.341805152028776e-38
1.752790 0.314966 -0.536772 2.341805152028776e-38
1.754354 0.306104 -0.536790 2.341805152028776e-38
1.756811 0.297407 -0.537109 2.341805152028776e-38
1.757335 0.288389 -0.536847 2.341805152028776e-38
1.756868 0.279227 -0.536293 2.341805152028776e-38
1.760139 0.270664 -0.536890 2.341805152028776e-38
1.761474 0.261798 -0.536907 2.341805152028776e-38
1.763713 0.253066 -0.537210 2.341805152028776e-38
1.766857 0.244454 -0.537799 2.341805152028776e-38
1.770908 0.235948 -0.538675 2.341805152028776e-38
1.772069 0.227048 -0.538681 2.341805152028776e-38
1.770334 0.217795 -0.537820 2.341805152028776e-38
1.769499 0.208686 -0.537256 2.341805152028776e-38
1.769558 0.199714 -0.537010 2.341805152028776e-38
1.769572 0.190750 -0.536761 2.341805152028776e-38
1.774303 0.182281 -0.537952 2.341805152028776e-38
1.775182 0.173401 -0.537986 2.341805152028776e-38
1.775064 0.164430 -0.537729 2.341805152028776e-38
1.775856 0.155550 -0.537759 2.341805152028776e-38
1.777557 0.146748 -0.538075 2.341805152028776e-38
1.783988 0.138304 -0.539833 2.341805152028776e-38
1.782740 0.129248 -0.539278 2.341805152028776e-38
1.781447 0.120211 -0.538721 2.341805152028776e-38
1.781064 0.111250 -0.538451 2.341805152028776e-38
1.779681 0.102244 -0.537891 2.341805152028776e-38
1.783989 0.093556 -0.539062 2.341805152028776e-38
1.787298 0.084784 -0.539942 2.341805152028776e-38
1.786739 0.075821 -0.539666 2.341805152028776e-38
1.788049 0.066938 -0.539965 2.341805152028776e-38
1.795056 0.058231 -0.541997 2.341805152028776e-38
1.800106 0.049405 -0.543450 2.341805152028776e-38
1.802243 0.040465 -0.544034 2.341805152028776e-38
1.816779 0.031724 -0.548373 2.341805152028776e-38
1.782680 0.585797 -0.576424 2.341805152028776e-38
1.709341 0.551722 -0.551722 2.341805152028776e-38
1.701303 0.539242 -0.548155 2.341805152028776e-38
1.705047 0.530563 -0.548397 2.341805152028776e-38
1.705998 0.521041 -0.547761 2.341805152028776e-38
1.703203 0.510481 -0.545993 2.341805152028776e-38
1.706764 0.501860 -0.546273 2.341805152028776e-38
1.710281 0.493224 -0.546545 2.341805152028776e-38
1.713755 0.484572 -0.546811 2.341805152028776e-38
1.716264 0.475651 -0.546776 2.341805152028776e-38
1.715958 0.465973 -0.545854 2.341805152028776e-38
1.722065 0.458041 -0.546981 2.341805152028776e-38
1.737365 0.452508 -0.551074 2.341805152028776e-38
1.738749 0.443310 -0.550779 2.341805152028776e-38
1.735446 0.432961 -0.549012 2.341805152028776e-38
1.730225 0.422211 -0.546653 2.341805152028776e-38
1.727729 0.412200 -0.545168 2.341805152028776e-38
1.729831 0.403319 -0.545145 2.341805152028776e-38
1.731887 0.394434 -0.545117 2.341805152028776e-38
1.735764 0.385962 -0.545671 2.341805152028776e-38
1.741457 0.377891 -0.546831 2.341805152028776e-38
1.743356 0.369009 -0.546845 2.341805152028776e-38
1.748955 0.360897 -0.548029 2.341805152028776e-38
1.747956 0.351424 -0.547154 2.341805152028776e-38
1.746905 0.341977 -0.546275 2.341805152028776e-38
1.745805 0.332557 -0.545393 2.341805152028776e-38
1.747473 0.323685 -0.545387 2.341805152028776e-38
1.750038 0.314980 -0.545670 2.341805152028776e-38
1.752558 0.306265 -0.545950 2.341805152028776e-38
1.752208 0.297059 -0.545347 2.341805152028776e-38
1.751791 0.287896 -0.544788 2.341805152028776e-38
1.754156 0.279203 -0.545110 2.341805152028776e-38
1.757424 0.270643 -0.545722 2.341805152028776e-38
1.758759 0.261780 -0.545744 2.341805152028776e-38
1.762889 0.253323 -0.546643 2.341805152028776e-38
1.765084 0.244573 -0.546953 2.341805152028776e-38
1.764393 0.235432 -0.546381 2.341805152028776e-38
1.764604 0.226431 -0.546099 2.341805152028776e-38
1.765717 0.217555 -0.546108 2.341805152028776e-38
1.765837 0.208566 -0.545822 2.341805152028776e-38
1.764961 0.199478 -0.545240 2.341805152028776e-38
1.765939 0.190614 -0.545244 2.341805152028776e-38
1.771620 0.182244 -0.546733 2.341805152028776e-38
1.771548 0.173273 -0.546477 2.341805152028776e-38
1.771431 0.164309 -0.546218 2.341805152028776e-38
1.771270 0.155353 -0.545956 2.341805152028776e-38
1.776780 0.146878 -0.547454 2.341805152028776e-38
1.778437 0.138057 -0.547775 2.341805152028776e-38
1.779098 0.129156 -0.547800 2.341805152028776e-38
1.777807 0.120125 -0.547236 2.341805152028776e-38
1.777425 0.111171 -0.546964 2.341805152028776e-38
1.780816 0.102446 -0.547864 2.341805152028776e-38
1.784165 0.093691 -0.548762 2.341805152028776e-38
1.784606 0.084770 -0.548777 2.341805152028776e-38
1.785958 0.075890 -0.549085 2.341805152028776e-38
1.790132 0.067106 -0.550271 2.341805152028776e-38
1.792353 0.058222 -0.550869 2.341805152028776e-38
1.806952 0.049659 -0.555283 2.341805152028776e-38
1.805264 0.040588 -0.554703 2.341805152028776e-38
1.809266 0.031636 -0.555883 2.341805152028776e-38
1.799547 0.592391 -0.592391 2.341805152028776e-38
1.710028 0.552932 -0.561923 2.341805152028776e-38
1.702016 0.540441 -0.558307 2.341805152028776e-38
1.702120 0.530614 -0.557368 2.341805152028776e-38
1.701255 0.520532 -0.556124 2.341805152028776e-38
1.702155 0.511037 -0.555475 2.341805152028776e-38
1.705718 0.502413 -0.555767 2.341805152028776e-38
1.708320 0.493509 -0.555754 2.341805152028776e-38
1.709957 0.484339 -0.555435 2.341805152028776e-38
1.708785 0.474408 -0.554215 2.341805152028776e-38
1.714004 0.466264 -0.555077 2.341805152028776e-38
1.717339 0.457596 -0.555335 2.341805152028776e-38
1.729866 0.451324 -0.558569 2.341805152028776e-38
1.733112 0.442602 -0.558841 2.341805152028776e-38
1.731666 0.432735 -0.557649 2.341805152028776e-38
1.727384 0.422223 -0.555556 2.341805152028776e-38
1.724896 0.412217 -0.554055 2.341805152028776e-38
1.726068 0.403123 -0.553741 2.341805152028776e-38
1.730915 0.394886 -0.554615 2.341805152028776e-38
1.732928 0.385994 -0.554589 2.341805152028776e-38
1.735828 0.377303 -0.554857 2.341805152028776e-38
1.737750 0.368402 -0.554822 2.341805152028776e-38
1.744276 0.360499 -0.556326 2.341805152028776e-38
1.745150 0.351417 -0.556040 2.341805152028776e-38
1.744105 0.341975 -0.555154 2.341805152028776e-38
1.743008 0.332558 -0.554263 2.341805152028776e-38
1.748431 0.324386 -0.555456 2.341805152028776e-38
1.747240 0.314989 -0.554558 2.341805152028776e-38
1.748819 0.306112 -0.554551 2.341805152028776e-38
1.748471 0.296914 -0.553944 2.341805152028776e-38
1.750900 0.288199 -0.554229 2.341805152028776e-38
1.749515 0.278873 -0.553320 2.341805152028776e-38
1.751835 0.270180 -0.553648 2.341805152028776e-38
1.756944 0.261897 -0.554867 2.341805152028776e-38
