VERSION .7
FIELDS x y z rgb
SIZE 4 4 4 4
TYPE F F F F
COUNT 1 1 1 1
WIDTH 976
HEIGHT 1
VIEWPOINT 0 0 0 1 0 0 0
POINTS 976
DATA ascii
1.678242 0.470663 0.487935 2.341805152028776e-38
1.683431 0.462783 0.488733 2.341805152028776e-38
1.683935 0.453616 0.488177 2.341805152028776e-38
1.683458 0.444217 0.487345 2.341805152028776e-38
1.683861 0.435083 0.486776 2.341805152028776e-38
1.685148 0.426201 0.486472 2.341805152028776e-38
1.687299 0.417597 0.486479 2.341805152028776e-38
1.691272 0.409450 0.487030 2.341805152028776e-38
1.694270 0.401057 0.487306 2.341805152028776e-38
1.697225 0.392651 0.487578 2.341805152028776e-38
1.698261 0.383807 0.487305 2.341805152028776e-38
1.698310 0.374761 0.486758 2.341805152028776e-38
1.701135 0.366339 0.487015 2.341805152028776e-38
1.700149 0.357113 0.486190 2.341805152028776e-38
1.702866 0.348719 0.486484 2.341805152028776e-38
1.704594 0.340130 0.486515 2.341805152028776e-38
1.705333 0.331354 0.486272 2.341805152028776e-38
1.708866 0.323120 0.486835 2.341805152028776e-38
1.712359 0.314864 0.487393 2.341805152028776e-38
1.712968 0.306078 0.487139 2.341805152028776e-38
1.716380 0.297793 0.487690 2.341805152028776e-38
1.716902 0.289007 0.487429 2.341805152028776e-38
1.719280 0.280538 0.487704 2.341805152028776e-38
1.719702 0.271775 0.487470 2.341805152028776e-38
1.720073 0.263029 0.487251 2.341805152028776e-38
1.722305 0.254571 0.487568 2.341805152028776e-38
1.722590 0.245827 0.487342 2.341805152028776e-38
1.726646 0.237616 0.488192 2.341805152028776e-38
1.727800 0.228993 0.488231 2.341805152028776e-38
1.730822 0.220612 0.488806 2.341805152028776e-38
1.734759 0.212325 0.489648 2.341805152028776e-38
1.736744 0.203784 0.489948 2.341805152028776e-38
1.738687 0.195231 0.490246 2.341805152028776e-38
1.737716 0.186358 0.489732 2.341805152028776e-38
1.736701 0.177503 0.489216 2.341805152028776e-38
1.737549 0.168861 0.489264 2.341805152028776e-38
1.739310 0.160308 0.489590 2.341805152028776e-38
1.740071 0.151659 0.489643 2.341805152028776e-38
1.738870 0.142850 0.489153 2.341805152028776e-38
1.740505 0.134279 0.489469 2.341805152028776e-38
1.742099 0.125696 0.489783 2.341805152028776e-38
1.744612 0.117166 0.490363 2.341805152028776e-38
1.743240 0.108376 0.489861 2.341805152028776e-38
1.744709 0.099768 0.490165 2.341805152028776e-38
1.749982 0.091349 0.491547 2.341805152028776e-38
1.771565 0.083653 0.497518 2.341805152028776e-38
1.786381 0.075461 0.501595 2.341805152028776e-38
1.669787 0.622132 0.489763 2.341805152028776e-38
1.654045 0.606322 0.484186 2.341805152028776e-38
1.649069 0.594629 0.481780 2.341805152028776e-38
1.650377 0.585269 0.481221 2.341805152028776e-38
1.651631 0.575918 0.480653 2.341805152028776e-38
1.652833 0.566578 0.480078 2.341805152028776e-38
1.654896 0.557557 0.479759 2.341805152028776e-38
1.660538 0.549809 0.480542 2.341805152028776e-38
1.661554 0.540540 0.479999 2.341805152028776e-38
1.663437 0.531575 0.479714 2.341805152028776e-38
1.664352 0.522324 0.479157 2.341805152028776e-38
1.667058 0.513653 0.479122 2.341805152028776e-38
1.669719 0.504976 0.479080 2.341805152028776e-38
1.671407 0.496025 0.478772 2.341805152028776e-38
1.673941 0.487401 0.478774 2.341805152028776e-38
1.676432 0.478769 0.478769 2.341805152028776e-38
1.680735 0.470652 0.479288 2.341805152028776e-38
1.685929 0.462765 0.480065 2.341805152028776e-38
1.684567 0.453091 0.478982 2.341805152028776e-38
1.686880 0.444433 0.478952 2.341805152028776e-38
1.686348 0.435048 0.478122 2.341805152028776e-38
1.686670 0.425973 0.477606 2.341805152028776e-38
1.688814 0.417377 0.477617 2.341805152028776e-38
1.694664 0.409683 0.478682 2.341805152028776e-38
1.698603 0.401502 0.479213 2.341805152028776e-38
1.698743 0.392430 0.478679 2.341805152028776e-38
1.699776 0.383586 0.478405 2.341805152028776e-38
1.702647 0.375162 0.478656 2.341805152028776e-38
1.702643 0.366125 0.478116 2.341805152028776e-38
1.705402 0.357734 0.478415 2.341805152028776e-38
1.705285 0.348749 0.477915 2.341805152028776e-38
1.709849 0.340722 0.478736 2.341805152028776e-38
1.712483 0.332295 0.479022 2.341805152028776e-38
1.713181 0.323497 0.478775 2.341805152028776e-38
1.714782 0.314879 0.478789 2.341805152028776e-38
1.718238 0.306598 0.479329 2.341805152028776e-38
1.721654 0.298295 0.479865 2.341805152028776e-38
1.720269 0.289182 0.479092 2.341805152028776e-38
1.723581 0.280891 0.479675 2.341805152028776e-38
1.724949 0.272276 0.479725 2.341805152028776e-38
1.727228 0.263804 0.480037 2.341805152028776e-38
1.726603 0.254896 0.479550 2.341805152028776e-38
1.726888 0.246140 0.479326 2.341805152028776e-38
1.729995 0.237785 0.479893 2.341805152028776e-38
1.731149 0.229155 0.479928 2.341805152028776e-38
1.733218 0.220644 0.480225 2.341805152028776e-38
1.734288 0.212004 0.480255 2.341805152028776e-38
1.737230 0.203587 0.480811 2.341805152028776e-38
1.735337 0.194616 0.480053 2.341805152028776e-38
1.735306 0.185889 0.479852 2.341805152028776e-38
1.737151 0.177363 0.480178 2.341805152028776e-38
1.739914 0.168918 0.480766 2.341805152028776e-38
1.743597 0.160539 0.481616 2.341805152028776e-38
1.743398 0.151793 0.481402 2.341805152028776e-38
1.743156 0.143055 0.481185 2.341805152028776e-38
1.746716 0.134620 0.482026 2.341805152028776e-38
1.747352 0.125946 0.482068 2.341805152028776e-38
1.745058 0.117076 0.481311 2.341805152028776e-38
1.746570 0.108471 0.481612 2.341805152028776e-38
1.747078 0.099800 0.481646 2.341805152028776e-38
1.750432 0.091279 0.482472 2.341805152028776e-38
1.773970 0.083680 0.488869 2.341805152028776e-38
1.682311 0.625823 0.483793 2.341805152028776e-38
1.651146 0.604312 0.473885 2.341805152028776e-38
1.648871 0.593620 0.472296 2.341805152028776e-38
1.650171 0.584265 0.471740 2.341805152028776e-38
1.654153 0.575873 0.471956 2.341805152028776e-38
1.656266 0.566838 0.471644 2.341805152028776e-38
1.656470 0.557237 0.470844 2.341805152028776e-38
1.659359 0.548584 0.470832 2.341805152028776e-38
1.663121 0.540222 0.471073 2.341805152028776e-38
1.664081 0.530961 0.470527 2.341805152028776e-38
1.666833 0.522290 0.470492 2.341805152028776e-38
1.670462 0.513895 0.470711 2.341805152028776e-38
1.673122 0.505210 0.470665 2.341805152028776e-38
1.674778 0.496302 0.470408 2.341805152028776e-38
1.676387 0.487396 0.470143 2.341805152028776e-38
1.678878 0.478758 0.470132 2.341805152028776e-38
1.683183 0.470635 0.470635 2.341805152028776e-38
1.685587 0.461976 0.470611 2.341805152028776e-38
1.687946 0.453311 0.470580 2.341805152028776e-38
1.687459 0.443907 0.469765 2.341805152028776e-38
1.685954 0.434339 0.468742 2.341805152028776e-38
1.690013 0.426220 0.469272 2.341805152028776e-38
1.692159 0.417614 0.469278 2.341805152028776e-38
1.697077 0.409683 0.470058 2.341805152028776e-38
1.697258 0.400610 0.469533 2.341805152028776e-38
1.699274 0.391987 0.469522 2.341805152028776e-38
1.700303 0.383147 0.469247 2.341805152028776e-38
1.704105 0.374955 0.469771 2.341805152028776e-38
1.705964 0.366361 0.469805 2.341805152028776e-38
1.707780 0.357763 0.469834 2.341805152028776e-38
1.711444 0.349547 0.470378 2.341805152028776e-38
1.714123 0.341120 0.470659 2.341805152028776e-38
1.712968 0.331944 0.469895 2.341805152028776e-38
1.714612 0.323331 0.469908 2.341805152028776e-38
1.717161 0.314889 0.470176 2.341805152028776e-38
1.718719 0.306265 0.470181 2.341805152028776e-38
1.718311 0.297341 0.469713 2.341805152028776e-38
1.720713 0.288915 0.470026 2.341805152028776e-38
1.723074 0.280475 0.470335 2.341805152028776e-38
1.725393 0.272022 0.470641 2.341805152028776e-38
1.724808 0.263119 0.470164 2.341805152028776e-38
1.727999 0.254795 0.470724 2.341805152028776e-38
1.729238 0.246177 0.470760 2.341805152028776e-38
1.730434 0.237557 0.470794 2.341805152028776e-38
1.728716 0.228554 0.470044 2.341805152028776e-38
1.729825 0.219942 0.470072 2.341805152028776e-38
1.730882 0.211341 0.470125 2.341805152028776e-38
1.732851 0.202856 0.470454 2.341805152028776e-38
1.735738 0.194466 0.471039 2.341805152028776e-38
1.738585 0.186053 0.471622 2.341805152028776e-38
1.738511 0.177323 0.471420 2.341805152028776e-38
1.742237 0.168973 0.472257 2.341805152028776e-38
1.742079 0.160237 0.472049 2.341805152028776e-38
1.744762 0.151759 0.472620 2.341805152028776e-38
1.744519 0.143022 0.472405 2.341805152028776e-38
1.745195 0.134366 0.472449 2.341805152028776e-38
1.742941 0.125500 0.471708 2.341805152028776e-38
1.744495 0.116919 0.472006 2.341805152028776e-38
1.745044 0.108266 0.472040 2.341805152028776e-38
1.750370 0.099887 0.473376 2.341805152028776e-38
1.755656 0.091458 0.474708 2.341805152028776e-38
1.778261 0.083797 0.480731 2.341805152028776e-38
1.677242 0.612913 0.471811 2.341805152028776e-38
1.654988 0.594893 0.464625 2.341805152028776e-38
1.655380 0.585189 0.463816 2.341805152028776e-38
1.660282 0.577091 0.464276 2.341805152028776e-38
1.661463 0.567754 0.463738 2.341805152028776e-38
1.663490 0.558766 0.463472 2.341805152028776e-38
1.665469 0.549778 0.463199 2.341805152028776e-38
1.666479 0.540494 0.462663 2.341805152028776e-38
1.668359 0.531514 0.462374 2.341805152028776e-38
1.671114 0.522826 0.462334 2.341805152028776e-38
1.672899 0.513847 0.462030 2.341805152028776e-38
1.676452 0.505491 0.462287 2.341805152028776e-38
1.679035 0.496846 0.462283 2.341805152028776e-38
1.681574 0.488194 0.462272 2.341805152028776e-38
1.683139 0.479270 0.461999 2.341805152028776e-38
1.684656 0.470351 0.461720 2.341805152028776e-38
1.688923 0.462200 0.462200 2.341805152028776e-38
1.692216 0.453779 0.462422 2.341805152028776e-38
1.691696 0.444414 0.461673 2.341805152028776e-38
1.692998 0.435554 0.461428 2.341805152028776e-38
1.694253 0.426697 0.461178 2.341805152028776e-38
1.697340 0.418308 0.461433 2.341805152028776e-38
1.699445 0.409678 0.461427 2.341805152028776e-38
1.701506 0.401043 0.461415 2.341805152028776e-38
1.704466 0.392622 0.461654 2.341805152028776e-38
1.708310 0.384431 0.462181 2.341805152028776e-38
1.708328 0.375403 0.461703 2.341805152028776e-38
1.710189 0.366795 0.461731 2.341805152028776e-38
1.712007 0.358183 0.461754 2.341805152028776e-38
1.712835 0.349374 0.461518 2.341805152028776e-38
1.713617 0.340570 0.461278 2.341805152028776e-38
1.715304 0.331956 0.461289 2.341805152028776e-38
1.715047 0.322981 0.460786 2.341805152028776e-38
1.716636 0.314386 0.460813 2.341805152028776e-38
1.719121 0.305979 0.461124 2.341805152028776e-38
1.723471 0.297888 0.461942 2.341805152028776e-38
1.724923 0.289284 0.461990 2.341805152028776e-38
1.726333 0.280676 0.462036 2.341805152028776e-38
1.726745 0.271914 0.461822 2.341805152028776e-38
1.729024 0.263450 0.462116 2.341805152028776e-38
1.732219 0.255113 0.462663 2.341805152028776e-38
1.733459 0.246483 0.462696 2.341805152028776e-38
1.731783 0.237456 0.461959 2.341805152028776e-38
1.731009 0.228597 0.461507 2.341805152028776e-38
1.731143 0.219883 0.461324 2.341805152028776e-38
1.732194 0.211292 0.461393 2.341805152028776e-38
1.735124 0.202922 0.461970 2.341805152028776e-38
1.739935 0.194743 0.463056 2.341805152028776e-38
1.738941 0.185906 0.462604 2.341805152028776e-38
1.742712 0.177575 0.463428 2.341805152028776e-38
1.744519 0.169026 0.463737 2.341805152028776e-38
1.745322 0.160375 0.463788 2.341805152028776e-38
1.746083 0.151722 0.463836 2.341805152028776e-38
1.745838 0.142987 0.463625 2.341805152028776e-38
1.745550 0.134259 0.463410 2.341805152028776e-38
1.746184 0.125608 0.463449 2.341805152028776e-38
1.747740 0.117019 0.463741 2.341805152028776e-38
1.750218 0.108479 0.464290 2.341805152028776e-38
1.757478 0.100195 0.466126 2.341805152028776e-38
1.759873 0.091591 0.466678 2.341805152028776e-38
1.785401 0.084057 0.473371 2.341805152028776e-38
1.689155 0.626454 0.466508 2.341805152028776e-38
1.678807 0.612548 0.462716 2.341805152028776e-38
1.658337 0.595179 0.456159 2.341805152028776e-38
1.658726 0.585461 0.455359 2.341805152028776e-38
1.664532 0.577693 0.456073 2.341805152028776e-38
1.665696 0.568370 0.455563 2.341805152028776e-38
1.665889 0.558748 0.454795 2.341805152028776e-38
1.667866 0.549753 0.454521 2.341805152028776e-38
1.668874 0.540461 0.453988 2.341805152028776e-38
1.670753 0.531474 0.453698 2.341805152028776e-38
1.674431 0.523067 0.453901 2.341805152028776e-38
1.676185 0.514132 0.453646 2.341805152028776e-38
1.677886 0.505208 0.453392 2.341805152028776e-38
1.679539 0.496287 0.453131 2.341805152028776e-38
1.682075 0.487638 0.453115 2.341805152028776e-38
1.682705 0.478452 0.452590 2.341805152028776e-38
1.687014 0.470320 0.453061 2.341805152028776e-38
1.692216 0.462422 0.453779 2.341805152028776e-38
1.693610 0.453545 0.453545 2.341805152028776e-38
1.694022 0.444424 0.453054 2.341805152028776e-38
1.693447 0.435077 0.452307 2.341805152028776e-38
1.696576 0.426697 0.452557 2.341805152028776e-38
1.699664 0.418302 0.452801 2.341805152028776e-38
1.701770 0.409666 0.452789 2.341805152028776e-38
1.705716 0.401470 0.453272 2.341805152028776e-38
1.709600 0.393292 0.453798 2.341805152028776e-38
1.710607 0.384463 0.453580 2.341805152028776e-38
1.712513 0.375846 0.453607 2.341805152028776e-38
1.712483 0.366819 0.453129 2.341805152028776e-38
1.714301 0.358202 0.453147 2.341805152028776e-38
1.716076 0.349582 0.453161 2.341805152028776e-38
1.716859 0.340769 0.452921 2.341805152028776e-38
1.715695 0.331595 0.452175 2.341805152028776e-38
1.716366 0.322838 0.451973 2.341805152028776e-38
1.722703 0.315138 0.453281 2.341805152028776e-38
1.725193 0.306709 0.453583 2.341805152028776e-38
1.728597 0.298430 0.454133 2.341805152028776e-38
1.728142 0.289489 0.453676 2.341805152028776e-38
1.727641 0.280562 0.453216 2.341805152028776e-38
1.729007 0.271952 0.453254 2.341805152028776e-38
1.732245 0.263630 0.453790 2.341805152028776e-38
1.736401 0.255427 0.454574 2.341805152028776e-38
1.736675 0.246663 0.454380 2.341805152028776e-38
1.734020 0.237523 0.453454 2.341805152028776e-38
1.731319 0.228417 0.452524 2.341805152028776e-38
1.732411 0.219831 0.452594 2.341805152028776e-38
1.734423 0.211359 0.452911 2.341805152028776e-38
1.736394 0.202872 0.453226 2.341805152028776e-38
1.740248 0.194588 0.454039 2.341805152028776e-38
1.740214 0.185861 0.453846 2.341805152028776e-38
1.743988 0.177531 0.454653 2.341805152028776e-38
1.747723 0.169170 0.455458 2.341805152028776e-38
1.747563 0.160423 0.455256 2.341805152028776e-38
1.747360 0.151683 0.455050 2.341805152028776e-38
1.748078 0.143029 0.455093 2.341805152028776e-38
1.749715 0.134451 0.455400 2.341805152028776e-38
1.749380 0.125723 0.455202 2.341805152028776e-38
1.749967 0.117065 0.455252 2.341805152028776e-38
1.754377 0.108644 0.456304 2.341805152028776e-38
1.763579 0.100457 0.458608 2.341805152028776e-38
1.766944 0.091880 0.459402 2.341805152028776e-38
1.795406 0.084455 0.466727 2.341805152028776e-38
1.820936 0.076629 0.473295 2.341805152028776e-38
1.721598 0.637531 0.465714 2.341805152028776e-38
1.665751 0.606869 0.449694 2.341805152028776e-38
1.659816 0.594805 0.447189 2.341805152028776e-38
1.659281 0.584770 0.446158 2.341805152028776e-38
1.665061 0.577050 0.446888 2.341805152028776e-38
1.666218 0.567729 0.446382 2.341805152028776e-38
1.667324 0.558417 0.445868 2.341805152028776e-38
1.668377 0.549116 0.445346 2.341805152028776e-38
1.673990 0.541317 0.446046 2.341805152028776e-38
1.675872 0.532308 0.445754 2.341805152028776e-38
1.677679 0.523350 0.445496 2.341805152028776e-38
1.676647 0.513561 0.444511 2.341805152028776e-38
1.681129 0.505478 0.444993 2.341805152028776e-38
1.683712 0.496819 0.444977 2.341805152028776e-38
1.685320 0.487884 0.444708 2.341805152028776e-38
1.685948 0.478687 0.444187 2.341805152028776e-38
1.691194 0.470805 0.444889 2.341805152028776e-38
1.692631 0.461928 0.444660 2.341805152028776e-38
1.695895 0.453555 0.444916 2.341805152028776e-38
1.693491 0.443692 0.443692 2.341805152028776e-38
1.695725 0.435076 0.443691 2.341805152028776e-38
1.698856 0.426690 0.443930 2.341805152028776e-38
1.703828 0.418752 0.444654 2.341805152028776e-38
1.707820 0.410555 0.445128 2.341805152028776e-38
1.709860 0.401940 0.445159 2.341805152028776e-38
1.711855 0.393323 0.445190 2.341805152028776e-38
1.715697 0.385127 0.445708 2.341805152028776e-38
1.712873 0.375453 0.444502 2.341805152028776e-38
1.717578 0.367445 0.445257 2.341805152028776e-38
1.720348 0.359008 0.445516 2.341805152028776e-38
1.718328 0.349591 0.444542 2.341805152028776e-38
1.715302 0.340027 0.443327 2.341805152028776e-38
1.718866 0.331830 0.443876 2.341805152028776e-38
1.721438 0.323430 0.444177 2.341805152028776e-38
1.728737 0.315887 0.445703 2.341805152028776e-38
1.730278 0.307265 0.445751 2.341805152028776e-38
1.733687 0.298969 0.446286 2.341805152028776e-38
1.731320 0.289689 0.445343 2.341805152028776e-38
1.730818 0.280755 0.444889 2.341805152028776e-38
1.731228 0.271987 0.444677 2.341805152028776e-38
1.735421 0.263816 0.445460 2.341805152028776e-38
1.735728 0.255072 0.445295 2.341805152028776e-38
1.737910 0.246604 0.445619 2.341805152028776e-38
1.736211 0.237597 0.444955 2.341805152028776e-38
1.735426 0.228740 0.444533 2.341805152028776e-38
1.737482 0.220264 0.444847 2.341805152028776e-38
1.738535 0.211657 0.444911 2.341805152028776e-38
1.740509 0.203158 0.445219 2.341805152028776e-38
1.743405 0.194754 0.445770 2.341805152028776e-38
1.746261 0.186327 0.446318 2.341805152028776e-38
1.749077 0.177878 0.446863 2.341805152028776e-38
1.749923 0.169219 0.446913 2.341805152028776e-38
1.749757 0.160476 0.446729 2.341805152028776e-38
1.749547 0.151739 0.446546 2.341805152028776e-38
1.752193 0.143245 0.447098 2.341805152028776e-38
1.751899 0.134506 0.446908 2.341805152028776e-38
1.754462 0.125982 0.447454 2.341805152028776e-38
1.755051 0.117307 0.447503 2.341805152028776e-38
1.760435 0.108928 0.448781 2.341805152028776e-38
1.764811 0.100443 0.449810 2.341805152028776e-38
1.770115 0.091968 0.451082 2.341805152028776e-38
1.798612 0.084535 0.458270 2.341805152028776e-38
1.848381 0.077718 0.470882 2.341805152028776e-38
1.712206 0.633118 0.453510 2.341805152028776e-38
1.668109 0.606824 0.440929 2.341805152028776e-38
1.663988 0.595405 0.438949 2.341805152028776e-38
1.665251 0.586053 0.438454 2.341805152028776e-38
1.669207 0.577671 0.438683 2.341805152028776e-38
1.668528 0.567707 0.437698 2.341805152028776e-38
1.666869 0.557464 0.436464 2.341805152028776e-38
1.668837 0.548473 0.436187 2.341805152028776e-38
1.674451 0.540676 0.436866 2.341805152028776e-38
1.677233 0.532000 0.436846 2.341805152028776e-38
1.680880 0.523637 0.437085 2.341805152028776e-38
1.683557 0.514972 0.437077 2.341805152028776e-38
1.685260 0.506020 0.436821 2.341805152028776e-38
1.686915 0.497071 0.436558 2.341805152028776e-38
1.688523 0.488124 0.436288 2.341805152028776e-38
1.689149 0.478916 0.435770 2.341805152028776e-38
1.692499 0.470561 0.436025 2.341805152028776e-38
1.695807 0.462194 0.436276 2.341805152028776e-38
1.698135 0.453560 0.436281 2.341805152028776e-38
1.694786 0.443445 0.434835 2.341805152028776e-38
1.697959 0.435069 0.435069 2.341805152028776e-38
1.701091 0.426677 0.435297 2.341805152028776e-38
1.707952 0.419197 0.436483 2.341805152028776e-38
1.711921 0.411039 0.437000 2.341805152028776e-38
1.713016 0.402193 0.436790 2.341805152028776e-38
1.714066 0.393350 0.436575 2.341805152028776e-38
1.716017 0.384724 0.436597 2.341805152028776e-38
1.717925 0.376093 0.436614 2.341805152028776e-38
1.718840 0.367255 0.436385 2.341805152028776e-38
1.714960 0.357432 0.434947 2.341805152028776e-38
1.713868 0.348262 0.434253 2.341805152028776e-38
1.716521 0.339897 0.434552 2.341805152028776e-38
1.721040 0.331885 0.435329 2.341805152028776e-38
1.724568 0.323660 0.435862 2.341805152028776e-38
1.729011 0.315585 0.436632 2.341805152028776e-38
1.731506 0.307139 0.436916 2.341805152028776e-38
1.732047 0.298350 0.436715 2.341805152028776e-38
1.730630 0.289246 0.436028 2.341805152028776e-38
1.731081 0.280478 0.435820 2.341805152028776e-38
1.733389 0.272048 0.436140 2.341805152028776e-38
1.736613 0.263752 0.436704 2.341805152028776e-38
1.737878 0.255150 0.436782 2.341805152028776e-38
1.737180 0.246270 0.436374 2.341805152028776e-38
1.739321 0.237800 0.436687 2.341805152028776e-38
1.739497 0.229062 0.436514 2.341805152028776e-38
1.739630 0.220329 0.436337 2.341805152028776e-38
1.741647 0.211836 0.436641 2.341805152028776e-38
1.741695 0.203105 0.436459 2.341805152028776e-38
1.744593 0.194702 0.436998 2.341805152028776e-38
1.746484 0.186177 0.437299 2.341805152028776e-38
1.750261 0.177841 0.438096 2.341805152028776e-38
1.752067 0.169286 0.438406 2.341805152028776e-38
1.754798 0.160805 0.438955 2.341805152028776e-38
1.754589 0.152051 0.438776 2.341805152028776e-38
1.755304 0.143381 0.438834 2.341805152028776e-38
1.755977 0.134709 0.438889 2.341805152028776e-38
1.756608 0.126033 0.438941 2.341805152028776e-38
1.759133 0.117483 0.439473 2.341805152028776e-38
1.758713 0.108732 0.439276 2.341805152028776e-38
1.765030 0.100373 0.440769 2.341805152028776e-38
1.769371 0.091854 0.441774 2.341805152028776e-38
1.803717 0.084706 0.450277 2.341805152028776e-38
1.870027 0.078564 0.466763 2.341805152028776e-38
1.666767 0.605446 0.431217 2.341805152028776e-38
1.667179 0.595719 0.430483 2.341805152028776e-38
1.666602 0.585719 0.429527 2.341805152028776e-38
1.670558 0.577334 0.429745 2.341805152028776e-38
1.669872 0.567367 0.428774 2.341805152028776e-38
1.665440 0.556198 0.426850 2.341805152028776e-38
1.666477 0.546915 0.426335 2.341805152028776e-38
1.670224 0.538563 0.426542 2.341805152028776e-38
1.675757 0.530826 0.427250 2.341805152028776e-38
1.683111 0.523629 0.428424 2.341805152028776e-38
1.685788 0.514957 0.428410 2.341805152028776e-38
1.687489 0.505999 0.428153 2.341805152028776e-38
1.688211 0.496768 0.427652 2.341805152028776e-38
1.688882 0.487550 0.427145 2.341805152028776e-38
1.692280 0.479194 0.427389 2.341805152028776e-38
1.696567 0.471092 0.427873 2.341805152028776e-38
1.697066 0.461944 0.427406 2.341805152028776e-38
1.695637 0.452306 0.426460 2.341805152028776e-38
1.695095 0.442947 0.425745 2.341805152028776e-38
1.700150 0.435056 0.426441 2.341805152028776e-38
1.705168 0.427131 0.427131 2.341805152028776e-38
1.709177 0.419000 0.427639 2.341805152028776e-38
1.711257 0.410390 0.427670 2.341805152028776e-38
1.713293 0.401775 0.427696 2.341805152028776e-38
1.715287 0.393154 0.427717 2.341805152028776e-38
1.716289 0.384316 0.427498 2.341805152028776e-38
1.718195 0.375690 0.427509 2.341805152028776e-38
1.715306 0.366046 0.426335 2.341805152028776e-38
1.712348 0.356476 0.425194 2.341805152028776e-38
1.714090 0.347933 0.425252 2.341805152028776e-38
1.716743 0.339574 0.425542 2.341805152028776e-38
1.721263 0.331567 0.426301 2.341805152028776e-38
1.722882 0.322990 0.426347 2.341805152028776e-38
1.725414 0.314583 0.426626 2.341805152028776e-38
1.727905 0.306162 0.426901 2.341805152028776e-38
1.729398 0.297562 0.426937 2.341805152028776e-38
1.729882 0.288814 0.426755 2.341805152028776e-38
1.733187 0.280559 0.427313 2.341805152028776e-38
1.737414 0.272430 0.428105 2.341805152028776e-38
1.739682 0.263976 0.428420 2.341805152028776e-38
1.744794 0.255930 0.429442 2.341805152028776e-38
1.742172 0.246751 0.428567 2.341805152028776e-38
1.741429 0.237868 0.428163 2.341805152028776e-38
1.739678 0.228874 0.427519 2.341805152028776e-38
1.740773 0.220269 0.427582 2.341805152028776e-38
1.742791 0.211778 0.427878 2.341805152028776e-38
1.743799 0.203166 0.427946 2.341805152028776e-38
1.747658 0.194879 0.428734 2.341805152028776e-38
1.750513 0.186456 0.429282 2.341805152028776e-38
1.750428 0.177714 0.429115 2.341805152028776e-38
1.754169 0.169352 0.429894 2.341805152028776e-38
1.755935 0.160780 0.430195 2.341805152028776e-38
1.756692 0.152111 0.430256 2.341805152028776e-38
1.756439 0.143359 0.430076 2.341805152028776e-38
1.760018 0.134910 0.430841 2.341805152028776e-38
1.759681 0.126151 0.430655 2.341805152028776e-38
1.758332 0.117335 0.430228 2.341805152028776e-38
1.757910 0.108595 0.430034 2.341805152028776e-38
1.764234 0.100247 0.431498 2.341805152028776e-38
1.772459 0.091940 0.433433 2.341805152028776e-38
1.806846 0.084784 0.441771 2.341805152028776e-38
1.729692 0.637737 0.438727 2.341805152028776e-38
1.669014 0.605413 0.422482 2.341805152028776e-38
1.666657 0.594728 0.421085 2.341805152028776e-38
1.669742 0.586024 0.421069 2.341805152028776e-38
1.670942 0.576674 0.420582 2.341805152028776e-38
1.671168 0.567022 0.419856 2.341805152028776e-38
1.666725 0.555850 0.417964 2.341805152028776e-38
1.666829 0.546270 0.417230 2.341805152028776e-38
1.674253 0.539160 0.418388 2.341805152028776e-38
1.679793 0.531406 0.419077 2.341805152028776e-38
1.683439 0.523038 0.419295 2.341805152028776e-38
1.685182 0.514085 0.419044 2.341805152028776e-38
1.686878 0.505134 0.418786 2.341805152028776e-38
1.691327 0.497008 0.419215 2.341805152028776e-38
1.692907 0.488096 0.418985 2.341805152028776e-38
1.698176 0.480265 0.419691 2.341805152028776e-38
1.699659 0.471358 0.419465 2.341805152028776e-38
1.698279 0.461688 0.418539 2.341805152028776e-38
1.698724 0.452550 0.418070 2.341805152028776e-38
1.701945 0.444163 0.418290 2.341805152028776e-38
1.704182 0.435520 0.418271 2.341805152028776e-38
1.706345 0.426931 0.418306 2.341805152028776e-38
1.707520 0.418105 0.418105 2.341805152028776e-38
1.709596 0.409510 0.418131 2.341805152028776e-38
1.712575 0.401131 0.418384 2.341805152028776e-38
1.714565 0.392519 0.418400 2.341805152028776e-38
1.717462 0.384115 0.418642 2.341805152028776e-38
1.718416 0.375282 0.418418 2.341805152028776e-38
1.719305 0.366494 0.418234 2.341805152028776e-38
1.716334 0.356930 0.417135 2.341805152028776e-38
1.718079 0.348374 0.417188 2.341805152028776e-38
1.721689 0.340189 0.417701 2.341805152028776e-38
1.723350 0.331613 0.417747 2.341805152028776e-38
1.724013 0.322853 0.417557 2.341805152028776e-38
1.726546 0.314447 0.417827 2.341805152028776e-38
1.729995 0.306197 0.418325 2.341805152028776e-38
1.728595 0.297133 0.417709 2.341805152028776e-38
1.731942 0.288899 0.418257 2.341805152028776e-38
1.735250 0.280641 0.418803 2.341805152028776e-38
1.740442 0.272660 0.419809 2.341805152028776e-38
1.750406 0.265364 0.421972 2.341805152028776e-38
1.752641 0.256849 0.422277 2.341805152028776e-38
1.747131 0.247229 0.420723 2.341805152028776e-38
1.743496 0.237935 0.419630 2.341805152028776e-38
1.743671 0.229190 0.419461 2.341805152028776e-38
1.743799 0.220457 0.419301 2.341805152028776e-38
1.744845 0.211853 0.419383 2.341805152028776e-38
1.746816 0.203357 0.419694 2.341805152028776e-38
1.748747 0.194846 0.420002 2.341805152028776e-38
1.750636 0.186322 0.420307 2.341805152028776e-38
1.749582 0.177488 0.419911 2.341805152028776e-38
1.748484 0.168670 0.419513 2.341805152028776e-38
1.749279 0.160044 0.419575 2.341805152028776e-38
1.754878 0.151834 0.420796 2.341805152028776e-38
1.759470 0.143493 0.421782 2.341805152028776e-38
1.762083 0.134962 0.422300 2.341805152028776e-38
1.759805 0.126061 0.421652 2.341805152028776e-38
1.759424 0.117315 0.421466 2.341805152028776e-38
1.759971 0.108636 0.421509 2.341805152028776e-38
1.769215 0.100451 0.423641 2.341805152028776e-38
1.774537 0.091976 0.424840 2.341805152028776e-38
1.808964 0.084817 0.433013 2.341805152028776e-38
1.759411 0.647777 0.436446 2.341805152028776e-38
1.680356 0.608723 0.416034 2.341805152028776e-38
1.670670 0.595367 0.412846 2.341805152028776e-38
1.671000 0.585679 0.412144 2.341805152028776e-38
1.672196 0.576326 0.411662 2.341805152028776e-38
1.671494 0.566358 0.410718 2.341805152028776e-38
1.672583 0.557034 0.410219 2.341805152028776e-38
1.675437 0.548393 0.410215 2.341805152028776e-38
1.681951 0.540944 0.411118 2.341805152028776e-38
1.684717 0.532275 0.411107 2.341805152028776e-38
1.685578 0.523020 0.410635 2.341805152028776e-38
1.686388 0.513776 0.410157 2.341805152028776e-38
1.691814 0.505938 0.410805 2.341805152028776e-38
1.695316 0.497555 0.411023 2.341805152028776e-38
1.698760 0.489186 0.411263 2.341805152028776e-38
1.700288 0.480271 0.411043 2.341805152028776e-38
1.701770 0.471358 0.410816 2.341805152028776e-38
1.702265 0.462192 0.410358 2.341805152028776e-38
1.701770 0.452789 0.409666 2.341805152028776e-38
1.702165 0.443654 0.409195 2.341805152028776e-38
1.704371 0.435072 0.409226 2.341805152028776e-38
1.706532 0.426489 0.409257 2.341805152028776e-38
1.709596 0.418131 0.409510 2.341805152028776e-38
1.709777 0.409078 0.409078 2.341805152028776e-38
1.711807 0.400481 0.409093 2.341805152028776e-38
1.715693 0.392313 0.409558 2.341805152028776e-38
1.717639 0.383697 0.409564 2.341805152028776e-38
1.723325 0.375954 0.410525 2.341805152028776e-38
1.724211 0.367160 0.410355 2.341805152028776e-38
1.723144 0.357973 0.409729 2.341805152028776e-38
1.725848 0.349583 0.410005 2.341805152028776e-38
1.727556 0.340989 0.410050 2.341805152028776e-38
1.729221 0.332390 0.410092 2.341805152028776e-38
1.729886 0.323608 0.409903 2.341805152028776e-38
1.731462 0.315012 0.409947 2.341805152028776e-38
1.731059 0.306109 0.409582 2.341805152028776e-38
1.733490 0.297713 0.409895 2.341805152028776e-38
1.736843 0.289462 0.410431 2.341805152028776e-38
1.739194 0.281031 0.410738 2.341805152028776e-38
1.745354 0.273188 0.411950 2.341805152028776e-38
1.754369 0.265729 0.413840 2.341805152028776e-38
1.749861 0.256214 0.412547 2.341805152028776e-38
1.747233 0.247023 0.411705 2.341805152028776e-38
1.747449 0.238265 0.411548 2.341805152028776e-38
1.746651 0.229396 0.411181 2.341805152028776e-38
1.748707 0.220906 0.411492 2.341805152028776e-38
1.747822 0.212050 0.411118 2.341805152028776e-38
1.747860 0.203321 0.410968 2.341805152028776e-38
1.751727 0.195027 0.411725 2.341805152028776e-38
1.752650 0.186392 0.411796 2.341805152028776e-38
1.748688 0.177261 0.410726 2.341805152028776e-38
1.744678 0.168173 0.409652 2.341805152028776e-38
1.747411 0.159750 0.410168 2.341805152028776e-38
1.755925 0.151807 0.412048 2.341805152028776e-38
1.762462 0.143626 0.413469 2.341805152028776e-38
1.763136 0.134938 0.413521 2.341805152028776e-38
1.764739 0.126317 0.413797 2.341805152028776e-38
1.762415 0.117424 0.413159 2.341805152028776e-38
1.763934 0.108797 0.413429 2.341805152028776e-38
1.769301 0.100379 0.414607 2.341805152028776e-38
1.774628 0.091910 0.415782 2.341805152028776e-38
1.812984 0.084940 0.424700 2.341805152028776e-38
1.754346 0.645079 0.425478 2.341805152028776e-38
1.685258 0.609706 0.407933 2.341805152028776e-38
1.673723 0.595674 0.404363 2.341805152028776e-38
1.673131 0.585651 0.403448 2.341805152028776e-38
1.673402 0.575973 0.402748 2.341805152028776e-38
1.674541 0.566627 0.402262 2.341805152028776e-38
1.676531 0.557644 0.402022 2.341805152028776e-38
1.679383 0.548995 0.402020 2.341805152028776e-38
1.684048 0.540934 0.402455 2.341805152028776e-38
1.685884 0.531964 0.402217 2.341805152028776e-38
1.686741 0.522707 0.401750 2.341805152028776e-38
1.688480 0.513744 0.401498 2.341805152028776e-38
1.695766 0.506483 0.402589 2.341805152028776e-38
1.700191 0.498391 0.403046 2.341805152028776e-38
1.701766 0.489463 0.402832 2.341805152028776e-38
1.701418 0.480007 0.402168 2.341805152028776e-38
1.702897 0.471093 0.401941 2.341805152028776e-38
1.702448 0.461671 0.401265 2.341805152028776e-38
1.704773 0.453022 0.401248 2.341805152028776e-38
1.704198 0.443685 0.400609 2.341805152028776e-38
1.708292 0.435585 0.401083 2.341805152028776e-38
1.707617 0.426279 0.400444 2.341805152028776e-38
1.708786 0.417458 0.400243 2.341805152028776e-38
1.711807 0.409093 0.400481 2.341805152028776e-38
1.714787 0.400714 0.400714 2.341805152028776e-38
1.717725 0.392319 0.400942 2.341805152028776e-38
1.719647 0.383751 0.400998 2.341805152028776e-38
1.724381 0.375804 0.401721 2.341805152028776e-38
1.724311 0.366808 0.401331 2.341805152028776e-38
1.723240 0.357626 0.400714 2.341805152028776e-38
1.724988 0.349048 0.400759 2.341805152028776e-38
1.726693 0.340465 0.400800 2.341805152028776e-38
1.729313 0.332060 0.401060 2.341805152028776e-38
1.731883 0.323662 0.401340 2.341805152028776e-38
1.734399 0.315275 0.401652 2.341805152028776e-38
1.736876 0.306873 0.401961 2.341805152028776e-38
1.738351 0.298290 0.402044 2.341805152028776e-38
1.736899 0.289221 0.401457 2.341805152028776e-38
1.739251 0.280797 0.401755 2.341805152028776e-38
1.743489 0.272658 0.402496 2.341805152028776e-38
1.747690 0.264486 0.403233 2.341805152028776e-38
1.748958 0.255857 0.403301 2.341805152028776e-38
1.748246 0.246966 0.402944 2.341805152028776e-38
1.747489 0.238089 0.402587 2.341805152028776e-38
1.749587 0.229607 0.402895 2.341805152028776e-38
1.749711 0.220866 0.402755 2.341805152028776e-38
1.748824 0.212011 0.402389 2.341805152028776e-38
1.752734 0.203734 0.403133 2.341805152028776e-38
1.757575 0.195530 0.404096 2.341805152028776e-38
1.758501 0.186872 0.404166 2.341805152028776e-38
1.753565 0.177621 0.402896 2.341805152028776e-38
1.749552 0.168515 0.401844 2.341805152028776e-38
1.755201 0.160341 0.403019 2.341805152028776e-38
1.760812 0.152115 0.404190 2.341805152028776e-38
1.763471 0.143600 0.404690 2.341805152028776e-38
1.766089 0.135062 0.405187 2.341805152028776e-38
1.765750 0.126294 0.405012 2.341805152028776e-38
1.766340 0.117597 0.405056 2.341805152028776e-38
1.765915 0.108837 0.404874 2.341805152028776e-38
1.770314 0.100360 0.405805 2.341805152028776e-38
1.777593 0.091994 0.407402 2.341805152028776e-38
1.815019 0.084971 0.415912 2.341805152028776e-38
1.732722 0.636320 0.410675 2.341805152028776e-38
1.685530 0.609025 0.398714 2.341805152028776e-38
1.677652 0.596303 0.396084 2.341805152028776e-38
1.674295 0.585295 0.394532 2.341805152028776e-38
1.677330 0.576566 0.394493 2.341805152028776e-38
1.680308 0.567851 0.394462 2.341805152028776e-38
1.681360 0.558566 0.394027 2.341805152028776e-38
1.684217 0.549896 0.394020 2.341805152028776e-38
1.688888 0.541813 0.394440 2.341805152028776e-38
1.688866 0.532235 0.393768 2.341805152028776e-38
1.689722 0.522966 0.393305 2.341805152028776e-38
1.693326 0.514568 0.393493 2.341805152028776e-38
1.698727 0.506776 0.394159 2.341805152028776e-38
1.701282 0.498124 0.394168 2.341805152028776e-38
1.702855 0.489195 0.393954 2.341805152028776e-38
1.703441 0.480003 0.393516 2.341805152028776e-38
1.705860 0.471342 0.393506 2.341805152028776e-38
1.703524 0.461399 0.392405 2.341805152028776e-38
1.707713 0.453297 0.392858 2.341805152028776e-38
1.709020 0.444453 0.392672 2.341805152028776e-38
1.707444 0.434889 0.391830 2.341805152028776e-38
1.707710 0.425828 0.391418 2.341805152028776e-38
1.711720 0.417705 0.391868 2.341805152028776e-38
1.713794 0.409105 0.391879 2.341805152028776e-38
1.719626 0.401386 0.392754 2.341805152028776e-38
1.720641 0.392593 0.392593 2.341805152028776e-38
1.722561 0.384021 0.392650 2.341805152028776e-38
1.724439 0.375442 0.392704 2.341805152028776e-38
1.724365 0.366451 0.392318 2.341805152028776e-38
1.725201 0.357672 0.392146 2.341805152028776e-38
1.727905 0.349283 0.392404 2.341805152028776e-38
1.729611 0.340691 0.392441 2.341805152028776e-38
1.734137 0.332677 0.393163 2.341805152028776e-38
1.735738 0.324110 0.393253 2.341805152028776e-38
1.735377 0.315187 0.392905 2.341805152028776e-38
1.736892 0.306617 0.392988 2.341805152028776e-38
1.736443 0.297711 0.392633 2.341805152028776e-38
1.738836 0.289298 0.392927 2.341805152028776e-38
1.740226 0.280715 0.393001 2.341805152028776e-38
1.744467 0.272578 0.393724 2.341805152028776e-38
1.749631 0.264562 0.394674 2.341805152028776e-38
1.749925 0.255806 0.394549 2.341805152028776e-38
1.751143 0.247191 0.394639 2.341805152028776e-38
1.753286 0.238702 0.394943 2.341805152028776e-38
1.755388 0.230198 0.395245 2.341805152028776e-38
1.753577 0.221190 0.394672 2.341805152028776e-38
1.755595 0.212675 0.394967 2.341805152028776e-38
1.757573 0.204145 0.395259 2.341805152028776e-38
1.761451 0.195817 0.395985 2.341805152028776e-38
1.759466 0.186837 0.395399 2.341805152028776e-38
1.759379 0.178078 0.395246 2.341805152028776e-38
1.759248 0.169324 0.395090 2.341805152028776e-38
1.761019 0.160754 0.395367 2.341805152028776e-38
1.763721 0.152253 0.395859 2.341805152028776e-38
1.764437 0.143572 0.395912 2.341805152028776e-38
1.768030 0.135111 0.396616 2.341805152028776e-38
1.771583 0.126618 0.397318 2.341805152028776e-38
1.771201 0.117834 0.397143 2.341805152028776e-38
1.769802 0.108996 0.396747 2.341805152028776e-38
1.775180 0.100562 0.397876 2.341805152028776e-38
1.780519 0.092077 0.399002 2.341805152028776e-38
1.813112 0.084820 0.406241 2.341805152028776e-38
1.718330 0.630248 0.397816 2.341805152028776e-38
1.682076 0.607012 0.388662 2.341805152028776e-38
1.676936 0.595292 0.386722 2.341805152028776e-38
1.677256 0.585579 0.386049 2.341805152028776e-38
1.681217 0.577155 0.386216 2.341805152028776e-38
1.683245 0.568165 0.386005 2.341805152028776e-38
1.682441 0.558252 0.385151 2.341805152028776e-38
1.685297 0.549580 0.385139 2.341805152028776e-38
1.688108 0.540899 0.385120 2.341805152028776e-38
1.689009 0.531621 0.384669 2.341805152028776e-38
1.689860 0.522354 0.384211 2.341805152028776e-38
1.693434 0.514016 0.384432 2.341805152028776e-38
1.697899 0.505948 0.384867 2.341805152028776e-38
1.700450 0.497305 0.384871 2.341805152028776e-38
1.706715 0.489731 0.385717 2.341805152028776e-38
1.706361 0.480258 0.385072 2.341805152028776e-38
1.704071 0.470287 0.383996 2.341805152028776e-38
1.706424 0.461670 0.384006 2.341805152028776e-38
1.708717 0.453079 0.384038 2.341805152028776e-38
1.707185 0.443497 0.383216 2.341805152028776e-38
1.708441 0.434669 0.383025 2.341805152028776e-38
1.711548 0.426317 0.383254 2.341805152028776e-38
1.713664 0.417717 0.383266 2.341805152028776e-38
1.717639 0.409564 0.383697 2.341805152028776e-38
1.720598 0.401220 0.383963 2.341805152028776e-38
1.723514 0.392868 0.384233 2.341805152028776e-38
1.726390 0.384499 0.384499 2.341805152028776e-38
1.725406 0.375283 0.383910 2.341805152028776e-38
1.727240 0.366699 0.383955 2.341805152028776e-38
1.727119 0.357712 0.383571 2.341805152028776e-38
1.730783 0.349513 0.384033 2.341805152028776e-38
1.733431 0.341141 0.384324 2.341805152028776e-38
1.736993 0.332950 0.384839 2.341805152028776e-38
1.738595 0.324376 0.384926 2.341805152028776e-38
1.738233 0.315445 0.384584 2.341805152028776e-38
1.739750 0.306867 0.384664 2.341805152028776e-38
1.738336 0.297787 0.384103 2.341805152028776e-38
1.739767 0.289212 0.384176 2.341805152028776e-38
1.741156 0.280630 0.384247 2.341805152028776e-38
1.743461 0.272211 0.384551 2.341805152028776e-38
1.747657 0.264071 0.385284 2.341805152028776e-38
1.752781 0.256038 0.386227 2.341805152028776e-38
1.754000 0.247415 0.386315 2.341805152028776e-38
1.755177 0.238786 0.386400 2.341805152028776e-38
1.756312 0.230152 0.386481 2.341805152028776e-38
1.758374 0.221634 0.386773 2.341805152028776e-38
1.758456 0.212867 0.386636 2.341805152028776e-38
1.760437 0.204330 0.386922 2.341805152028776e-38
1.760434 0.195562 0.386779 2.341805152028776e-38
1.762331 0.187006 0.387059 2.341805152028776e-38
1.761271 0.178141 0.386696 2.341805152028776e-38
1.762113 0.169477 0.386756 2.341805152028776e-38
1.764858 0.160988 0.387241 2.341805152028776e-38
1.765616 0.152307 0.387296 2.341805152028776e-38
1.769254 0.143861 0.387988 2.341805152028776e-38
1.770903 0.135233 0.388250 2.341805152028776e-38
1.773486 0.126662 0.388723 2.341805152028776e-38
1.773103 0.117875 0.388552 2.341805152028776e-38
1.772677 0.109095 0.388378 2.341805152028776e-38
1.778061 0.100653 0.389483 2.341805152028776e-38
1.780478 0.092009 0.389943 2.341805152028776e-38
1.817984 0.084986 0.398094 2.341805152028776e-38
1.703852 0.624172 0.385127 2.341805152028776e-38
1.681323 0.605990 0.379289 2.341805152028776e-38
1.678934 0.595257 0.378010 2.341805152028776e-38
1.678327 0.585214 0.377138 2.341805152028776e-38
1.683186 0.577156 0.377538 2.341805152028776e-38
1.683358 0.567536 0.376913 2.341805152028776e-38
1.684405 0.558242 0.376489 2.341805152028776e-38
1.688190 0.549865 0.376679 2.341805152028776e-38
1.691002 0.541172 0.376655 2.341805152028776e-38
1.691903 0.531882 0.376209 2.341805152028776e-38
1.694601 0.523227 0.376205 2.341805152028776e-38
1.695367 0.514027 0.375801 2.341805152028776e-38
1.700772 0.506232 0.376429 2.341805152028776e-38
1.705203 0.498126 0.376843 2.341805152028776e-38
1.708654 0.489723 0.377043 2.341805152028776e-38
1.706414 0.479715 0.375992 2.341805152028776e-38
1.705991 0.470291 0.375370 2.341805152028776e-38
1.707384 0.461447 0.375196 2.341805152028776e-38
1.708731 0.452605 0.375016 2.341805152028776e-38
1.707192 0.443028 0.374208 2.341805152028776e-38
1.712237 0.435168 0.374848 2.341805152028776e-38
1.711550 0.425856 0.374237 2.341805152028776e-38
1.716515 0.417955 0.374867 2.341805152028776e-38
1.719519 0.409618 0.375124 2.341805152028776e-38
1.724381 0.401721 0.375804 2.341805152028776e-38
1.724439 0.392704 0.375442 2.341805152028776e-38
1.728270 0.384548 0.375906 2.341805152028776e-38
1.728239 0.375536 0.375536 2.341805152028776e-38
1.730075 0.366943 0.375577 2.341805152028776e-38
1.733784 0.358740 0.376029 2.341805152028776e-38
1.735517 0.350173 0.376112 2.341805152028776e-38
1.737203 0.341609 0.376202 2.341805152028776e-38
1.738848 0.333037 0.376289 2.341805152028776e-38
1.741413 0.324638 0.376581 2.341805152028776e-38
1.742012 0.315874 0.376453 2.341805152028776e-38
1.742568 0.307114 0.376322 2.341805152028776e-38
1.745009 0.298686 0.376605 2.341805152028776e-38
1.744513 0.289767 0.376264 2.341805152028776e-38
1.745895 0.281190 0.376362 2.341805152028776e-38
1.747235 0.272606 0.376456 2.341805152028776e-38
1.754337 0.264892 0.377797 2.341805152028776e-38
1.753663 0.255985 0.377470 2.341805152028776e-38
1.756818 0.247637 0.377972 2.341805152028776e-38
1.759934 0.239264 0.378472 2.341805152028776e-38
1.761071 0.230612 0.378552 2.341805152028776e-38
1.758285 0.221466 0.377795 2.341805152028776e-38
1.760307 0.212941 0.378078 2.341805152028776e-38
1.763260 0.204513 0.378566 2.341805152028776e-38
1.765201 0.195953 0.378843 2.341805152028776e-38
1.763211 0.186967 0.378283 2.341805152028776e-38
1.767015 0.178596 0.378971 2.341805152028776e-38
1.766885 0.169817 0.378822 2.341805152028776e-38
1.768660 0.161221 0.379087 2.341805152028776e-38
1.767470 0.152360 0.378723 2.341805152028776e-38
1.772086 0.143989 0.379609 2.341805152028776e-38
1.772762 0.135280 0.379656 2.341805152028776e-38
1.775347 0.126706 0.380118 2.341805152028776e-38
1.773987 0.117851 0.379742 2.341805152028776e-38
1.775513 0.109193 0.379990 2.341805152028776e-38
1.777973 0.100577 0.380444 2.341805152028776e-38
1.782345 0.092041 0.381312 2.341805152028776e-38
1.821844 0.085107 0.389700 2.341805152028776e-38
1.703082 0.623138 0.375651 2.341805152028776e-38
1.681439 0.605295 0.370144 2.341805152028776e-38
1.679963 0.594890 0.369092 2.341805152028776e-38
1.681188 0.585512 0.368656 2.341805152028776e-38
1.685110 0.577155 0.368859 2.341805152028776e-38
1.686207 0.567840 0.368446 2.341805152028776e-38
1.687253 0.558534 0.368026 2.341805152028776e-38
1.691041 0.550146 0.368208 2.341805152028776e-38
1.695720 0.542036 0.368585 2.341805152028776e-38
1.694744 0.532162 0.367754 2.341805152028776e-38
1.696492 0.523239 0.367565 2.341805152028776e-38
1.698194 0.514317 0.367369 2.341805152028776e-38
1.703603 0.506511 0.367978 2.341805152028776e-38
1.706157 0.497845 0.367973 2.341805152028776e-38
1.705842 0.488363 0.367353 2.341805152028776e-38
1.704529 0.478646 0.366531 2.341805152028776e-38
1.706908 0.470065 0.366564 2.341805152028776e-38
1.710189 0.461731 0.366795 2.341805152028776e-38
1.714377 0.453630 0.367224 2.341805152028776e-38
1.711891 0.443782 0.366228 2.341805152028776e-38
1.712197 0.434698 0.365835 2.341805152028776e-38
1.714355 0.426099 0.365843 2.341805152028776e-38
1.718354 0.418003 0.366291 2.341805152028776e-38
1.720400 0.409449 0.366349 2.341805152028776e-38
1.721450 0.400665 0.366199 2.341805152028776e-38
1.725320 0.392535 0.366654 2.341805152028776e-38
1.728196 0.384168 0.366902 2.341805152028776e-38
1.730075 0.375577 0.366943 2.341805152028776e-38
1.733827 0.367385 0.367385 2.341805152028776e-38
1.738478 0.359418 0.368079 2.341805152028776e-38
1.738290 0.350457 0.367763 2.341805152028776e-38
1.738056 0.341507 0.367444 2.341805152028776e-38
1.740662 0.333121 0.367731 2.341805152028776e-38
1.741303 0.324360 0.367608 2.341805152028776e-38
1.746717 0.316476 0.368499 2.341805152028776e-38
1.743418 0.307018 0.367557 2.341805152028776e-38
1.745855 0.298603 0.367844 2.341805152028776e-38
1.747279 0.290025 0.367942 2.341805152028776e-38
1.747696 0.281285 0.367834 2.341805152028776e-38
1.750004 0.272849 0.368130 2.341805152028776e-38
1.751304 0.264251 0.368219 2.341805152028776e-38
1.753532 0.255789 0.368509 2.341805152028776e-38
1.756688 0.247447 0.369000 2.341805152028776e-38
1.757865 0.238817 0.369082 2.341805152028776e-38
1.758029 0.230055 0.368956 2.341805152028776e-38
1.759122 0.221419 0.369031 2.341805152028776e-38
1.763089 0.213130 0.369715 2.341805152028776e-38
1.762155 0.204244 0.369377 2.341805152028776e-38
1.763122 0.195588 0.369444 2.341805152028776e-38
1.765995 0.187134 0.369915 2.341805152028776e-38
1.767854 0.178557 0.370180 2.341805152028776e-38
1.768698 0.169874 0.370238 2.341805152028776e-38
1.770474 0.161275 0.370497 2.341805152028776e-38
1.771234 0.152579 0.370549 2.341805152028776e-38
1.773903 0.144038 0.371007 2.341805152028776e-38
1.776531 0.135474 0.371462 2.341805152028776e-38
1.778142 0.126819 0.371709 2.341805152028776e-38
1.774828 0.117826 0.370934 2.341805152028776e-38
1.778309 0.109289 0.371584 2.341805152028776e-38
1.780771 0.100666 0.372027 2.341805152028776e-38
1.786126 0.092173 0.373080 2.341805152028776e-38
1.819798 0.084953 0.380053 2.341805152028776e-38
1.739416 0.645985 0.374943 2.341805152028776e-38
1.700419 0.621428 0.365805 2.341805152028776e-38
1.681505 0.604595 0.361017 2.341805152028776e-38
1.680945 0.594519 0.360183 2.341805152028776e-38
1.683992 0.585836 0.360180 2.341805152028776e-38
1.688844 0.577784 0.360572 2.341805152028776e-38
1.688084 0.567827 0.359768 2.341805152028776e-38
1.690989 0.559129 0.359750 2.341805152028776e-38
1.692917 0.550119 0.359526 2.341805152028776e-38
1.696664 0.541704 0.359691 2.341805152028776e-38
1.695657 0.531883 0.358913 2.341805152028776e-38
1.698339 0.523247 0.358922 2.341805152028776e-38
1.701916 0.514886 0.359122 2.341805152028776e-38
1.705452 0.506506 0.359317 2.341805152028776e-38
1.708006 0.497834 0.359307 2.341805152028776e-38
1.706746 0.488076 0.358498 2.341805152028776e-38
1.708233 0.479209 0.358328 2.341805152028776e-38
1.710615 0.470614 0.358357 2.341805152028776e-38
1.715793 0.462775 0.358975 2.341805152028776e-38
1.715249 0.453398 0.358400 2.341805152028776e-38
1.714655 0.444041 0.357820 2.341805152028776e-38
1.716860 0.435429 0.357828 2.341805152028776e-38
1.719007 0.426848 0.357862 2.341805152028776e-38
1.721097 0.418292 0.357920 2.341805152028776e-38
1.725052 0.410182 0.358370 2.341805152028776e-38
1.728014 0.401824 0.358617 2.341805152028776e-38
1.728068 0.392798 0.358266 2.341805152028776e-38
1.729990 0.384209 0.358307 2.341805152028776e-38
1.733784 0.376029 0.358740 2.341805152028776e-38
1.739437 0.368282 0.359617 2.341805152028776e-38
1.742171 0.359905 0.359905 2.341805152028776e-38
1.739101 0.350350 0.359001 2.341805152028776e-38
1.739827 0.341591 0.358886 2.341805152028776e-38
1.740509 0.332834 0.358769 2.341805152028776e-38
1.744038 0.324617 0.359243 2.341805152028776e-38
1.745600 0.316026 0.359318 2.341805152028776e-38
1.747113 0.307444 0.359407 2.341805152028776e-38
1.748581 0.298866 0.359506 2.341805152028776e-38
1.748073 0.289960 0.359204 2.341805152028776e-38
1.750424 0.281533 0.359496 2.341805152028776e-38
1.750797 0.272788 0.359387 2.341805152028776e-38
1.752097 0.264192 0.359475 2.341805152028776e-38
1.755295 0.255873 0.359957 2.341805152028776e-38
1.757483 0.247392 0.360238 2.341805152028776e-38
1.762544 0.239292 0.361113 2.341805152028776e-38
1.763682 0.230639 0.361189 2.341805152028776e-38
1.764777 0.221981 0.361263 2.341805152028776e-38
1.763885 0.213082 0.360936 2.341805152028776e-38
1.764896 0.204424 0.361004 2.341805152028776e-38
1.765864 0.195760 0.361069 2.341805152028776e-38
1.769714 0.187402 0.361729 2.341805152028776e-38
1.771576 0.178813 0.361987 2.341805152028776e-38
1.770469 0.169930 0.361646 2.341805152028776e-38
1.772247 0.161328 0.361899 2.341805152028776e-38
1.773007 0.152629 0.361950 2.341805152028776e-38
1.775678 0.144085 0.362397 2.341805152028776e-38
1.779286 0.135593 0.363040 2.341805152028776e-38
1.779921 0.126860 0.363083 2.341805152028776e-38
1.778558 0.117994 0.362724 2.341805152028776e-38
1.780087 0.109325 0.362960 2.341805152028776e-38
