VERSION .7
FIELDS x y z rgb
SIZE 4 4 4 4
TYPE F F F F
COUNT 1 1 1 1
WIDTH 976
HEIGHT 1
VIEWPOINT 0 0 0 1 0 0 0
POINTS 976
DATA ascii
1.339324 1.100430 0.492410 2.341805152028776e-38
1.351189 1.096473 0.494488 2.341805152028776e-38
1.361488 1.091281 0.496037 2.341805152028776e-38
1.369511 1.084219 0.496754 2.341805152028776e-38
1.375226 1.075328 0.496637 2.341805152028776e-38
1.383168 1.068176 0.497329 2.341805152028776e-38
1.391074 1.060973 0.498008 2.341805152028776e-38
1.397360 1.052613 0.498150 2.341805152028776e-38
1.402026 1.043101 0.497745 2.341805152028776e-38
1.408180 1.034716 0.497876 2.341805152028776e-38
1.412727 1.025171 0.497446 2.341805152028776e-38
1.419556 1.017294 0.497825 2.341805152028776e-38
1.426335 1.009386 0.498195 2.341805152028776e-38
1.430642 0.999859 0.497765 2.341805152028776e-38
1.435678 0.990869 0.497598 2.341805152028776e-38
1.441453 0.982401 0.497692 2.341805152028776e-38
1.447976 0.974442 0.498048 2.341805152028776e-38
1.452854 0.965383 0.497843 2.341805152028776e-38
1.459251 0.957400 0.498194 2.341805152028776e-38
1.463149 0.947854 0.497731 2.341805152028776e-38
1.468607 0.939337 0.497805 2.341805152028776e-38
1.473202 0.930281 0.497592 2.341805152028776e-38
1.477741 0.921210 0.497367 2.341805152028776e-38
1.484682 0.913636 0.497954 2.341805152028776e-38
1.492354 0.906585 0.498839 2.341805152028776e-38
1.499159 0.899001 0.499445 2.341805152028776e-38
1.503443 0.889906 0.499215 2.341805152028776e-38
1.509333 0.881767 0.499523 2.341805152028776e-38
1.514347 0.873117 0.499545 2.341805152028776e-38
1.518469 0.863977 0.499283 2.341805152028776e-38
1.524998 0.856310 0.499876 2.341805152028776e-38
1.530647 0.848137 0.500183 2.341805152028776e-38
1.534566 0.839011 0.499929 2.341805152028776e-38
1.537584 0.829419 0.499388 2.341805152028776e-38
1.543090 0.821181 0.499660 2.341805152028776e-38
1.548535 0.812936 0.499934 2.341805152028776e-38
1.555604 0.805605 0.500781 2.341805152028776e-38
1.560926 0.797351 0.501068 2.341805152028776e-38
1.563629 0.787773 0.500519 2.341805152028776e-38
1.568857 0.779480 0.500783 2.341805152028776e-38
1.570587 0.769468 0.499937 2.341805152028776e-38
1.579162 0.762842 0.501296 2.341805152028776e-38
1.584204 0.754547 0.501578 2.341805152028776e-38
1.587463 0.745410 0.501299 2.341805152028776e-38
1.592415 0.737074 0.501559 2.341805152028776e-38
1.601696 0.730710 0.503183 2.341805152028776e-38
1.609202 0.723485 0.504247 2.341805152028776e-38
1.614023 0.715062 0.504492 2.341805152028776e-38
1.612598 0.703975 0.502839 2.341805152028776e-38
1.260742 1.155698 0.474887 2.341805152028776e-38
1.321374 1.196350 0.495193 2.341805152028776e-38
1.332995 1.191984 0.497026 2.341805152028776e-38
1.316449 1.162651 0.488400 2.341805152028776e-38
1.314838 1.146876 0.485382 2.341805152028776e-38
1.318848 1.136277 0.484526 2.341805152028776e-38
1.326445 1.128798 0.484997 2.341805152028776e-38
1.333264 1.120653 0.485187 2.341805152028776e-38
1.340034 1.112472 0.485364 2.341805152028776e-38
1.346753 1.104256 0.485529 2.341805152028776e-38
1.354126 1.096657 0.485970 2.341805152028776e-38
1.361426 1.089046 0.486412 2.341805152028776e-38
1.368684 1.081393 0.486842 2.341805152028776e-38
1.378177 1.075474 0.488067 2.341805152028776e-38
1.383071 1.065958 0.487665 2.341805152028776e-38
1.391725 1.059352 0.488599 2.341805152028776e-38
1.397206 1.050443 0.488478 2.341805152028776e-38
1.404949 1.043234 0.489151 2.341805152028776e-38
1.408774 1.033128 0.488466 2.341805152028776e-38
1.414868 1.024714 0.488576 2.341805152028776e-38
1.421696 1.016829 0.488943 2.341805152028776e-38
1.427652 1.008396 0.489051 2.341805152028776e-38
1.431161 0.998316 0.488353 2.341805152028776e-38
1.438565 0.990965 0.488992 2.341805152028776e-38
1.442749 0.981402 0.488539 2.341805152028776e-38
1.452465 0.975588 0.489962 2.341805152028776e-38
1.455743 0.965442 0.489215 2.341805152028776e-38
1.460496 0.956433 0.489036 2.341805152028776e-38
1.464386 0.946884 0.488575 2.341805152028776e-38
1.469026 0.937847 0.488372 2.341805152028776e-38
1.472796 0.928280 0.487886 2.341805152028776e-38
1.479775 0.920741 0.488468 2.341805152028776e-38
1.485872 0.912685 0.488784 2.341805152028776e-38
1.493533 0.905646 0.489655 2.341805152028776e-38
1.498683 0.897070 0.489705 2.341805152028776e-38
1.504613 0.888962 0.490013 2.341805152028776e-38
1.508004 0.879366 0.489499 2.341805152028776e-38
1.514672 0.871688 0.490054 2.341805152028776e-38
1.518751 0.862596 0.489816 2.341805152028776e-38
1.526115 0.855403 0.490662 2.341805152028776e-38
1.528390 0.845363 0.489877 2.341805152028776e-38
1.533982 0.837177 0.490161 2.341805152028776e-38
1.538683 0.828505 0.490163 2.341805152028776e-38
1.545035 0.820717 0.490693 2.341805152028776e-38
1.550445 0.812514 0.490984 2.341805152028776e-38
1.557516 0.805176 0.491810 2.341805152028776e-38
1.562837 0.796917 0.492085 2.341805152028776e-38
1.565534 0.787332 0.491539 2.341805152028776e-38
1.570761 0.779032 0.491791 2.341805152028776e-38
1.576809 0.771129 0.492303 2.341805152028776e-38
1.581030 0.762432 0.492313 2.341805152028776e-38
1.586072 0.754132 0.492583 2.341805152028776e-38
1.589327 0.744989 0.492302 2.341805152028776e-38
1.598647 0.738667 0.493901 2.341805152028776e-38
1.603565 0.730277 0.494139 2.341805152028776e-38
1.612831 0.723835 0.495717 2.341805152028776e-38
1.620263 0.716618 0.496796 2.341805152028776e-38
1.614424 0.703578 0.493816 2.341805152028776e-38
1.251526 1.144860 0.462107 2.341805152028776e-38
1.299328 1.173942 0.477317 2.341805152028776e-38
1.324499 1.181923 0.484109 2.341805152028776e-38
1.316523 1.160299 0.478785 2.341805152028776e-38
1.315572 1.145194 0.476092 2.341805152028776e-38
1.322491 1.137111 0.476299 2.341805152028776e-38
1.329360 1.128990 0.476494 2.341805152028776e-38
1.339136 1.123313 0.477731 2.341805152028776e-38
1.344436 1.113870 0.477373 2.341805152028776e-38
1.348922 1.103801 0.476739 2.341805152028776e-38
1.356263 1.096227 0.477181 2.341805152028776e-38
1.365823 1.090414 0.478403 2.341805152028776e-38
1.370818 1.080947 0.478028 2.341805152028776e-38
1.378032 1.073243 0.478433 2.341805152028776e-38
1.385204 1.065495 0.478826 2.341805152028776e-38
1.390754 1.056585 0.478698 2.341805152028776e-38
1.400073 1.050581 0.479895 2.341805152028776e-38
1.407821 1.043360 0.480552 2.341805152028776e-38
1.413198 1.034380 0.480402 2.341805152028776e-38
1.417736 1.024814 0.479976 2.341805152028776e-38
1.422992 1.015800 0.479804 2.341805152028776e-38
1.431278 1.009066 0.480714 2.341805152028776e-38
1.436368 1.000070 0.480553 2.341805152028776e-38
1.441402 0.991055 0.480380 2.341805152028776e-38
1.448774 0.983646 0.480990 2.341805152028776e-38
1.452905 0.974042 0.480527 2.341805152028776e-38
1.456135 0.963938 0.479808 2.341805152028776e-38
1.461685 0.955459 0.479891 2.341805152028776e-38
1.466376 0.946430 0.479698 2.341805152028776e-38
1.474265 0.939458 0.480552 2.341805152028776e-38
1.478041 0.929865 0.480070 2.341805152028776e-38
1.483394 0.921283 0.480105 2.341805152028776e-38
1.488640 0.912749 0.480167 2.341805152028776e-38
1.496306 0.905698 0.481017 2.341805152028776e-38
1.503111 0.898100 0.481590 2.341805152028776e-38
1.505727 0.888011 0.480825 2.341805152028776e-38
1.512442 0.880353 0.481375 2.341805152028776e-38
1.517434 0.871711 0.481393 2.341805152028776e-38
1.521491 0.862635 0.481168 2.341805152028776e-38
1.528018 0.854959 0.481728 2.341805152028776e-38
1.531975 0.845845 0.481481 2.341805152028776e-38
1.536724 0.837182 0.481488 2.341805152028776e-38
1.541424 0.828498 0.481483 2.341805152028776e-38
1.546049 0.819833 0.481489 2.341805152028776e-38
1.553157 0.812532 0.482305 2.341805152028776e-38
1.560233 0.805183 0.483110 2.341805152028776e-38
1.565556 0.796913 0.483373 2.341805152028776e-38
1.569973 0.788182 0.483360 2.341805152028776e-38
1.576070 0.780289 0.483866 2.341805152028776e-38
1.581228 0.771987 0.484128 2.341805152028776e-38
1.584584 0.762852 0.483866 2.341805152028776e-38
1.590501 0.754950 0.484390 2.341805152028776e-38
1.594632 0.746195 0.484372 2.341805152028776e-38
1.599591 0.737829 0.484610 2.341805152028776e-38
1.608894 0.731433 0.486162 2.341805152028776e-38
1.614621 0.723441 0.486679 2.341805152028776e-38
1.618529 0.714661 0.486671 2.341805152028776e-38
1.614431 0.702405 0.484267 2.341805152028776e-38
1.320158 1.161128 0.470494 2.341805152028776e-38
1.322808 1.149205 0.469151 2.341805152028776e-38
1.328285 1.139824 0.468833 2.341805152028776e-38
1.335907 1.132297 0.469279 2.341805152028776e-38
1.341266 1.122865 0.468936 2.341805152028776e-38
1.348793 1.115260 0.469357 2.341805152028776e-38
1.354746 1.106425 0.469262 2.341805152028776e-38
1.360601 1.097607 0.469173 2.341805152028776e-38
1.365643 1.088162 0.468813 2.341805152028776e-38
1.375175 1.082285 0.469996 2.341805152028776e-38
1.382399 1.074559 0.470389 2.341805152028776e-38
1.390345 1.067379 0.471030 2.341805152028776e-38
1.396642 1.059061 0.471174 2.341805152028776e-38
1.405209 1.052448 0.472086 2.341805152028776e-38
1.409089 1.042329 0.471427 2.341805152028776e-38
1.414458 1.033346 0.471275 2.341805152028776e-38
1.420554 1.024906 0.471370 2.341805152028776e-38
1.428135 1.017600 0.471993 2.341805152028776e-38
1.433277 1.008617 0.471842 2.341805152028776e-38
1.436777 0.998511 0.471159 2.341805152028776e-38
1.444189 0.991137 0.471764 2.341805152028776e-38
1.450765 0.983174 0.472097 2.341805152028776e-38
1.454087 0.973025 0.471377 2.341805152028776e-38
1.460496 0.965088 0.471725 2.341805152028776e-38
1.466862 0.957116 0.472062 2.341805152028776e-38
1.470749 0.947538 0.471606 2.341805152028776e-38
1.477019 0.939508 0.471919 2.341805152028776e-38
1.482428 0.930930 0.471960 2.341805152028776e-38
1.487761 0.922360 0.472006 2.341805152028776e-38
1.492183 0.913310 0.471805 2.341805152028776e-38
1.497377 0.904745 0.471852 2.341805152028776e-38
1.503351 0.896650 0.472149 2.341805152028776e-38
1.508449 0.888033 0.472174 2.341805152028776e-38
1.515168 0.880363 0.472707 2.341805152028776e-38
1.520127 0.871754 0.472742 2.341805152028776e-38
1.526703 0.864093 0.473297 2.341805152028776e-38
1.529027 0.854038 0.472539 2.341805152028776e-38
1.533822 0.845389 0.472551 2.341805152028776e-38
1.538569 0.836718 0.472551 2.341805152028776e-38
1.545816 0.829402 0.473323 2.341805152028776e-38
1.548708 0.819855 0.472826 2.341805152028776e-38
1.555822 0.812543 0.473621 2.341805152028776e-38
1.562043 0.804741 0.474145 2.341805152028776e-38
1.567365 0.796464 0.474397 2.341805152028776e-38
1.573506 0.788593 0.474898 2.341805152028776e-38
1.578730 0.780276 0.475140 2.341805152028776e-38
1.583868 0.771993 0.475408 2.341805152028776e-38
1.588094 0.763265 0.475405 2.341805152028776e-38
1.592271 0.754521 0.475392 2.341805152028776e-38
1.596400 0.745761 0.475368 2.341805152028776e-38
1.604865 0.739004 0.476636 2.341805152028776e-38
1.614166 0.732610 0.478171 2.341805152028776e-38
1.622530 0.725801 0.479469 2.341805152028776e-38
1.623800 0.715814 0.478673 2.341805152028776e-38
1.616154 0.701995 0.475264 2.341805152028776e-38
1.325903 1.163885 0.462958 2.341805152028776e-38
1.324896 1.148773 0.460370 2.341805152028776e-38
1.330367 1.139384 0.460053 2.341805152028776e-38
1.336511 1.130600 0.459978 2.341805152028776e-38
1.347052 1.125510 0.461416 2.341805152028776e-38
1.354596 1.117874 0.461824 2.341805152028776e-38
1.359032 1.107820 0.461232 2.341805152028776e-38
1.362633 1.097162 0.460378 2.341805152028776e-38
1.370698 1.090116 0.461037 2.341805152028776e-38
1.377966 1.082421 0.461430 2.341805152028776e-38
1.388248 1.077053 0.462830 2.341805152028776e-38
1.394644 1.068702 0.462960 2.341805152028776e-38
1.402492 1.061530 0.463607 2.341805152028776e-38
1.406431 1.051413 0.462968 2.341805152028776e-38
1.410300 1.041291 0.462316 2.341805152028776e-38
1.415662 1.032305 0.462162 2.341805152028776e-38
1.423320 1.024992 0.462760 2.341805152028776e-38
1.429296 1.016590 0.462873 2.341805152028776e-38
1.435222 1.008160 0.462975 2.341805152028776e-38
1.440304 0.999150 0.462810 2.341805152028776e-38
1.444532 0.989573 0.462377 2.341805152028776e-38
1.450300 0.981070 0.462443 2.341805152028776e-38
1.458397 0.974189 0.463281 2.341805152028776e-38
1.464007 0.965700 0.463363 2.341805152028776e-38
1.469567 0.957183 0.463432 2.341805152028776e-38
1.473452 0.947594 0.462980 2.341805152028776e-38
1.479723 0.939552 0.463281 2.341805152028776e-38
1.485132 0.930961 0.463316 2.341805152028776e-38
1.489611 0.921913 0.463121 2.341805152028776e-38
1.494029 0.912856 0.462918 2.341805152028776e-38
1.500048 0.904783 0.463214 2.341805152028776e-38
1.506854 0.897172 0.463755 2.341805152028776e-38
1.512789 0.889028 0.464029 2.341805152028776e-38
1.517826 0.880391 0.464049 2.341805152028776e-38
1.524448 0.872751 0.464599 2.341805152028776e-38
1.529349 0.864119 0.464627 2.341805152028776e-38
1.533358 0.854994 0.464388 2.341805152028776e-38
1.536465 0.845391 0.463881 2.341805152028776e-38
1.542061 0.837171 0.464131 2.341805152028776e-38
1.546726 0.828515 0.464142 2.341805152028776e-38
1.553029 0.820774 0.464671 2.341805152028776e-38
1.557580 0.812101 0.464678 2.341805152028776e-38
1.564662 0.804735 0.465441 2.341805152028776e-38
1.569123 0.796010 0.465427 2.341805152028776e-38
1.576129 0.788564 0.466168 2.341805152028776e-38
1.579587 0.779430 0.465916 2.341805152028776e-38
1.584723 0.771146 0.466173 2.341805152028776e-38
1.588943 0.762418 0.466164 2.341805152028776e-38
1.594863 0.754499 0.466656 2.341805152028776e-38
1.601620 0.746954 0.467392 2.341805152028776e-38
1.609221 0.739768 0.468374 2.341805152028776e-38
1.618502 0.733406 0.469907 2.341805152028776e-38
1.622463 0.724606 0.469896 2.341805152028776e-38
1.623723 0.714623 0.469109 2.341805152028776e-38
1.616052 0.700809 0.465755 2.341805152028776e-38
1.325041 1.160901 0.453140 2.341805152028776e-38
1.325464 1.147066 0.451093 2.341805152028776e-38
1.333130 1.139565 0.451526 2.341805152028776e-38
1.342974 1.133893 0.452695 2.341805152028776e-38
1.351311 1.126907 0.453353 2.341805152028776e-38
1.355853 1.116810 0.452761 2.341805152028776e-38
1.361019 1.107374 0.452429 2.341805152028776e-38
1.366876 1.098528 0.452335 2.341805152028776e-38
1.374952 1.091461 0.452978 2.341805152028776e-38
1.382992 1.084342 0.453609 2.341805152028776e-38
1.390996 1.077170 0.454228 2.341805152028776e-38
1.397361 1.068842 0.454366 2.341805152028776e-38
1.404440 1.061074 0.454746 2.341805152028776e-38
1.407596 1.050370 0.453864 2.341805152028776e-38
1.415351 1.043117 0.454470 2.341805152028776e-38
1.419156 1.032966 0.453813 2.341805152028776e-38
1.427577 1.026237 0.454662 2.341805152028776e-38
1.433560 1.017816 0.454769 2.341805152028776e-38
1.437114 1.007697 0.454112 2.341805152028776e-38
1.439804 0.997026 0.453194 2.341805152028776e-38
1.448812 0.990735 0.454267 2.341805152028776e-38
1.456190 0.983294 0.454827 2.341805152028776e-38
1.464273 0.976422 0.455663 2.341805152028776e-38
1.467470 0.966305 0.454986 2.341805152028776e-38
1.472222 0.957244 0.454799 2.341805152028776e-38
1.476104 0.947643 0.454349 2.341805152028776e-38
1.482378 0.939589 0.454640 2.341805152028776e-38
1.485299 0.929480 0.453932 2.341805152028776e-38
1.490585 0.920950 0.453990 2.341805152028776e-38
1.496649 0.912900 0.454287 2.341805152028776e-38
1.505987 0.906813 0.455576 2.341805152028776e-38
1.511144 0.898182 0.455599 2.341805152028776e-38
1.516251 0.889527 0.455611 2.341805152028776e-38
1.520420 0.880432 0.455396 2.341805152028776e-38
1.527046 0.872781 0.455931 2.341805152028776e-38
1.531947 0.864138 0.455952 2.341805152028776e-38
1.535108 0.854531 0.455461 2.341805152028776e-38
1.539907 0.845854 0.455460 2.341805152028776e-38
1.543795 0.836709 0.455204 2.341805152028776e-38
1.550142 0.828991 0.455728 2.341805152028776e-38
1.556451 0.821235 0.456242 2.341805152028776e-38
1.561863 0.812993 0.456494 2.341805152028776e-38
1.568093 0.805165 0.456985 2.341805152028776e-38
1.573420 0.796861 0.457215 2.341805152028776e-38
1.580411 0.789430 0.457957 2.341805152028776e-38
1.584733 0.780717 0.457962 2.341805152028776e-38
1.589006 0.771985 0.457957 2.341805152028776e-38
1.594104 0.763655 0.458193 2.341805152028776e-38
1.599158 0.755298 0.458418 2.341805152028776e-38
1.605047 0.747324 0.458883 2.341805152028776e-38
1.612623 0.740172 0.459870 2.341805152028776e-38
1.619268 0.732599 0.460616 2.341805152028776e-38
1.625877 0.724982 0.461352 2.341805152028776e-38
1.627134 0.714984 0.460573 2.341805152028776e-38
1.617671 0.700386 0.456773 2.341805152028776e-38
1.332142 1.164929 0.446051 2.341805152028776e-38
1.333310 1.151688 0.444284 2.341805152028776e-38
1.342480 1.145403 0.445194 2.341805152028776e-38
1.348658 1.136554 0.445114 2.341805152028776e-38
1.353288 1.126436 0.444532 2.341805152028776e-38
1.359290 1.117596 0.444449 2.341805152028776e-38
1.363705 1.107532 0.443875 2.341805152028776e-38
1.371830 1.100494 0.444513 2.341805152028776e-38
1.379920 1.093401 0.445140 2.341805152028776e-38
1.387211 1.085659 0.445509 2.341805152028776e-38
1.395205 1.078490 0.446122 2.341805152028776e-38
1.401568 1.070151 0.446257 2.341805152028776e-38
1.408656 1.062363 0.446626 2.341805152028776e-38
1.415701 1.054533 0.446983 2.341805152028776e-38
1.420360 1.044937 0.446592 2.341805152028776e-38
1.423387 1.034190 0.445697 2.341805152028776e-38
1.428638 1.025216 0.445558 2.341805152028776e-38
1.433824 1.016232 0.445412 2.341805152028776e-38
1.441335 1.008895 0.445992 2.341805152028776e-38
1.448013 1.000958 0.446315 2.341805152028776e-38
1.457049 0.994622 0.447363 2.341805152028776e-38
1.463622 0.986628 0.447677 2.341805152028776e-38
1.466076 0.975962 0.446774 2.341805152028776e-38
1.470886 0.966903 0.446596 2.341805152028776e-38
1.474015 0.956770 0.445916 2.341805152028776e-38
1.478707 0.947685 0.445715 2.341805152028776e-38
1.483344 0.938583 0.445503 2.341805152028776e-38
1.489512 0.930567 0.445807 2.341805152028776e-38
1.495629 0.922526 0.446104 2.341805152028776e-38
1.503359 0.915458 0.446882 2.341805152028776e-38
1.508565 0.906839 0.446911 2.341805152028776e-38
1.512888 0.897702 0.446683 2.341805152028776e-38
1.518809 0.889557 0.446948 2.341805152028776e-38
1.523805 0.880953 0.446986 2.341805152028776e-38
1.528753 0.872325 0.447012 2.341805152028776e-38
1.533652 0.863675 0.447028 2.341805152028776e-38
1.537654 0.854533 0.446786 2.341805152028776e-38
1.543303 0.846311 0.447026 2.341805152028776e-38
1.548013 0.837656 0.447039 2.341805152028776e-38
1.556078 0.830831 0.448040 2.341805152028776e-38
1.564115 0.823949 0.449030 2.341805152028776e-38
1.566103 0.813880 0.448287 2.341805152028776e-38
1.571478 0.805588 0.448517 2.341805152028776e-38
1.577674 0.797707 0.448982 2.341805152028776e-38
1.582908 0.789438 0.449238 2.341805152028776e-38
1.587229 0.780714 0.449237 2.341805152028776e-38
1.590630 0.771549 0.448980 2.341805152028776e-38
1.597476 0.764049 0.449698 2.341805152028776e-38
1.602534 0.755677 0.449912 2.341805152028776e-38
1.607537 0.747297 0.450126 2.341805152028776e-38
1.614217 0.739763 0.450862 2.341805152028776e-38
1.623514 0.733382 0.452326 2.341805152028776e-38
1.628361 0.724957 0.452549 2.341805152028776e-38
1.630501 0.715339 0.452024 2.341805152028776e-38
1.623688 0.701880 0.449029 2.341805152028776e-38
1.337015 1.167036 0.438181 2.341805152028776e-38
1.337448 1.153135 0.436204 2.341805152028776e-38
1.344414 1.144941 0.436374 2.341805152028776e-38
1.351331 1.136709 0.436531 2.341805152028776e-38
1.357445 1.127825 0.436438 2.341805152028776e-38
1.362678 1.118374 0.436123 2.341805152028776e-38
1.367848 1.108905 0.435795 2.341805152028776e-38
1.375984 1.101846 0.436417 2.341805152028776e-38
1.384085 1.094733 0.437028 2.341805152028776e-38
1.390620 1.086371 0.437145 2.341805152028776e-38
1.396285 1.077441 0.437034 2.341805152028776e-38
1.404186 1.070277 0.437643 2.341805152028776e-38
1.411276 1.062477 0.438001 2.341805152028776e-38
1.417544 1.054056 0.438105 2.341805152028776e-38
1.419068 1.042155 0.436754 2.341805152028776e-38
1.423624 1.032583 0.436363 2.341805152028776e-38
1.430432 1.024753 0.436709 2.341805152028776e-38
1.439575 1.018565 0.437766 2.341805152028776e-38
1.445512 1.010086 0.437848 2.341805152028776e-38
1.452997 1.002680 0.438401 2.341805152028776e-38
1.457237 0.993039 0.437978 2.341805152028776e-38
1.459745 0.982376 0.437092 2.341805152028776e-38
1.463786 0.972810 0.436684 2.341805152028776e-38
1.465330 0.961638 0.435540 2.341805152028776e-38
1.471682 0.953652 0.435832 2.341805152028776e-38
1.478807 0.946153 0.436354 2.341805152028776e-38
1.486693 0.939157 0.437119 2.341805152028776e-38
1.491211 0.930107 0.436934 2.341805152028776e-38
1.497327 0.922059 0.437221 2.341805152028776e-38
1.502571 0.913473 0.437255 2.341805152028776e-38
1.508598 0.905361 0.437519 2.341805152028776e-38
1.515416 0.897711 0.438013 2.341805152028776e-38
1.520469 0.889107 0.438048 2.341805152028776e-38
1.526303 0.880982 0.438321 2.341805152028776e-38
1.531251 0.872343 0.438342 2.341805152028776e-38
1.534458 0.862731 0.437869 2.341805152028776e-38
1.536757 0.852646 0.437143 2.341805152028776e-38
1.543234 0.844916 0.437623 2.341805152028776e-38
1.551335 0.838135 0.438610 2.341805152028776e-38
1.559408 0.831296 0.439586 2.341805152028776e-38
1.564017 0.822591 0.439586 2.341805152028776e-38
1.566855 0.812972 0.439092 2.341805152028776e-38
1.572226 0.804680 0.439312 2.341805152028776e-38
1.576656 0.795969 0.439305 2.341805152028776e-38
1.581882 0.787709 0.439550 2.341805152028776e-38
1.585323 0.778566 0.439303 2.341805152028776e-38
1.586964 0.768569 0.438562 2.341805152028776e-38
1.598176 0.763183 0.440466 2.341805152028776e-38
1.605864 0.756050 0.441394 2.341805152028776e-38
1.609959 0.747296 0.441385 2.341805152028776e-38
1.618409 0.740560 0.442583 2.341805152028776e-38
1.625063 0.732962 0.443289 2.341805152028776e-38
1.629022 0.724138 0.443260 2.341805152028776e-38
1.632933 0.715298 0.443222 2.341805152028776e-38
1.623431 0.700676 0.439554 2.341805152028776e-38
1.341292 1.183105 0.432204 2.341805152028776e-38
1.335248 1.163389 0.428162 2.341805152028776e-38
1.340067 1.153306 0.427630 2.341805152028776e-38
1.348515 1.146359 0.428263 2.341805152028776e-38
1.353951 1.136856 0.427942 2.341805152028776e-38
1.360034 1.127992 0.427859 2.341805152028776e-38
1.365266 1.118530 0.427546 2.341805152028776e-38
1.371945 1.110272 0.427692 2.341805152028776e-38
1.380092 1.103192 0.428298 2.341805152028776e-38
1.386678 1.094853 0.428421 2.341805152028776e-38
1.393207 1.086488 0.428535 2.341805152028776e-38
1.400388 1.078757 0.428904 2.341805152028776e-38
1.407526 1.070984 0.429261 2.341805152028776e-38
1.416952 1.064920 0.430314 2.341805152028776e-38
1.420893 1.054731 0.429705 2.341805152028776e-38
1.423197 1.043388 0.428612 2.341805152028776e-38
1.425366 1.032120 0.427531 2.341805152028776e-38
1.432963 1.024849 0.428101 2.341805152028776e-38
1.442112 1.018650 0.429133 2.341805152028776e-38
1.448846 1.010715 0.429446 2.341805152028776e-38
1.455537 1.002741 0.429746 2.341805152028776e-38
1.458952 0.992566 0.429101 2.341805152028776e-38
1.462248 0.982452 0.428470 2.341805152028776e-38
1.463048 0.970726 0.427120 2.341805152028776e-38
1.464574 0.959561 0.425994 2.341805152028776e-38
1.474993 0.954222 0.427457 2.341805152028776e-38
1.482944 0.947229 0.428200 2.341805152028776e-38
1.488344 0.938697 0.428254 2.341805152028776e-38
1.495332 0.931182 0.428777 2.341805152028776e-38
1.500628 0.922605 0.428816 2.341805152028776e-38
1.505875 0.914003 0.428845 2.341805152028776e-38
1.512740 0.906375 0.429335 2.341805152028776e-38
1.516202 0.896751 0.428881 2.341805152028776e-38
1.522078 0.888652 0.429154 2.341805152028776e-38
1.528753 0.881005 0.429653 2.341805152028776e-38
1.532856 0.871875 0.429431 2.341805152028776e-38
1.534363 0.861306 0.428489 2.341805152028776e-38
1.536650 0.851223 0.427772 2.341805152028776e-38
1.545649 0.844939 0.428969 2.341805152028776e-38
1.553755 0.838148 0.429931 2.341805152028776e-38
1.560976 0.830842 0.430646 2.341805152028776e-38
1.564723 0.821679 0.430403 2.341805152028776e-38
1.569278 0.812953 0.430387 2.341805152028776e-38
1.574645 0.804659 0.430601 2.341805152028776e-38
1.579918 0.796412 0.430846 2.341805152028776e-38
1.582537 0.786840 0.430371 2.341805152028776e-38
1.583355 0.776413 0.429413 2.341805152028776e-38
1.590229 0.768967 0.430100 2.341805152028776e-38
1.598822 0.762312 0.431251 2.341805152028776e-38
1.606491 0.755211 0.432173 2.341805152028776e-38
1.612334 0.747289 0.432641 2.341805152028776e-38
1.621674 0.740948 0.434046 2.341805152028776e-38
1.627448 0.732936 0.434495 2.341805152028776e-38
1.632295 0.724496 0.434697 2.341805152028776e-38
1.635318 0.715252 0.434417 2.341805152028776e-38
1.627552 0.701437 0.431318 2.341805152028776e-38
1.352669 1.205734 0.428411 2.341805152028776e-38
1.335121 1.175577 0.420778 2.341805152028776e-38
1.337084 1.162926 0.419345 2.341805152028776e-38
1.343371 1.154104 0.419281 2.341805152028776e-38
1.346634 1.142734 0.418284 2.341805152028776e-38
1.353537 1.134497 0.418427 2.341805152028776e-38
1.361823 1.127532 0.419044 2.341805152028776e-38
1.370815 1.121142 0.419887 2.341805152028776e-38
1.376753 1.112243 0.419796 2.341805152028776e-38
1.382633 1.103317 0.419693 2.341805152028776e-38
1.390748 1.096171 0.420271 2.341805152028776e-38
1.395720 1.086623 0.419930 2.341805152028776e-38
1.401360 1.077695 0.419825 2.341805152028776e-38
1.410817 1.071685 0.420864 2.341805152028776e-38
1.421031 1.066189 0.422124 2.341805152028776e-38
1.427321 1.057716 0.422216 2.341805152028776e-38
1.425702 1.043475 0.419988 2.341805152028776e-38
1.427843 1.032221 0.418935 2.341805152028776e-38
1.433860 1.023808 0.419027 2.341805152028776e-38
1.444598 1.018728 0.420496 2.341805152028776e-38
1.452133 1.011338 0.421029 2.341805152028776e-38
1.457226 1.002246 0.420856 2.341805152028776e-38
1.461409 0.992647 0.420466 2.341805152028776e-38
1.465509 0.983064 0.420076 2.341805152028776e-38
1.467926 0.972397 0.419211 2.341805152028776e-38
1.474339 0.964401 0.419493 2.341805152028776e-38
1.483161 0.957953 0.420459 2.341805152028776e-38
1.488659 0.949369 0.420497 2.341805152028776e-38
1.492412 0.939787 0.420089 2.341805152028776e-38
1.500236 0.932765 0.420829 2.341805152028776e-38
1.505541 0.924163 0.420863 2.341805152028776e-38
1.509964 0.915031 0.420654 2.341805152028776e-38
1.511829 0.904386 0.419739 2.341805152028776e-38
1.516923 0.895800 0.419771 2.341805152028776e-38
1.523635 0.888190 0.420265 2.341805152028776e-38
1.530310 0.880537 0.420749 2.341805152028776e-38
1.535255 0.871882 0.420759 2.341805152028776e-38
1.535060 0.860351 0.419367 2.341805152028776e-38
1.541580 0.852641 0.419828 2.341805152028776e-38
1.548016 0.844957 0.420312 2.341805152028776e-38
1.556128 0.838156 0.421249 2.341805152028776e-38
1.564211 0.831295 0.422176 2.341805152028776e-38
1.568821 0.822569 0.422165 2.341805152028776e-38
1.573381 0.813823 0.422143 2.341805152028776e-38
1.576991 0.804669 0.421908 2.341805152028776e-38
1.581396 0.795976 0.421911 2.341805152028776e-38
1.584882 0.786830 0.421672 2.341805152028776e-38
1.588315 0.777677 0.421423 2.341805152028776e-38
1.594324 0.769783 0.421859 2.341805152028776e-38
1.602928 0.763108 0.422980 2.341805152028776e-38
1.607054 0.754382 0.422977 2.341805152028776e-38
1.612013 0.746052 0.423199 2.341805152028776e-38
1.621354 0.739714 0.424570 2.341805152028776e-38
1.631560 0.733702 0.426162 2.341805152028776e-38
1.634634 0.724454 0.425891 2.341805152028776e-38
1.640320 0.716384 0.426314 2.341805152028776e-38
1.629843 0.701426 0.422599 2.341805152028776e-38
1.342139 1.194272 0.415589 2.341805152028776e-38
1.336914 1.175114 0.411940 2.341805152028776e-38
1.337393 1.161179 0.410082 2.341805152028776e-38
1.341450 1.150456 0.409338 2.341805152028776e-38
1.346170 1.140361 0.408808 2.341805152028776e-38
1.355285 1.134021 0.409627 2.341805152028776e-38
1.362056 1.125823 0.409782 2.341805152028776e-38
1.368779 1.117588 0.409926 2.341805152028776e-38
1.377726 1.111150 0.410737 2.341805152028776e-38
1.382836 1.101615 0.410406 2.341805152028776e-38
1.392475 1.095677 0.411420 2.341805152028776e-38
1.397412 1.086154 0.411094 2.341805152028776e-38
1.403048 1.077219 0.410987 2.341805152028776e-38
1.411732 1.070614 0.411775 2.341805152028776e-38
1.420388 1.063948 0.412551 2.341805152028776e-38
1.421183 1.051427 0.411052 2.341805152028776e-38
1.425776 1.041857 0.410691 2.341805152028776e-38
1.428690 1.031175 0.409881 2.341805152028776e-38
1.437874 1.025022 0.410874 2.341805152028776e-38
1.447831 1.019362 0.412082 2.341805152028776e-38
1.454572 1.011400 0.412373 2.341805152028776e-38
1.457247 1.000652 0.411524 2.341805152028776e-38
1.463815 0.992723 0.411828 2.341805152028776e-38
1.469532 0.984212 0.411895 2.341805152028776e-38
1.474387 0.975136 0.411724 2.341805152028776e-38
1.480818 0.967106 0.411996 2.341805152028776e-38
1.485567 0.957984 0.411803 2.341805152028776e-38
1.490215 0.948904 0.411625 2.341805152028776e-38
1.498086 0.941908 0.412356 2.341805152028776e-38
1.505098 0.934343 0.412849 2.341805152028776e-38
1.508751 0.924698 0.412424 2.341805152028776e-38
1.512343 0.915046 0.411988 2.341805152028776e-38
1.515860 0.905409 0.411549 2.341805152028776e-38
1.521784 0.897317 0.411812 2.341805152028776e-38
1.525983 0.888213 0.411611 2.341805152028776e-38
1.532660 0.880550 0.412080 2.341805152028776e-38
1.539300 0.872844 0.412538 2.341805152028776e-38
1.544201 0.864146 0.412532 2.341805152028776e-38
1.547306 0.854547 0.412091 2.341805152028776e-38
1.553755 0.846834 0.412560 2.341805152028776e-38
1.561882 0.840003 0.413473 2.341805152028776e-38
1.566540 0.831287 0.413467 2.341805152028776e-38
1.572012 0.823002 0.413678 2.341805152028776e-38
1.575702 0.813806 0.413431 2.341805152028776e-38
1.579290 0.804674 0.413211 2.341805152028776e-38
1.584565 0.796408 0.413436 2.341805152028776e-38
1.590670 0.788546 0.413878 2.341805152028776e-38
1.594986 0.779791 0.413855 2.341805152028776e-38
1.601885 0.772286 0.414504 2.341805152028776e-38
1.607845 0.764360 0.414938 2.341805152028776e-38
1.607566 0.753547 0.413798 2.341805152028776e-38
1.613405 0.745626 0.414236 2.341805152028776e-38
1.621864 0.738880 0.415346 2.341805152028776e-38
1.636517 0.734862 0.418035 2.341805152028776e-38
1.640487 0.725983 0.417990 2.341805152028776e-38
1.642584 0.716377 0.417520 2.341805152028776e-38
1.632981 0.701795 0.414103 2.341805152028776e-38
1.335152 1.186038 0.404035 2.341805152028776e-38
1.340119 1.175931 0.403548 2.341805152028776e-38
1.339853 1.161340 0.401504 2.341805152028776e-38
1.346129 1.152509 0.401436 2.341805152028776e-38
1.347878 1.139869 0.400029 2.341805152028776e-38
1.354720 1.131677 0.400175 2.341805152028776e-38
1.359221 1.121624 0.399659 2.341805152028776e-38
1.368186 1.115258 0.400459 2.341805152028776e-38
1.374845 1.106993 0.400585 2.341805152028776e-38
1.384507 1.101120 0.401585 2.341805152028776e-38
1.393363 1.094593 0.402360 2.341805152028776e-38
1.400592 1.086873 0.402706 2.341805152028776e-38
1.405457 1.077330 0.402376 2.341805152028776e-38
1.413368 1.070125 0.402922 2.341805152028776e-38
1.418120 1.060533 0.402570 2.341805152028776e-38
1.423592 1.051505 0.402428 2.341805152028776e-38
1.429730 1.043106 0.402526 2.341805152028776e-38
1.435020 1.034114 0.402396 2.341805152028776e-38
1.441842 1.026231 0.402698 2.341805152028776e-38
1.449420 1.018868 0.403212 2.341805152028776e-38
1.456960 1.011456 0.403714 2.341805152028776e-38
1.462819 1.002938 0.403780 2.341805152028776e-38
1.468594 0.994432 0.403852 2.341805152028776e-38
1.472700 0.984813 0.403470 2.341805152028776e-38
1.478371 0.976258 0.403520 2.341805152028776e-38
1.482359 0.966610 0.403116 2.341805152028776e-38
1.487916 0.958020 0.403149 2.341805152028776e-38
1.494188 0.950003 0.403426 2.341805152028776e-38
1.500417 0.941950 0.403693 2.341805152028776e-38
1.507432 0.934374 0.404171 2.341805152028776e-38
1.511083 0.924718 0.403750 2.341805152028776e-38
1.514672 0.915056 0.403318 2.341805152028776e-38
1.521508 0.907445 0.403791 2.341805152028776e-38
1.523244 0.896851 0.402933 2.341805152028776e-38
1.529967 0.889210 0.403398 2.341805152028776e-38
1.537498 0.882012 0.404075 2.341805152028776e-38
1.543300 0.873802 0.404296 2.341805152028776e-38
1.546494 0.864149 0.403848 2.341805152028776e-38
1.550433 0.855035 0.403646 2.341805152028776e-38
1.554318 0.845909 0.403433 2.341805152028776e-38
1.562445 0.839077 0.404322 2.341805152028776e-38
1.569682 0.831730 0.404978 2.341805152028776e-38
1.576022 0.823881 0.405402 2.341805152028776e-38
1.579687 0.814709 0.405176 2.341805152028776e-38
1.586754 0.807327 0.405846 2.341805152028776e-38
1.589431 0.797710 0.405394 2.341805152028776e-38
1.592050 0.788094 0.404932 2.341805152028776e-38
1.598116 0.780188 0.405349 2.341805152028776e-38
1.604141 0.772248 0.405758 2.341805152028776e-38
1.606553 0.762684 0.405312 2.341805152028776e-38
1.609791 0.753534 0.405079 2.341805152028776e-38
1.617403 0.746420 0.405948 2.341805152028776e-38
1.624985 0.739251 0.406807 2.341805152028776e-38
1.641434 0.736016 0.409877 2.341805152028776e-38
1.647176 0.727931 0.410289 2.341805152028776e-38
1.645694 0.716754 0.408946 2.341805152028776e-38
1.637867 0.702928 0.406039 2.341805152028776e-38
1.348415 1.181245 0.396654 2.341805152028776e-38
1.344476 1.163411 0.393570 2.341805152028776e-38
1.346310 1.150749 0.392203 2.341805152028776e-38
1.350277 1.140000 0.391472 2.341805152028776e-38
1.356343 1.131202 0.391404 2.341805152028776e-38
1.361591 1.121763 0.391113 2.341805152028776e-38
1.368289 1.113537 0.391243 2.341805152028776e-38
1.377981 1.107722 0.392228 2.341805152028776e-38
1.388417 1.102441 0.393420 2.341805152028776e-38
1.397257 1.095925 0.394186 2.341805152028776e-38
1.403724 1.087587 0.394304 2.341805152028776e-38
1.410141 1.079214 0.394412 2.341805152028776e-38
1.416508 1.070808 0.394508 2.341805152028776e-38
1.421261 1.061199 0.394160 2.341805152028776e-38
1.429072 1.053918 0.394677 2.341805152028776e-38
1.432850 1.043775 0.394122 2.341805152028776e-38
1.440519 1.036478 0.394642 2.341805152028776e-38
1.446561 1.028000 0.394717 2.341805152028776e-38
1.457347 1.022855 0.396084 2.341805152028776e-38
1.460902 1.012618 0.395486 2.341805152028776e-38
1.464323 1.002461 0.394909 2.341805152028776e-38
1.467670 0.992309 0.394324 2.341805152028776e-38
1.472573 0.983240 0.394162 2.341805152028776e-38
1.479050 0.975226 0.394425 2.341805152028776e-38
1.485483 0.967175 0.394677 2.341805152028776e-38
1.489373 0.957550 0.394285 2.341805152028776e-38
1.495644 0.949527 0.394552 2.341805152028776e-38
1.504353 0.943024 0.395461 2.341805152028776e-38
1.508886 0.933887 0.395273 2.341805152028776e-38
1.512532 0.924225 0.394857 2.341805152028776e-38
1.519452 0.916583 0.395304 2.341805152028776e-38
1.522923 0.906979 0.394905 2.341805152028776e-38
1.528018 0.898358 0.394930 2.341805152028776e-38
1.532220 0.889223 0.394728 2.341805152028776e-38
1.538061 0.881044 0.394951 2.341805152028776e-38
1.544708 0.873313 0.395381 2.341805152028776e-38
1.549573 0.864647 0.395391 2.341805152028776e-38
1.553513 0.855518 0.395189 2.341805152028776e-38
1.559973 0.847775 0.395629 2.341805152028776e-38
1.567255 0.840453 0.396276 2.341805152028776e-38
1.574503 0.833081 0.396913 2.341805152028776e-38
1.578250 0.823864 0.396675 2.341805152028776e-38
1.581893 0.814714 0.396465 2.341805152028776e-38
1.586353 0.805996 0.396463 2.341805152028776e-38
1.590765 0.797258 0.396451 2.341805152028776e-38
1.595130 0.788502 0.396429 2.341805152028776e-38
1.602955 0.781437 0.397267 2.341805152028776e-38
1.604563 0.771404 0.396597 2.341805152028776e-38
1.608732 0.762676 0.396591 2.341805152028776e-38
1.614621 0.754757 0.397011 2.341805152028776e-38
1.620472 0.746801 0.397421 2.341805152028776e-38
1.626284 0.738810 0.397821 2.341805152028776e-38
1.638292 0.733576 0.399733 2.341805152028776e-38
1.644888 0.725953 0.400374 2.341805152028776e-38
1.646969 0.716348 0.399924 2.341805152028776e-38
1.637331 0.701748 0.396640 2.341805152028776e-38
1.350058 1.180762 0.387778 2.341805152028776e-38
1.346097 1.162921 0.384758 2.341805152028776e-38
1.347175 1.149616 0.383206 2.341805152028776e-38
1.354100 1.141406 0.383340 2.341805152028776e-38
1.357912 1.130720 0.382639 2.341805152028776e-38
1.363909 1.121895 0.382562 2.341805152028776e-38
1.373641 1.116124 0.383533 2.341805152028776e-38
1.382592 1.109668 0.384282 2.341805152028776e-38
1.389983 1.101934 0.384596 2.341805152028776e-38
1.398797 1.095442 0.385353 2.341805152028776e-38
1.405261 1.087098 0.385465 2.341805152028776e-38
1.412451 1.079313 0.385779 2.341805152028776e-38
1.418039 1.070307 0.385657 2.341805152028776e-38
1.425921 1.063029 0.386161 2.341805152028776e-38
1.432144 1.054596 0.386251 2.341805152028776e-38
1.437502 1.045587 0.386130 2.341805152028776e-38
1.444391 1.037696 0.386422 2.341805152028776e-38
1.452831 1.030894 0.387129 2.341805152028776e-38
1.457240 1.021229 0.386763 2.341805152028776e-38
1.462366 1.012135 0.386610 2.341805152028776e-38
1.466582 1.002530 0.386256 2.341805152028776e-38
1.469116 0.991821 0.385468 2.341805152028776e-38
1.474828 0.983288 0.385518 2.341805152028776e-38
1.480490 0.974726 0.385558 2.341805152028776e-38
1.485283 0.965603 0.385375 2.341805152028776e-38
1.490779 0.957074 0.385428 2.341805152028776e-38
1.497048 0.949046 0.385685 2.341805152028776e-38
1.504103 0.941500 0.386145 2.341805152028776e-38
1.508626 0.932367 0.385957 2.341805152028776e-38
1.513929 0.923727 0.385970 2.341805152028776e-38
1.521658 0.916622 0.386632 2.341805152028776e-38
1.524288 0.906508 0.386025 2.341805152028776e-38
1.527694 0.896892 0.385620 2.341805152028776e-38
1.534423 0.889231 0.386056 2.341805152028776e-38
1.540265 0.881042 0.386270 2.341805152028776e-38
1.546058 0.872829 0.386476 2.341805152028776e-38
1.550899 0.864188 0.386496 2.341805152028776e-38
1.554836 0.855055 0.386294 2.341805152028776e-38
1.561295 0.847307 0.386720 2.341805152028776e-38
1.569439 0.840441 0.387561 2.341805152028776e-38
1.575827 0.832602 0.387966 2.341805152028776e-38
1.579543 0.823422 0.387749 2.341805152028776e-38
1.584051 0.814715 0.387752 2.341805152028776e-38
1.587640 0.805545 0.387532 2.341805152028776e-38
1.592924 0.797239 0.387728 2.341805152028776e-38
1.596411 0.788040 0.387489 2.341805152028776e-38
1.601600 0.779691 0.387668 2.341805152028776e-38
1.605814 0.770977 0.387666 2.341805152028776e-38
1.612629 0.763499 0.388294 2.341805152028776e-38
1.618526 0.755561 0.388699 2.341805152028776e-38
1.623495 0.747178 0.388882 2.341805152028776e-38
1.628422 0.738768 0.389056 2.341805152028776e-38
1.635066 0.731169 0.389665 2.341805152028776e-38
1.640754 0.723181 0.390080 2.341805152028776e-38
1.647298 0.715547 0.390698 2.341805152028776e-38
1.641232 0.702486 0.388331 2.341805152028776e-38
1.349885 1.164340 0.376571 2.341805152028776e-38
1.353196 1.152919 0.375670 2.341805152028776e-38
1.357869 1.142813 0.375188 2.341805152028776e-38
1.363941 1.133984 0.375120 2.341805152028776e-38
1.371468 1.126368 0.375456 2.341805152028776e-38
1.377434 1.117472 0.375367 2.341805152028776e-38
1.384869 1.109773 0.375682 2.341805152028776e-38
1.391472 1.101447 0.375788 2.341805152028776e-38
1.401054 1.095557 0.376733 2.341805152028776e-38
1.409067 1.088398 0.377254 2.341805152028776e-38
1.416266 1.080593 0.377557 2.341805152028776e-38
1.420298 1.070390 0.377020 2.341805152028776e-38
1.428182 1.063101 0.377509 2.341805152028776e-38
1.435168 1.055269 0.377812 2.341805152028776e-38
1.441320 1.046820 0.377898 2.341805152028776e-38
1.446627 1.037768 0.377765 2.341805152028776e-38
1.450282 1.027563 0.377207 2.341805152028776e-38
1.457875 1.020158 0.377676 2.341805152028776e-38
1.464577 1.012209 0.377949 2.341805152028776e-38
1.468791 1.002594 0.377600 2.341805152028776e-38
1.472943 0.992968 0.377241 2.341805152028776e-38
1.475404 0.982247 0.376456 2.341805152028776e-38
1.482694 0.974759 0.376907 2.341805152028776e-38
1.489105 0.966721 0.377151 2.341805152028776e-38
1.495427 0.958705 0.377409 2.341805152028776e-38
1.500880 0.950130 0.377449 2.341805152028776e-38
1.505455 0.941009 0.377271 2.341805152028776e-38
1.509975 0.931870 0.377082 2.341805152028776e-38
1.516945 0.924242 0.377507 2.341805152028776e-38
1.522978 0.916151 0.377749 2.341805152028776e-38
1.526442 0.906531 0.377360 2.341805152028776e-38
1.531534 0.897895 0.377376 2.341805152028776e-38
1.537424 0.889724 0.377590 2.341805152028776e-38
1.544119 0.882005 0.378002 2.341805152028776e-38
1.549040 0.873331 0.378009 2.341805152028776e-38
1.552174 0.863726 0.377609 2.341805152028776e-38
1.558679 0.856000 0.378030 2.341805152028776e-38
1.566006 0.848698 0.378650 2.341805152028776e-38
1.572438 0.840885 0.379052 2.341805152028776e-38
1.578827 0.833037 0.379446 2.341805152028776e-38
1.585123 0.825234 0.379870 2.341805152028776e-38
1.587031 0.815157 0.379244 2.341805152028776e-38
1.588876 0.805089 0.378609 2.341805152028776e-38
1.594159 0.796778 0.378796 2.341805152028776e-38
1.599398 0.788439 0.378973 2.341805152028776e-38
1.602804 0.779265 0.378749 2.341805152028776e-38
1.608779 0.771392 0.379159 2.341805152028776e-38
1.614716 0.763481 0.379559 2.341805152028776e-38
1.620614 0.755534 0.379951 2.341805152028776e-38
1.624696 0.746733 0.379917 2.341805152028776e-38
1.627839 0.737511 0.379666 2.341805152028776e-38
1.633561 0.729565 0.380073 2.341805152028776e-38
1.641032 0.722376 0.380889 2.341805152028776e-38
1.646678 0.714353 0.381281 2.341805152028776e-38
1.642392 0.702067 0.379378 2.341805152028776e-38
1.350658 1.163197 0.367553 2.341805152028776e-38
1.357685 1.154947 0.367680 2.341805152028776e-38
1.361591 1.144215 0.367012 2.341805152028776e-38
1.367670 1.135366 0.366943 2.341805152028776e-38
1.373693 1.126488 0.366864 2.341805152028776e-38
1.381180 1.118815 0.367179 2.341805152028776e-38
1.385566 1.108649 0.366674 2.341805152028776e-38
1.394441 1.102173 0.367391 2.341805152028776e-38
1.404032 1.096268 0.368311 2.341805152028776e-38
1.412826 1.089693 0.369019 2.341805152028776e-38
1.414582 1.077714 0.367894 2.341805152028776e-38
1.421723 1.069878 0.368177 2.341805152028776e-38
1.429580 1.062615 0.368662 2.341805152028776e-38
1.434986 1.053618 0.368549 2.341805152028776e-38
1.440336 1.044598 0.368427 2.341805152028776e-38
1.448017 1.037265 0.368902 2.341805152028776e-38
1.454064 1.028750 0.368961 2.341805152028776e-38
1.458451 1.019087 0.368606 2.341805152028776e-38
1.464320 1.010610 0.368677 2.341805152028776e-38
1.467713 1.000447 0.368130 2.341805152028776e-38
1.471038 0.990282 0.367572 2.341805152028776e-38
1.476740 0.981743 0.367613 2.341805152028776e-38
1.483212 0.973712 0.367847 2.341805152028776e-38
1.490413 0.966241 0.368298 2.341805152028776e-38
1.495909 0.957692 0.368343 2.341805152028776e-38
1.501357 0.949116 0.368378 2.341805152028776e-38
1.505925 0.939994 0.368200 2.341805152028776e-38
1.511271 0.931368 0.368215 2.341805152028776e-38
1.519054 0.924276 0.368843 2.341805152028776e-38
1.523407 0.915171 0.368671 2.341805152028776e-38
1.526863 0.905551 0.368286 2.341805152028776e-38
1.531949 0.896915 0.368298 2.341805152028776e-38
1.538683 0.889234 0.368707 2.341805152028776e-38
1.547079 0.882479 0.369511 2.341805152028776e-38
1.551976 0.873830 0.369530 2.341805152028776e-38
1.557679 0.865637 0.369744 2.341805152028776e-38
1.561621 0.856469 0.369543 2.341805152028776e-38
1.565509 0.847289 0.369331 2.341805152028776e-38
1.571935 0.839480 0.369719 2.341805152028776e-38
1.579159 0.832134 0.370322 2.341805152028776e-38
1.583715 0.823428 0.370325 2.341805152028776e-38
1.588224 0.814702 0.370319 2.341805152028776e-38
1.592684 0.805955 0.370303 2.341805152028776e-38
1.597096 0.797188 0.370278 2.341805152028776e-38
1.600580 0.787970 0.370041 2.341805152028776e-38
1.605719 0.779689 0.370243 2.341805152028776e-38
1.609933 0.770956 0.370233 2.341805152028776e-38
1.618526 0.764296 0.371229 2.341805152028776e-38
1.623543 0.755916 0.371404 2.341805152028776e-38
1.625847 0.746284 0.370960 2.341805152028776e-38
1.630747 0.737907 0.371137 2.341805152028776e-38
1.635576 0.729552 0.371329 2.341805152028776e-38
1.641259 0.721566 0.371716 2.341805152028776e-38
1.653193 0.716269 0.373515 2.341805152028776e-38
1.650707 0.704718 0.372056 2.341805152028776e-38
1.352860 1.163326 0.358945 2.341805152028776e-38
1.358377 1.153814 0.358676 2.341805152028776e-38
1.364516 1.144980 0.358616 2.341805152028776e-38
1.369844 1.135491 0.358349 2.341805152028776e-38
1.376624 1.127224 0.358466 2.341805152028776e-38
1.382592 1.118303 0.358375 2.341805152028776e-38
1.390035 1.110579 0.358669 2.341805152028776e-38
1.398130 1.103500 0.359178 2.341805152028776e-38
1.406188 1.096371 0.359679 2.341805152028776e-38
1.412657 1.087991 0.359774 2.341805152028776e-38
1.418296 1.078983 0.359661 2.341805152028776e-38
1.424662 1.070539 0.359736 2.341805152028776e-38
1.430926 1.062123 0.359821 2.341805152028776e-38
1.437118 1.053700 0.359906 2.341805152028776e-38
1.445642 1.046970 0.360575 2.341805152028776e-38
1.451746 1.038468 0.360639 2.341805152028776e-38
1.456198 1.028802 0.360298 2.341805152028776e-38
1.460558 1.019161 0.359959 2.341805152028776e-38
1.465621 1.010117 0.359827 2.341805152028776e-38
1.469817 1.000501 0.359487 2.341805152028776e-38
1.474766 0.991420 0.359336 2.341805152028776e-38
1.480475 0.982861 0.359372 2.341805152028776e-38
1.486947 0.974819 0.359600 2.341805152028776e-38
1.494138 0.967354 0.360046 2.341805152028776e-38
1.499641 0.958786 0.360087 2.341805152028776e-38
1.504266 0.949667 0.359919 2.341805152028776e-38
1.510499 0.941567 0.360139 2.341805152028776e-38
1.515854 0.932917 0.360150 2.341805152028776e-38
1.523624 0.925837 0.360772 2.341805152028776e-38
1.527144 0.916204 0.360403 2.341805152028776e-38
1.531447 0.907065 0.360222 2.341805152028776e-38
1.537388 0.898899 0.360428 2.341805152028776e-38
1.544134 0.891188 0.360823 2.341805152028776e-38
1.549968 0.882984 0.361023 2.341805152028776e-38
1.554866 0.874324 0.361039 2.341805152028776e-38
1.558001 0.864690 0.360649 2.341805152028776e-38
1.563656 0.856464 0.360845 2.341805152028776e-38
1.570993 0.849138 0.361428 2.341805152028776e-38
1.574837 0.839916 0.361208 2.341805152028776e-38
1.579439 0.831227 0.361214 2.341805152028776e-38
1.585730 0.823425 0.361610 2.341805152028776e-38
1.591110 0.815136 0.361798 2.341805152028776e-38
1.594698 0.805932 0.361580 2.341805152028776e-38
1.600864 0.798030 0.361948 2.341805152028776e-38
1.606965 0.790134 0.362327 2.341805152028776e-38
1.612117 0.781820 0.362520 2.341805152028776e-38
1.614573 0.772208 0.362109 2.341805152028776e-38
1.620519 0.764270 0.362482 2.341805152028776e-38
1.623760 0.755054 0.362251 2.341805152028776e-38
1.630512 0.747465 0.362804 2.341805152028776e-38
1.635394 0.739110 0.362995 2.341805152028776e-38
1.639335 0.730333 0.362980 2.341805152028776e-38
1.649512 0.724299 0.364344 2.341805152028776e-38
1.657871 0.717402 0.365303 2.341805152028776e-38
1.652680 0.704675 0.363280 2.341805152028776e-38
1.349413 1.172968 0.350592 2.341805152028776e-38
1.351288 1.160253 0.349370 2.341805152028776e-38
1.357507 1.151415 0.349306 2.341805152028776e-38
1.365135 1.143849 0.349629 2.341805152028776e-38
1.371965 1.135610 0.349751 2.341805152028776e-38
1.378746 1.127333 0.349862 2.341805152028776e-38
1.385477 1.119019 0.349963 2.341805152028776e-38
1.392904 1.111304 0.350255 2.341805152028776e-38
1.400232 1.103607 0.350558 2.341805152028776e-38
1.408292 1.096468 0.351043 2.341805152028776e-38
1.416318 1.089275 0.351519 2.341805152028776e-38
1.422744 1.080841 0.351599 2.341805152028776e-38
1.426765 1.070608 0.351090 2.341805152028776e-38
1.432218 1.061625 0.350986 2.341805152028776e-38
1.439991 1.054357 0.351452 2.341805152028776e-38
1.446138 1.045887 0.351522 2.341805152028776e-38
1.452235 1.037384 0.351582 2.341805152028776e-38
1.457480 1.028284 0.351439 2.341805152028776e-38
1.463420 1.019791 0.351502 2.341805152028776e-38
1.467677 1.010176 0.351177 2.341805152028776e-38
1.473494 1.001653 0.351229 2.341805152028776e-38
1.477633 0.992006 0.350884 2.341805152028776e-38
1.484164 0.983974 0.351110 2.341805152028776e-38
1.488977 0.974871 0.350954 2.341805152028776e-38
1.492875 0.965266 0.350612 2.341805152028776e-38
1.496712 0.955652 0.350261 2.341805152028776e-38
1.502978 0.947598 0.350481 2.341805152028776e-38
1.512532 0.941581 0.351466 2.341805152028776e-38
1.518714 0.933447 0.351671 2.341805152028776e-38
1.523119 0.924340 0.351510 2.341805152028776e-38
1.528312 0.915720 0.351532 2.341805152028776e-38
1.533456 0.907075 0.351546 2.341805152028776e-38
