VERSION .7
FIELDS x y z rgb
SIZE 4 4 4 4
TYPE F F F F
COUNT 1 1 1 1
WIDTH 938
HEIGHT 1
VIEWPOINT 0 0 0 1 0 0 0
POINTS 938
DATA ascii
1.594061 -0.322555 -0.370341 2.341805152028776e-38
1.594355 -0.330879 -0.370744 2.341805152028776e-38
1.596514 -0.339622 -0.371586 2.341805152028776e-38
1.592909 -0.347151 -0.371093 2.341805152028776e-38
1.590221 -0.354869 -0.370818 2.341805152028776e-38
1.584642 -0.361924 -0.369878 2.341805152028776e-38
1.582807 -0.369873 -0.369873 2.341805152028776e-38
1.583777 -0.378496 -0.370528 2.341805152028776e-38
1.580911 -0.386218 -0.370292 2.341805152028776e-38
1.576116 -0.393452 -0.369606 2.341805152028776e-38
1.574123 -0.401374 -0.369582 2.341805152028776e-38
1.570203 -0.408799 -0.369110 2.341805152028776e-38
1.571897 -0.417712 -0.369973 2.341805152028776e-38
1.569753 -0.425686 -0.369989 2.341805152028776e-38
1.567568 -0.433655 -0.369999 2.341805152028776e-38
1.565342 -0.441617 -0.370003 2.341805152028776e-38
1.562139 -0.449303 -0.369780 2.341805152028776e-38
1.557027 -0.456424 -0.369108 2.341805152028776e-38
1.556554 -0.464904 -0.369539 2.341805152028776e-38
1.552283 -0.472304 -0.369112 2.341805152028776e-38
1.548896 -0.479990 -0.368918 2.341805152028776e-38
1.546401 -0.487952 -0.368939 2.341805152028776e-38
1.542008 -0.495309 -0.368510 2.341805152028776e-38
1.540361 -0.503549 -0.368740 2.341805152028776e-38
1.539595 -0.512097 -0.369186 2.341805152028776e-38
1.535997 -0.519746 -0.368980 2.341805152028776e-38
1.535104 -0.528372 -0.369463 2.341805152028776e-38
1.531402 -0.536041 -0.369273 2.341805152028776e-38
1.525825 -0.543038 -0.368631 2.341805152028776e-38
1.522967 -0.550991 -0.368649 2.341805152028776e-38
1.521898 -0.559607 -0.369103 2.341805152028776e-38
1.518026 -0.567234 -0.368900 2.341805152028776e-38
1.514090 -0.574889 -0.368722 2.341805152028776e-38
1.510115 -0.582524 -0.368536 2.341805152028776e-38
1.510641 -0.591917 -0.369452 2.341805152028776e-38
1.505674 -0.599174 -0.369027 2.341805152028776e-38
1.502480 -0.607130 -0.369040 2.341805152028776e-38
1.500128 -0.615478 -0.369287 2.341805152028776e-38
1.500405 -0.624991 -0.370218 2.341805152028776e-38
1.488050 -0.629214 -0.368031 2.341805152028776e-38
1.481069 -0.635634 -0.367168 2.341805152028776e-38
1.479426 -0.644339 -0.367629 2.341805152028776e-38
1.481299 -0.654626 -0.368971 2.341805152028776e-38
1.476846 -0.662215 -0.368779 2.341805152028776e-38
1.621177 -0.204796 -0.381483 2.341805152028776e-38
1.620166 -0.212784 -0.381405 2.341805152028776e-38
1.623941 -0.221424 -0.382460 2.341805152028776e-38
1.625736 -0.229846 -0.383077 2.341805152028776e-38
1.623633 -0.237731 -0.382787 2.341805152028776e-38
1.619565 -0.245311 -0.382041 2.341805152028776e-38
1.616425 -0.253007 -0.381519 2.341805152028776e-38
1.612288 -0.260525 -0.380767 2.341805152028776e-38
1.609077 -0.268169 -0.380239 2.341805152028776e-38
1.608710 -0.276283 -0.380390 2.341805152028776e-38
1.606384 -0.284062 -0.380083 2.341805152028776e-38
1.603064 -0.291652 -0.379547 2.341805152028776e-38
1.600647 -0.299431 -0.379280 2.341805152028776e-38
1.595321 -0.306652 -0.378337 2.341805152028776e-38
1.594740 -0.314774 -0.378525 2.341805152028776e-38
1.594119 -0.322900 -0.378710 2.341805152028776e-38
1.592502 -0.330833 -0.378665 2.341805152028776e-38
1.592751 -0.339167 -0.379069 2.341805152028776e-38
1.591054 -0.347098 -0.379015 2.341805152028776e-38
1.586463 -0.354394 -0.378286 2.341805152028776e-38
1.583716 -0.362135 -0.378053 2.341805152028776e-38
1.582829 -0.370306 -0.378270 2.341805152028776e-38
1.580004 -0.378028 -0.378028 2.341805152028776e-38
1.578088 -0.385967 -0.378009 2.341805152028776e-38
1.573298 -0.393192 -0.377305 2.341805152028776e-38
1.571306 -0.401105 -0.377277 2.341805152028776e-38
1.573042 -0.409999 -0.378155 2.341805152028776e-38
1.569995 -0.417728 -0.377944 2.341805152028776e-38
1.566911 -0.425441 -0.377728 2.341805152028776e-38
1.566604 -0.433920 -0.378187 2.341805152028776e-38
1.562503 -0.441351 -0.377733 2.341805152028776e-38
1.559302 -0.449027 -0.377501 2.341805152028776e-38
1.556999 -0.456960 -0.377489 2.341805152028776e-38
1.554640 -0.464916 -0.377496 2.341805152028776e-38
1.552223 -0.472901 -0.377526 2.341805152028776e-38
1.548834 -0.480589 -0.377322 2.341805152028776e-38
1.544479 -0.487967 -0.376885 2.341805152028776e-38
1.538234 -0.494722 -0.375989 2.341805152028776e-38
1.539366 -0.503855 -0.376899 2.341805152028776e-38
1.535819 -0.511487 -0.376676 2.341805152028776e-38
1.535893 -0.520412 -0.377398 2.341805152028776e-38
1.534074 -0.528722 -0.377659 2.341805152028776e-38
1.531291 -0.536711 -0.377686 2.341805152028776e-38
1.526631 -0.544037 -0.377252 2.341805152028776e-38
1.523767 -0.551997 -0.377264 2.341805152028776e-38
1.519948 -0.559612 -0.377044 2.341805152028776e-38
1.515139 -0.566938 -0.376637 2.341805152028776e-38
1.513027 -0.575273 -0.376903 2.341805152028776e-38
1.513594 -0.584659 -0.377841 2.341805152028776e-38
1.511384 -0.593006 -0.378091 2.341805152028776e-38
1.505508 -0.599908 -0.377426 2.341805152028776e-38
1.503211 -0.608236 -0.377663 2.341805152028776e-38
1.499026 -0.615893 -0.377483 2.341805152028776e-38
1.494802 -0.623527 -0.377294 2.341805152028776e-38
1.488745 -0.630380 -0.376642 2.341805152028776e-38
1.485342 -0.638345 -0.376663 2.341805152028776e-38
1.482789 -0.646686 -0.376903 2.341805152028776e-38
1.479288 -0.654646 -0.376917 2.341805152028776e-38
1.480151 -0.664647 -0.378093 2.341805152028776e-38
1.483607 -0.675893 -0.379940 2.341805152028776e-38
1.486101 -0.686793 -0.381552 2.341805152028776e-38
1.475292 -0.691544 -0.379750 2.341805152028776e-38
1.439848 -0.684495 -0.371583 2.341805152028776e-38
1.620276 -0.204841 -0.389599 2.341805152028776e-38
1.618296 -0.212711 -0.389301 2.341805152028776e-38
1.620131 -0.221099 -0.389938 2.341805152028776e-38
1.621923 -0.229512 -0.390572 2.341805152028776e-38
1.621747 -0.237666 -0.390739 2.341805152028776e-38
1.616721 -0.245097 -0.389744 2.341805152028776e-38
1.613585 -0.252786 -0.389210 2.341805152028776e-38
1.613293 -0.260917 -0.389369 2.341805152028776e-38
1.612001 -0.268893 -0.389292 2.341805152028776e-38
1.609712 -0.276698 -0.388981 2.341805152028776e-38
1.605466 -0.284156 -0.388213 2.341805152028776e-38
1.601170 -0.291613 -0.387486 2.341805152028776e-38
1.596840 -0.299038 -0.386756 2.341805152028776e-38
1.597252 -0.307349 -0.387180 2.341805152028776e-38
1.594757 -0.315109 -0.386906 2.341805152028776e-38
1.591273 -0.322661 -0.386397 2.341805152028776e-38
1.589657 -0.330586 -0.386347 2.341805152028776e-38
1.591809 -0.339316 -0.387220 2.341805152028776e-38
1.587254 -0.346637 -0.386481 2.341805152028776e-38
1.585495 -0.354601 -0.386475 2.341805152028776e-38
1.582749 -0.362342 -0.386233 2.341805152028776e-38
1.578070 -0.369626 -0.385524 2.341805152028776e-38
1.579034 -0.378236 -0.386199 2.341805152028776e-38
1.575227 -0.385712 -0.385712 2.341805152028776e-38
1.573273 -0.393636 -0.385684 2.341805152028776e-38
1.574106 -0.402278 -0.386346 2.341805152028776e-38
1.573923 -0.410753 -0.386825 2.341805152028776e-38
1.568053 -0.417739 -0.385911 2.341805152028776e-38
1.564031 -0.425192 -0.385454 2.341805152028776e-38
1.562786 -0.433399 -0.385686 2.341805152028776e-38
1.559626 -0.441081 -0.385449 2.341805152028776e-38
1.558297 -0.449285 -0.385670 2.341805152028776e-38
1.556916 -0.457511 -0.385900 2.341805152028776e-38
1.552673 -0.464947 -0.385468 2.341805152028776e-38
1.549325 -0.472641 -0.385262 2.341805152028776e-38
1.546868 -0.480607 -0.385280 2.341805152028776e-38
1.542515 -0.487978 -0.384828 2.341805152028776e-38
1.537201 -0.495025 -0.384139 2.341805152028776e-38
1.535553 -0.503247 -0.384370 2.341805152028776e-38
1.533830 -0.511529 -0.384638 2.341805152028776e-38
1.532058 -0.519822 -0.384906 2.341805152028776e-38
1.530241 -0.528116 -0.385167 2.341805152028776e-38
1.525625 -0.535443 -0.384726 2.341805152028776e-38
1.523722 -0.543724 -0.384972 2.341805152028776e-38
1.520861 -0.551672 -0.384980 2.341805152028776e-38
1.518843 -0.559997 -0.385246 2.341805152028776e-38
1.514946 -0.567661 -0.385057 2.341805152028776e-38
1.512828 -0.575997 -0.385322 2.341805152028776e-38
1.510665 -0.584333 -0.385580 2.341805152028776e-38
1.509361 -0.593023 -0.386062 2.341805152028776e-38
1.506200 -0.600999 -0.386072 2.341805152028776e-38
1.502066 -0.608650 -0.385876 2.341805152028776e-38
1.496980 -0.615932 -0.385454 2.341805152028776e-38
1.491859 -0.623183 -0.385024 2.341805152028776e-38
1.488494 -0.631163 -0.385049 2.341805152028776e-38
1.485087 -0.639129 -0.385065 2.341805152028776e-38
1.482529 -0.647471 -0.385305 2.341805152028776e-38
1.480775 -0.656265 -0.385804 2.341805152028776e-38
1.478074 -0.664681 -0.386072 2.341805152028776e-38
1.477981 -0.674303 -0.387026 2.341805152028776e-38
1.472529 -0.681497 -0.386580 2.341805152028776e-38
1.467923 -0.689071 -0.386358 2.341805152028776e-38
1.448345 -0.689515 -0.382188 2.341805152028776e-38
1.462924 -0.706340 -0.387090 2.341805152028776e-38
1.639593 -0.199238 -0.402542 2.341805152028776e-38
1.624143 -0.205511 -0.398934 2.341805152028776e-38
1.618305 -0.212906 -0.397692 2.341805152028776e-38
1.622061 -0.221563 -0.398814 2.341805152028776e-38
1.617113 -0.229038 -0.397803 2.341805152028776e-38
1.616938 -0.237176 -0.397973 2.341805152028776e-38
1.614802 -0.245027 -0.397666 2.341805152028776e-38
1.616467 -0.253465 -0.398303 2.341805152028776e-38
1.615212 -0.261462 -0.398227 2.341805152028776e-38
1.609126 -0.268653 -0.396965 2.341805152028776e-38
1.606827 -0.276472 -0.396678 2.341805152028776e-38
1.603527 -0.284123 -0.396172 2.341805152028776e-38
1.600190 -0.291752 -0.395663 2.341805152028776e-38
1.598727 -0.299715 -0.395624 2.341805152028776e-38
1.594363 -0.307122 -0.394872 2.341805152028776e-38
1.591871 -0.314874 -0.394589 2.341805152028776e-38
1.589342 -0.322611 -0.394303 2.341805152028776e-38
1.587727 -0.330532 -0.394249 2.341805152028776e-38
1.588915 -0.339074 -0.394921 2.341805152028776e-38
1.586245 -0.346839 -0.394679 2.341805152028776e-38
1.582589 -0.354378 -0.394195 2.341805152028776e-38
1.578897 -0.361893 -0.393708 2.341805152028776e-38
1.576116 -0.369606 -0.393452 2.341805152028776e-38
1.574243 -0.377532 -0.393428 2.341805152028776e-38
1.573273 -0.385684 -0.393636 2.341805152028776e-38
1.574147 -0.394311 -0.394311 2.341805152028776e-38
1.570238 -0.401813 -0.393856 2.341805152028776e-38
1.568175 -0.409781 -0.393868 2.341805152028776e-38
1.565132 -0.417494 -0.393638 2.341805152028776e-38
1.562988 -0.425447 -0.393638 2.341805152028776e-38
1.561741 -0.433655 -0.393870 2.341805152028776e-38
1.558580 -0.441335 -0.393623 2.341805152028776e-38
1.557245 -0.449548 -0.393852 2.341805152028776e-38
1.553974 -0.457268 -0.393648 2.341805152028776e-38
1.552527 -0.465530 -0.393910 2.341805152028776e-38
1.548248 -0.472943 -0.393457 2.341805152028776e-38
1.543006 -0.480042 -0.392761 2.341805152028776e-38
1.536806 -0.486810 -0.391823 2.341805152028776e-38
1.532426 -0.494130 -0.391351 2.341805152028776e-38
1.528912 -0.501768 -0.391142 2.341805152028776e-38
1.529035 -0.510643 -0.391889 2.341805152028776e-38
1.530946 -0.520165 -0.393102 2.341805152028776e-38
1.525452 -0.527186 -0.392417 2.341805152028776e-38
1.525427 -0.536104 -0.393143 2.341805152028776e-38
1.522605 -0.544059 -0.393152 2.341805152028776e-38
1.519726 -0.552034 -0.393175 2.341805152028776e-38
1.514048 -0.559031 -0.392511 2.341805152028776e-38
1.509247 -0.566331 -0.392075 2.341805152028776e-38
1.508043 -0.574987 -0.392577 2.341805152028776e-38
1.507696 -0.584002 -0.393307 2.341805152028776e-38
1.506391 -0.592679 -0.393793 2.341805152028776e-38
1.504120 -0.601028 -0.394051 2.341805152028776e-38
1.499074 -0.608328 -0.393624 2.341805152028776e-38
1.493992 -0.615597 -0.393188 2.341805152028776e-38
1.490668 -0.623585 -0.393216 2.341805152028776e-38
1.486407 -0.631181 -0.392999 2.341805152028776e-38
1.483000 -0.639138 -0.393010 2.341805152028776e-38
1.481312 -0.647893 -0.393505 2.341805152028776e-38
1.477769 -0.655909 -0.393545 2.341805152028776e-38
1.473297 -0.663513 -0.393340 2.341805152028776e-38
1.471437 -0.672304 -0.393835 2.341805152028776e-38
1.469525 -0.681100 -0.394321 2.341805152028776e-38
1.464043 -0.688247 -0.393852 2.341805152028776e-38
1.441834 -0.687461 -0.388906 2.341805152028776e-38
1.441527 -0.697062 -0.389882 2.341805152028776e-38
1.674216 -0.203634 -0.419736 2.341805152028776e-38
1.630843 -0.206551 -0.409051 2.341805152028776e-38
1.622120 -0.213605 -0.407059 2.341805152028776e-38
1.617213 -0.221105 -0.406029 2.341805152028776e-38
1.618998 -0.229516 -0.406687 2.341805152028776e-38
1.617859 -0.237529 -0.406617 2.341805152028776e-38
1.617641 -0.245683 -0.406786 2.341805152028776e-38
1.613547 -0.253239 -0.405986 2.341805152028776e-38
1.607501 -0.260455 -0.404707 2.341805152028776e-38
1.605236 -0.268289 -0.404435 2.341805152028776e-38
1.605802 -0.276604 -0.404884 2.341805152028776e-38
1.603459 -0.284426 -0.404606 2.341805152028776e-38
1.600123 -0.292060 -0.404083 2.341805152028776e-38
1.593889 -0.299135 -0.402835 2.341805152028776e-38
1.593343 -0.307260 -0.403029 2.341805152028776e-38
1.591804 -0.315201 -0.402979 2.341805152028776e-38
1.591177 -0.323331 -0.403166 2.341805152028776e-38
1.593345 -0.332085 -0.404103 2.341805152028776e-38
1.593558 -0.340486 -0.404578 2.341805152028776e-38
1.586142 -0.347243 -0.403121 2.341805152028776e-38
1.579645 -0.354150 -0.401900 2.341805152028776e-38
1.575957 -0.361656 -0.401399 2.341805152028776e-38
1.574123 -0.369582 -0.401374 2.341805152028776e-38
1.574137 -0.377957 -0.401828 2.341805152028776e-38
1.575049 -0.386577 -0.402519 2.341805152028776e-38
1.571180 -0.394092 -0.402054 2.341805152028776e-38
1.567275 -0.401583 -0.401583 2.341805152028776e-38
1.564273 -0.409296 -0.401349 2.341805152028776e-38
1.564047 -0.417746 -0.401832 2.341805152028776e-38
1.563775 -0.426209 -0.402309 2.341805152028776e-38
1.562523 -0.434424 -0.402540 2.341805152028776e-38
1.555623 -0.441058 -0.401323 2.341805152028776e-38
1.555194 -0.449581 -0.401838 2.341805152028776e-38
1.551924 -0.457294 -0.401623 2.341805152028776e-38
1.550476 -0.465550 -0.401885 2.341805152028776e-38
1.547127 -0.473240 -0.401658 2.341805152028776e-38
1.539108 -0.479471 -0.400220 2.341805152028776e-38
1.536615 -0.487398 -0.400221 2.341805152028776e-38
1.532220 -0.494750 -0.399758 2.341805152028776e-38
1.530536 -0.503020 -0.400039 2.341805152028776e-38
1.532489 -0.512523 -0.401277 2.341805152028776e-38
1.528871 -0.520190 -0.401062 2.341805152028776e-38
1.527050 -0.528474 -0.401322 2.341805152028776e-38
1.524268 -0.536436 -0.401334 2.341805152028776e-38
1.522353 -0.544726 -0.401586 2.341805152028776e-38
1.514887 -0.551085 -0.400428 2.341805152028776e-38
1.511038 -0.558733 -0.400227 2.341805152028776e-38
1.507150 -0.566361 -0.400017 2.341805152028776e-38
1.504130 -0.574317 -0.400041 2.341805152028776e-38
1.504688 -0.583665 -0.401022 2.341805152028776e-38
1.503382 -0.592330 -0.401512 2.341805152028776e-38
1.499282 -0.599993 -0.401320 2.341805152028776e-38
1.496941 -0.608366 -0.401601 2.341805152028776e-38
1.491862 -0.615627 -0.401150 2.341805152028776e-38
1.490328 -0.624356 -0.401656 2.341805152028776e-38
1.484278 -0.631193 -0.400947 2.341805152028776e-38
1.484433 -0.640684 -0.401920 2.341805152028776e-38
1.480040 -0.648324 -0.401722 2.341805152028776e-38
1.480043 -0.657913 -0.402723 2.341805152028776e-38
1.472907 -0.664335 -0.401783 2.341805152028776e-38
1.471040 -0.673126 -0.402283 2.341805152028776e-38
1.467360 -0.681106 -0.402291 2.341805152028776e-38
1.460116 -0.687431 -0.401333 2.341805152028776e-38
1.439672 -0.687492 -0.396781 2.341805152028776e-38
1.659642 -0.202052 -0.424722 2.341805152028776e-38
1.638445 -0.207709 -0.419490 2.341805152028776e-38
1.625881 -0.214302 -0.416473 2.341805152028776e-38
1.621936 -0.221959 -0.415668 2.341805152028776e-38
1.620834 -0.229992 -0.415599 2.341805152028776e-38
1.618734 -0.237879 -0.415281 2.341805152028776e-38
1.614680 -0.245461 -0.414468 2.341805152028776e-38
1.609621 -0.252881 -0.413441 2.341805152028776e-38
1.606437 -0.260579 -0.412918 2.341805152028776e-38
1.604172 -0.268415 -0.412637 2.341805152028776e-38
1.605690 -0.276896 -0.413337 2.341805152028776e-38
1.600484 -0.284216 -0.412313 2.341805152028776e-38
1.596198 -0.291668 -0.411532 2.341805152028776e-38
1.592830 -0.299267 -0.410993 2.341805152028776e-38
1.593234 -0.307577 -0.411434 2.341805152028776e-38
1.590742 -0.315336 -0.411134 2.341805152028776e-38
1.593894 -0.324275 -0.412350 2.341805152028776e-38
1.594145 -0.332671 -0.412833 2.341805152028776e-38
1.593404 -0.340880 -0.413067 2.341805152028776e-38
1.587887 -0.348057 -0.412067 2.341805152028776e-38
1.579501 -0.354554 -0.410327 2.341805152028776e-38
1.576758 -0.362283 -0.410057 2.341805152028776e-38
1.574921 -0.370219 -0.410028 2.341805152028776e-38
1.572099 -0.377928 -0.409753 2.341805152028776e-38
1.570157 -0.385900 -0.409770 2.341805152028776e-38
1.570055 -0.394340 -0.410273 2.341805152028776e-38
1.566151 -0.401831 -0.409788 2.341805152028776e-38
1.563150 -0.409543 -0.409543 2.341805152028776e-38
1.561984 -0.417741 -0.409784 2.341805152028776e-38
1.561709 -0.426199 -0.410266 2.341805152028776e-38
1.557654 -0.433629 -0.409760 2.341805152028776e-38
1.553534 -0.441091 -0.409301 2.341805152028776e-38
1.550308 -0.448799 -0.409083 2.341805152028776e-38
1.550763 -0.457589 -0.409841 2.341805152028776e-38
1.550240 -0.466122 -0.410347 2.341805152028776e-38
1.545036 -0.473249 -0.409619 2.341805152028776e-38
1.539800 -0.480339 -0.408884 2.341805152028776e-38
1.537294 -0.488292 -0.408895 2.341805152028776e-38
1.534722 -0.496282 -0.408937 2.341805152028776e-38
1.531187 -0.503963 -0.408726 2.341805152028776e-38
1.529452 -0.512242 -0.408999 2.341805152028776e-38
1.525838 -0.519897 -0.408774 2.341805152028776e-38
1.524932 -0.528486 -0.409279 2.341805152028776e-38
1.520321 -0.535798 -0.408794 2.341805152028776e-38
1.518381 -0.544121 -0.409083 2.341805152028776e-38
1.513657 -0.551457 -0.408634 2.341805152028776e-38
1.507080 -0.558092 -0.407685 2.341805152028776e-38
1.506826 -0.567069 -0.408448 2.341805152028776e-38
1.504707 -0.575373 -0.408713 2.341805152028776e-38
1.499833 -0.582622 -0.408232 2.341805152028776e-38
1.499403 -0.591669 -0.409006 2.341805152028776e-38
1.498007 -0.600396 -0.409541 2.341805152028776e-38
1.494765 -0.608400 -0.409576 2.341805152028776e-38
1.490584 -0.616022 -0.409356 2.341805152028776e-38
1.488152 -0.624372 -0.409620 2.341805152028776e-38
1.487456 -0.633480 -0.410367 2.341805152028776e-38
1.485786 -0.642268 -0.410892 2.341805152028776e-38
1.481386 -0.649919 -0.410685 2.341805152028776e-38
1.476061 -0.657152 -0.410222 2.341805152028776e-38
1.471585 -0.664752 -0.409997 2.341805152028776e-38
1.469713 -0.673540 -0.410501 2.341805152028776e-38
1.463395 -0.680290 -0.409765 2.341805152028776e-38
1.457009 -0.687054 -0.409056 2.341805152028776e-38
1.428723 -0.683337 -0.402193 2.341805152028776e-38
1.637372 -0.199532 -0.427568 2.341805152028776e-38
1.631578 -0.207036 -0.426251 2.341805152028776e-38
1.625750 -0.214489 -0.424931 2.341805152028776e-38
1.621808 -0.222153 -0.424110 2.341805152028776e-38
1.619746 -0.230056 -0.423787 2.341805152028776e-38
1.616682 -0.237816 -0.423233 2.341805152028776e-38
1.612615 -0.245424 -0.422451 2.341805152028776e-38
1.607556 -0.252850 -0.421416 2.341805152028776e-38
1.606286 -0.260855 -0.421381 2.341805152028776e-38
1.604021 -0.268697 -0.421092 2.341805152028776e-38
1.601719 -0.276525 -0.420800 2.341805152028776e-38
1.596519 -0.283833 -0.419753 2.341805152028776e-38
1.595095 -0.291795 -0.419705 2.341805152028776e-38
1.594584 -0.299932 -0.419904 2.341805152028776e-38
1.591176 -0.307529 -0.419358 2.341805152028776e-38
1.584866 -0.314570 -0.418100 2.341805152028776e-38
1.588011 -0.323493 -0.419343 2.341805152028776e-38
1.587316 -0.331669 -0.419581 2.341805152028776e-38
1.584686 -0.339444 -0.419313 2.341805152028776e-38
1.581072 -0.346998 -0.418791 2.341805152028776e-38
1.576478 -0.354317 -0.418015 2.341805152028776e-38
1.573738 -0.362037 -0.417735 2.341805152028776e-38
1.570955 -0.369752 -0.417461 2.341805152028776e-38
1.569995 -0.377944 -0.417728 2.341805152028776e-38
1.568993 -0.386143 -0.417989 2.341805152028776e-38
1.566070 -0.393874 -0.417745 2.341805152028776e-38
1.564047 -0.401832 -0.417746 2.341805152028776e-38
1.561984 -0.409784 -0.417741 2.341805152028776e-38
1.561750 -0.418233 -0.418233 2.341805152028776e-38
1.562405 -0.426950 -0.418969 2.341805152028776e-38
1.562050 -0.435482 -0.419501 2.341805152028776e-38
1.554197 -0.441913 -0.418026 2.341805152028776e-38
1.551898 -0.449899 -0.418048 2.341805152028776e-38
1.551415 -0.458427 -0.418564 2.341805152028776e-38
1.548104 -0.466131 -0.418323 2.341805152028776e-38
1.539202 -0.472116 -0.416573 2.341805152028776e-38
1.537667 -0.480344 -0.416827 2.341805152028776e-38
1.533291 -0.487747 -0.416370 2.341805152028776e-38
1.531643 -0.496020 -0.416656 2.341805152028776e-38
1.529031 -0.503991 -0.416686 2.341805152028776e-38
1.526377 -0.511955 -0.416708 2.341805152028776e-38
1.523681 -0.519911 -0.416723 2.341805152028776e-38
1.522773 -0.528494 -0.417232 2.341805152028776e-38
1.521792 -0.537130 -0.417767 2.341805152028776e-38
1.515282 -0.543837 -0.416809 2.341805152028776e-38
1.507834 -0.550165 -0.415593 2.341805152028776e-38
1.504900 -0.558120 -0.415621 2.341805152028776e-38
1.501924 -0.566065 -0.415642 2.341805152028776e-38
1.499810 -0.574346 -0.415906 2.341805152028776e-38
1.501243 -0.584058 -0.417184 2.341805152028776e-38
1.498088 -0.592070 -0.417230 2.341805152028776e-38
1.496687 -0.600793 -0.417770 2.341805152028776e-38
1.494339 -0.609158 -0.418050 2.341805152028776e-38
1.489261 -0.616411 -0.417569 2.341805152028776e-38
1.487718 -0.625133 -0.418083 2.341805152028776e-38
1.484329 -0.633126 -0.418102 2.341805152028776e-38
1.479978 -0.640770 -0.417894 2.341805152028776e-38
1.477360 -0.649171 -0.418178 2.341805152028776e-38
1.474695 -0.657569 -0.418453 2.341805152028776e-38
1.470217 -0.665165 -0.418217 2.341805152028776e-38
1.465701 -0.672737 -0.417973 2.341805152028776e-38
1.459373 -0.679497 -0.417235 2.341805152028776e-38
1.454735 -0.687085 -0.417017 2.341805152028776e-38
1.421249 -0.680849 -0.408509 2.341805152028776e-38
1.620873 -0.197713 -0.431741 2.341805152028776e-38
1.622767 -0.206118 -0.432443 2.341805152028776e-38
1.620784 -0.214041 -0.432120 2.341805152028776e-38
1.616842 -0.221695 -0.431298 2.341805152028776e-38
1.614768 -0.229606 -0.431015 2.341805152028776e-38
1.611700 -0.237364 -0.430473 2.341805152028776e-38
1.609550 -0.245245 -0.430185 2.341805152028776e-38
1.604497 -0.252663 -0.429127 2.341805152028776e-38
1.602274 -0.260506 -0.428832 2.341805152028776e-38
1.600965 -0.268495 -0.428790 2.341805152028776e-38
1.597712 -0.276151 -0.428235 2.341805152028776e-38
1.595375 -0.283954 -0.427931 2.341805152028776e-38
1.594902 -0.292092 -0.428134 2.341805152028776e-38
1.589625 -0.299361 -0.427089 2.341805152028776e-38
1.587154 -0.307156 -0.426827 2.341805152028776e-38
1.584645 -0.314938 -0.426561 2.341805152028776e-38
1.583993 -0.323093 -0.426802 2.341805152028776e-38
1.580460 -0.330661 -0.426274 2.341805152028776e-38
1.579727 -0.338814 -0.426508 2.341805152028776e-38
1.578008 -0.346765 -0.426482 2.341805152028776e-38
1.574362 -0.354287 -0.425941 2.341805152028776e-38
1.570672 -0.361802 -0.425416 2.341805152028776e-38
1.567870 -0.369545 -0.425176 2.341805152028776e-38
1.565031 -0.377275 -0.424931 2.341805152028776e-38
1.564031 -0.385454 -0.425192 2.341805152028776e-38
1.562988 -0.393638 -0.425447 2.341805152028776e-38
1.560966 -0.401586 -0.425443 2.341805152028776e-38
1.558904 -0.409529 -0.425433 2.341805152028776e-38
1.561471 -0.418719 -0.426694 2.341805152028776e-38
1.564889 -0.428256 -0.428256 2.341805152028776e-38
1.561729 -0.436030 -0.428029 2.341805152028776e-38
1.555741 -0.442994 -0.427030 2.341805152028776e-38
1.549723 -0.449915 -0.426025 2.341805152028776e-38
1.547383 -0.457888 -0.426035 2.341805152028776e-38
1.544076 -0.465577 -0.425784 2.341805152028776e-38
1.541655 -0.473534 -0.425782 2.341805152028776e-38
1.535469 -0.480388 -0.424806 2.341805152028776e-38
1.532938 -0.488371 -0.424843 2.341805152028776e-38
1.528526 -0.495751 -0.424363 2.341805152028776e-38
1.526833 -0.504014 -0.424642 2.341805152028776e-38
1.524179 -0.511971 -0.424658 2.341805152028776e-38
1.523313 -0.520545 -0.425178 2.341805152028776e-38
1.522382 -0.529159 -0.425714 2.341805152028776e-38
1.519559 -0.537175 -0.425761 2.341805152028776e-38
1.511235 -0.543220 -0.424267 2.341805152028776e-38
1.506521 -0.550527 -0.423787 2.341805152028776e-38
1.503585 -0.558478 -0.423810 2.341805152028776e-38
1.503321 -0.567444 -0.424591 2.341805152028776e-38
1.501193 -0.575745 -0.424860 2.341805152028776e-38
1.498083 -0.583754 -0.424910 2.341805152028776e-38
1.496727 -0.592465 -0.425461 2.341805152028776e-38
1.492631 -0.600102 -0.425238 2.341805152028776e-38
1.491180 -0.608815 -0.425772 2.341805152028776e-38
1.487000 -0.616425 -0.425532 2.341805152028776e-38
1.485454 -0.625138 -0.426050 2.341805152028776e-38
1.481146 -0.632790 -0.425840 2.341805152028776e-38
1.478572 -0.641190 -0.426133 2.341805152028776e-38
1.476835 -0.649976 -0.426672 2.341805152028776e-38
1.475047 -0.658769 -0.427201 2.341805152028776e-38
1.468804 -0.665572 -0.426444 2.341805152028776e-38
1.465164 -0.673544 -0.426445 2.341805152028776e-38
1.458806 -0.680349 -0.425716 2.341805152028776e-38
1.453292 -0.687524 -0.425232 2.341805152028776e-38
1.406777 -0.675009 -0.412720 2.341805152028776e-38
1.606267 -0.188038 -0.436087 2.341805152028776e-38
1.613957 -0.197064 -0.438367 2.341805152028776e-38
1.616802 -0.205572 -0.439359 2.341805152028776e-38
1.614808 -0.213494 -0.439072 2.341805152028776e-38
1.612776 -0.221404 -0.438783 2.341805152028776e-38
1.612617 -0.229575 -0.439012 2.341805152028776e-38
1.610506 -0.237471 -0.438718 2.341805152028776e-38
1.608357 -0.245355 -0.438421 2.341805152028776e-38
1.603309 -0.252775 -0.437340 2.341805152028776e-38
1.603945 -0.261084 -0.437818 2.341805152028776e-38
1.600730 -0.268769 -0.437251 2.341805152028776e-38
1.599381 -0.276761 -0.437202 2.341805152028776e-38
1.594188 -0.284074 -0.436114 2.341805152028776e-38
1.590844 -0.291725 -0.435589 2.341805152028776e-38
1.589361 -0.299712 -0.435581 2.341805152028776e-38
1.587837 -0.307696 -0.435570 2.341805152028776e-38
1.584380 -0.315300 -0.435034 2.341805152028776e-38
1.581833 -0.323075 -0.434755 2.341805152028776e-38
1.580192 -0.331035 -0.434733 2.341805152028776e-38
1.581344 -0.339599 -0.435486 2.341805152028776e-38
1.577735 -0.347150 -0.434935 2.341805152028776e-38
1.573134 -0.354490 -0.434151 2.341805152028776e-38
1.570370 -0.362251 -0.433905 2.341805152028776e-38
1.567568 -0.369999 -0.433655 2.341805152028776e-38
1.562850 -0.377280 -0.432880 2.341805152028776e-38
1.562786 -0.385686 -0.433399 2.341805152028776e-38
1.558932 -0.393161 -0.432875 2.341805152028776e-38
1.558783 -0.401576 -0.433385 2.341805152028776e-38
1.555786 -0.409269 -0.433109 2.341805152028776e-38
1.558320 -0.418499 -0.434442 2.341805152028776e-38
1.558935 -0.427264 -0.435250 2.341805152028776e-38
1.553922 -0.434492 -0.434492 2.341805152028776e-38
1.552590 -0.442746 -0.434768 2.341805152028776e-38
1.550287 -0.450733 -0.434778 2.341805152028776e-38
1.547943 -0.458715 -0.434782 2.341805152028776e-38
1.546482 -0.466970 -0.435041 2.341805152028776e-38
1.542178 -0.474430 -0.434562 2.341805152028776e-38
1.535992 -0.481292 -0.433560 2.341805152028776e-38
1.529777 -0.488109 -0.432551 2.341805152028776e-38
1.527206 -0.496073 -0.432576 2.341805152028776e-38
1.524593 -0.504031 -0.432593 2.341805152028776e-38
1.524685 -0.512904 -0.433384 2.341805152028776e-38
1.525628 -0.522128 -0.434443 2.341805152028776e-38
1.522842 -0.530159 -0.434491 2.341805152028776e-38
1.512733 -0.535603 -0.432450 2.341805152028776e-38
1.510784 -0.543906 -0.432743 2.341805152028776e-38
1.506976 -0.551546 -0.432508 2.341805152028776e-38
1.506750 -0.560514 -0.433305 2.341805152028776e-38
1.503761 -0.568477 -0.433315 2.341805152028776e-38
1.501596 -0.576835 -0.433621 2.341805152028776e-38
1.497581 -0.584498 -0.433404 2.341805152028776e-38
1.494424 -0.592498 -0.433438 2.341805152028776e-38
1.492119 -0.600848 -0.433725 2.341805152028776e-38
1.488875 -0.608831 -0.433743 2.341805152028776e-38
1.483804 -0.616063 -0.433231 2.341805152028776e-38
1.482227 -0.624811 -0.433786 2.341805152028776e-38
1.479697 -0.633209 -0.434087 2.341805152028776e-38
1.478006 -0.641989 -0.434638 2.341805152028776e-38
1.475379 -0.650386 -0.434921 2.341805152028776e-38
1.473585 -0.659174 -0.435454 2.341805152028776e-38
1.467344 -0.665973 -0.434677 2.341805152028776e-38
1.466303 -0.675199 -0.435483 2.341805152028776e-38
1.456441 -0.680379 -0.433692 2.341805152028776e-38
1.451802 -0.687958 -0.433453 2.341805152028776e-38
1.417537 -0.681293 -0.424348 2.341805152028776e-38
1.627097 -0.190680 -0.450330 2.341805152028776e-38
1.613692 -0.197262 -0.446859 2.341805152028776e-38
1.613653 -0.205423 -0.447097 2.341805152028776e-38
1.613573 -0.213591 -0.447332 2.341805152028776e-38
1.610586 -0.221373 -0.446770 2.341805152028776e-38
1.609471 -0.229404 -0.446735 2.341805152028776e-38
1.606409 -0.237152 -0.446167 2.341805152028776e-38
1.605216 -0.245169 -0.446127 2.341805152028776e-38
1.603031 -0.253032 -0.445819 2.341805152028776e-38
1.601760 -0.261038 -0.445772 2.341805152028776e-38
1.598547 -0.268720 -0.445193 2.341805152028776e-38
1.596236 -0.276565 -0.444908 2.341805152028776e-38
1.591981 -0.284069 -0.444107 2.341805152028776e-38
1.593381 -0.292587 -0.444892 2.341805152028776e-38
1.589051 -0.300057 -0.444085 2.341805152028776e-38
1.584686 -0.307496 -0.443274 2.341805152028776e-38
1.581232 -0.315092 -0.442724 2.341805152028776e-38
1.580577 -0.323245 -0.442965 2.341805152028776e-38
1.580823 -0.331602 -0.443467 2.341805152028776e-38
1.580083 -0.339771 -0.443700 2.341805152028776e-38
1.574572 -0.346942 -0.442650 2.341805152028776e-38
1.574668 -0.355353 -0.443193 2.341805152028776e-38
1.569083 -0.362477 -0.442143 2.341805152028776e-38
1.565342 -0.370003 -0.441617 2.341805152028776e-38
1.563440 -0.377960 -0.441616 2.341805152028776e-38
1.561498 -0.385912 -0.441611 2.341805152028776e-38
1.558580 -0.393623 -0.441335 2.341805152028776e-38
1.557491 -0.401805 -0.441587 2.341805152028776e-38
1.555399 -0.409792 -0.441621 2.341805152028776e-38
1.553266 -0.417775 -0.441648 2.341805152028776e-38
1.550162 -0.425499 -0.441405 2.341805152028776e-38
1.551662 -0.434508 -0.442481 2.341805152028776e-38
1.550329 -0.442756 -0.442756 2.341805152028776e-38
1.548025 -0.450738 -0.442760 2.341805152028776e-38
1.546606 -0.458988 -0.443023 2.341805152028776e-38
1.543267 -0.466733 -0.442798 2.341805152028776e-38
1.536200 -0.473333 -0.441513 2.341805152028776e-38
1.535546 -0.481901 -0.442075 2.341805152028776e-38
1.530252 -0.489014 -0.441305 2.341805152028776e-38
1.524925 -0.496091 -0.440529 2.341805152028776e-38
1.523228 -0.504345 -0.440806 2.341805152028776e-38
1.521481 -0.512608 -0.441081 2.341805152028776e-38
1.523307 -0.522178 -0.442456 2.341805152028776e-38
1.521431 -0.530518 -0.442763 2.341805152028776e-38
1.513148 -0.536604 -0.441207 2.341805152028776e-38
1.509379 -0.544259 -0.440969 2.341805152028776e-38
1.505571 -0.551896 -0.440723 2.341805152028776e-38
1.504435 -0.560524 -0.441264 2.341805152028776e-38
1.503223 -0.569205 -0.441830 2.341805152028776e-38
1.497449 -0.576187 -0.441081 2.341805152028776e-38
1.494336 -0.584183 -0.441118 2.341805152028776e-38
1.492973 -0.592882 -0.441677 2.341805152028776e-38
1.488877 -0.600506 -0.441432 2.341805152028776e-38
1.486526 -0.608842 -0.441709 2.341805152028776e-38
1.483222 -0.616832 -0.441732 2.341805152028776e-38
1.481624 -0.625603 -0.442305 2.341805152028776e-38
1.478203 -0.633621 -0.442339 2.341805152028776e-38
1.475622 -0.642012 -0.442630 2.341805152028776e-38
1.471229 -0.649621 -0.442380 2.341805152028776e-38
1.467677 -0.657602 -0.442387 2.341805152028776e-38
1.463190 -0.665193 -0.442134 2.341805152028776e-38
1.462133 -0.674425 -0.442966 2.341805152028776e-38
1.451412 -0.679177 -0.440869 2.341805152028776e-38
1.449394 -0.687972 -0.441415 2.341805152028776e-38
1.619112 -0.189981 -0.456764 2.341805152028776e-38
1.617196 -0.197936 -0.456465 2.341805152028776e-38
1.612377 -0.205514 -0.455356 2.341805152028776e-38
1.609431 -0.213305 -0.454783 2.341805152028776e-38
1.607403 -0.221206 -0.454478 2.341805152028776e-38
1.608195 -0.229502 -0.454978 2.341805152028776e-38
1.605135 -0.237252 -0.454398 2.341805152028776e-38
1.602990 -0.245125 -0.454084 2.341805152028776e-38
1.601758 -0.253136 -0.454037 2.341805152028776e-38
1.598579 -0.260843 -0.453465 2.341805152028776e-38
1.596301 -0.268706 -0.453191 2.341805152028776e-38
1.593984 -0.276557 -0.452913 2.341805152028776e-38
1.593525 -0.284736 -0.453171 2.341805152028776e-38
1.589236 -0.292225 -0.452348 2.341805152028776e-38
1.585858 -0.299861 -0.451791 2.341805152028776e-38
1.585279 -0.308027 -0.452039 2.341805152028776e-38
1.583714 -0.316010 -0.452014 2.341805152028776e-38
1.579279 -0.323410 -0.451177 2.341805152028776e-38
1.578575 -0.331576 -0.451423 2.341805152028776e-38
1.579693 -0.340186 -0.452248 2.341805152028776e-38
1.577002 -0.347992 -0.451990 2.341805152028776e-38
1.573334 -0.355573 -0.451458 2.341805152028776e-38
1.567752 -0.362698 -0.450383 2.341805152028776e-38
1.565887 -0.370668 -0.450381 2.341805152028776e-38
1.564918 -0.378860 -0.450644 2.341805152028776e-38
1.562037 -0.386595 -0.450363 2.341805152028776e-38
1.559112 -0.394324 -0.450087 2.341805152028776e-38
1.558923 -0.402801 -0.450659 2.341805152028776e-38
1.554964 -0.410311 -0.450147 2.341805152028776e-38
1.550968 -0.417797 -0.449629 2.341805152028776e-38
1.550651 -0.426281 -0.450184 2.341805152028776e-38
1.548433 -0.434258 -0.450194 2.341805152028776e-38
1.548025 -0.442760 -0.450738 2.341805152028776e-38
1.545722 -0.450736 -0.450736 2.341805152028776e-38
1.539659 -0.457656 -0.449696 2.341805152028776e-38
1.535403 -0.465097 -0.449196 2.341805152028776e-38
1.534793 -0.473650 -0.449768 2.341805152028776e-38
1.533216 -0.481927 -0.450064 2.341805152028776e-38
1.528842 -0.489326 -0.449544 2.341805152028776e-38
1.522603 -0.496103 -0.448477 2.341805152028776e-38
1.518162 -0.503441 -0.447943 2.341805152028776e-38
1.520949 -0.513274 -0.449612 2.341805152028776e-38
1.520943 -0.522220 -0.450465 2.341805152028776e-38
1.519066 -0.530553 -0.450771 2.341805152028776e-38
1.511698 -0.536953 -0.449450 2.341805152028776e-38
1.508834 -0.544933 -0.449470 2.341805152028776e-38
1.503216 -0.551908 -0.448673 2.341805152028776e-38
1.503864 -0.561230 -0.449780 2.341805152028776e-38
1.497231 -0.567886 -0.448749 2.341805152028776e-38
1.495061 -0.576225 -0.449058 2.341805152028776e-38
1.492845 -0.584564 -0.449359 2.341805152028776e-38
1.490582 -0.592903 -0.449651 2.341805152028776e-38
1.485595 -0.600159 -0.449125 2.341805152028776e-38
1.483239 -0.608489 -0.449407 2.341805152028776e-38
1.479911 -0.616507 -0.449453 2.341805152028776e-38
1.479199 -0.625639 -0.450300 2.341805152028776e-38
1.476662 -0.634028 -0.450598 2.341805152028776e-38
1.472312 -0.641645 -0.450347 2.341805152028776e-38
1.467042 -0.648851 -0.449817 2.341805152028776e-38
1.464373 -0.657207 -0.450087 2.341805152028776e-38
1.459858 -0.664831 -0.449856 2.341805152028776e-38
1.457924 -0.673645 -0.450425 2.341805152028776e-38
1.445476 -0.677560 -0.447744 2.341805152028776e-38
1.455638 -0.692114 -0.452075 2.341805152028776e-38
1.622563 -0.190626 -0.466425 2.341805152028776e-38
1.610147 -0.197320 -0.463099 2.341805152028776e-38
1.607244 -0.205116 -0.462516 2.341805152028776e-38
1.606209 -0.213143 -0.462479 2.341805152028776e-38
1.606088 -0.221298 -0.462715 2.341805152028776e-38
1.606877 -0.229597 -0.463222 2.341805152028776e-38
1.603819 -0.237348 -0.462628 2.341805152028776e-38
1.599771 -0.244937 -0.461766 2.341805152028776e-38
1.596623 -0.252665 -0.461213 2.341805152028776e-38
1.597233 -0.260992 -0.461755 2.341805152028776e-38
1.594008 -0.268697 -0.461196 2.341805152028776e-38
1.592640 -0.276710 -0.461183 2.341805152028776e-38
1.589339 -0.284382 -0.460619 2.341805152028776e-38
1.589784 -0.292729 -0.461148 2.341805152028776e-38
1.585461 -0.300197 -0.460302 2.341805152028776e-38
1.584880 -0.308369 -0.460550 2.341805152028776e-38
1.581427 -0.315981 -0.459972 2.341805152028776e-38
1.577925 -0.323591 -0.459420 2.341805152028776e-38
1.580023 -0.332383 -0.460531 2.341805152028776e-38
1.578313 -0.340400 -0.460541 2.341805152028776e-38
1.574683 -0.347999 -0.459998 2.341805152028776e-38
1.571017 -0.355575 -0.459451 2.341805152028776e-38
1.567315 -0.363129 -0.458900 2.341805152028776e-38
1.563577 -0.370661 -0.458344 2.341805152028776e-38
1.561672 -0.378622 -0.458332 2.341805152028776e-38
1.559717 -0.386594 -0.458333 2.341805152028776e-38
1.557703 -0.394593 -0.458365 2.341805152028776e-38
1.556579 -0.402828 -0.458666 2.341805152028776e-38
1.551693 -0.410086 -0.457864 2.341805152028776e-38
1.550487 -0.418314 -0.458153 2.341805152028776e-38
1.546456 -0.425780 -0.457614 2.341805152028776e-38
1.546092 -0.434262 -0.458167 2.341805152028776e-38
1.543832 -0.442229 -0.458165 2.341805152028776e-38
1.542428 -0.450505 -0.458479 2.341805152028776e-38
1.537288 -0.457695 -0.457695 2.341805152028776e-38
1.534876 -0.465688 -0.457728 2.341805152028776e-38
1.532422 -0.473676 -0.457754 2.341805152028776e-38
1.529009 -0.481369 -0.457499 2.341805152028776e-38
1.524641 -0.488752 -0.456963 2.341805152028776e-38
1.520239 -0.496109 -0.456420 2.341805152028776e-38
1.516682 -0.503795 -0.456192 2.341805152028776e-38
1.516726 -0.512702 -0.457060 2.341805152028776e-38
1.515809 -0.521319 -0.457646 2.341805152028776e-38
1.515750 -0.530264 -0.458499 2.341805152028776e-38
1.511109 -0.537619 -0.457972 2.341805152028776e-38
1.508242 -0.545600 -0.457986 2.341805152028776e-38
1.503517 -0.552926 -0.457457 2.341805152028776e-38
1.495125 -0.558922 -0.455859 2.341805152028776e-38
1.494802 -0.567926 -0.456724 2.341805152028776e-38
1.493528 -0.576603 -0.457306 2.341805152028776e-38
1.491308 -0.584939 -0.457605 2.341805152028776e-38
1.488149 -0.592918 -0.457621 2.341805152028776e-38
1.482273 -0.599805 -0.456805 2.341805152028776e-38
1.478107 -0.607441 -0.456573 2.341805152028776e-38
1.474784 -0.615434 -0.456613 2.341805152028776e-38
1.474074 -0.624543 -0.457467 2.341805152028776e-38
1.472425 -0.633288 -0.458039 2.341805152028776e-38
1.469843 -0.641656 -0.458326 2.341805152028776e-38
1.465455 -0.649242 -0.458054 2.341805152028776e-38
1.460120 -0.656459 -0.457532 2.341805152028776e-38
1.454736 -0.663665 -0.457015 2.341805152028776e-38
1.452806 -0.672454 -0.457587 2.341805152028776e-38
1.441249 -0.676754 -0.455127 2.341805152028776e-38
1.473093 -0.701625 -0.466398 2.341805152028776e-38
1.616422 -0.190145 -0.473339 2.341805152028776e-38
1.608790 -0.197403 -0.471350 2.341805152028776e-38
1.604936 -0.205079 -0.470475 2.341805152028776e-38
1.603902 -0.213103 -0.470436 2.341805152028776e-38
1.605682 -0.221519 -0.471231 2.341805152028776e-38
1.605515 -0.229691 -0.471472 2.341805152028776e-38
1.600543 -0.237186 -0.470351 2.341805152028776e-38
1.598384 -0.245077 -0.470066 2.341805152028776e-38
1.598083 -0.253258 -0.470336 2.341805152028776e-38
1.594897 -0.260981 -0.469766 2.341805152028776e-38
1.590728 -0.268523 -0.468914 2.341805152028776e-38
1.588415 -0.276364 -0.468617 2.341805152028776e-38
1.588899 -0.284701 -0.469155 2.341805152028776e-38
1.585562 -0.292357 -0.468572 2.341805152028776e-38
1.580302 -0.299634 -0.467429 2.341805152028776e-38
1.578778 -0.307605 -0.467401 2.341805152028776e-38
1.578135 -0.315794 -0.467696 2.341805152028776e-38
1.576509 -0.323798 -0.467708 2.341805152028776e-38
1.573902 -0.331601 -0.467437 2.341805152028776e-38
1.572196 -0.339594 -0.467441 2.341805152028776e-38
1.571386 -0.347792 -0.467720 2.341805152028776e-38
1.567724 -0.355360 -0.467158 2.341805152028776e-38
1.562155 -0.362470 -0.466033 2.341805152028776e-38
1.560292 -0.370426 -0.466020 2.341805152028776e-38
1.557439 -0.378176 -0.465753 2.341805152028776e-38
1.557333 -0.386625 -0.466342 2.341805152028776e-38
1.553458 -0.394146 -0.465809 2.341805152028776e-38
1.551406 -0.402126 -0.465829 2.341805152028776e-38
1.548384 -0.409856 -0.465564 2.341805152028776e-38
1.545323 -0.417572 -0.465294 2.341805152028776e-38
1.545002 -0.426039 -0.465856 2.341805152028776e-38
1.545558 -0.434780 -0.466691 2.341805152028776e-38
1.542344 -0.442533 -0.466454 2.341805152028776e-38
1.539090 -0.450275 -0.466214 2.341805152028776e-38
1.537636 -0.458551 -0.466526 2.341805152028776e-38
1.534301 -0.466273 -0.466273 2.341805152028776e-38
1.530926 -0.473980 -0.466014 2.341805152028776e-38
1.528429 -0.481959 -0.466027 2.341805152028776e-38
1.524061 -0.489345 -0.465475 2.341805152028776e-38
1.520542 -0.497051 -0.465239 2.341805152028776e-38
1.519712 -0.505659 -0.465843 2.341805152028776e-38
1.514285 -0.512740 -0.465043 2.341805152028776e-38
1.514272 -0.521661 -0.465911 2.341805152028776e-38
1.513301 -0.530286 -0.466493 2.341805152028776e-38
1.508664 -0.537634 -0.465949 2.341805152028776e-38
1.503986 -0.544960 -0.465403 2.341805152028776e-38
1.497437 -0.551649 -0.464337 2.341805152028776e-38
1.496255 -0.560311 -0.464939 2.341805152028776e-38
1.495022 -0.568984 -0.465533 2.341805152028776e-38
1.490158 -0.576282 -0.465000 2.341805152028776e-38
1.487045 -0.584254 -0.465018 2.341805152028776e-38
1.484781 -0.592571 -0.465307 2.341805152028776e-38
1.480664 -0.600207 -0.465061 2.341805152028776e-38
1.473829 -0.606750 -0.463986 2.341805152028776e-38
1.472281 -0.615466 -0.464578 2.341805152028776e-38
1.468031 -0.623065 -0.464322 2.341805152028776e-38
1.469914 -0.633302 -0.466015 2.341805152028776e-38
1.468210 -0.642045 -0.466580 2.341805152028776e-38
1.463804 -0.649654 -0.466316 2.341805152028776e-38
1.457580 -0.656493 -0.465513 2.341805152028776e-38
1.453945 -0.664487 -0.465539 2.341805152028776e-38
1.449394 -0.672065 -0.465276 2.341805152028776e-38
1.434379 -0.674715 -0.461647 2.341805152028776e-38
1.493900 -0.712784 -0.482056 2.341805152028776e-38
1.595925 -0.179886 -0.475697 2.341805152028776e-38
1.599777 -0.188427 -0.477082 2.341805152028776e-38
1.600729 -0.196664 -0.477613 2.341805152028776e-38
1.601639 -0.204917 -0.478140 2.341805152028776e-38
1.600601 -0.212940 -0.478111 2.341805152028776e-38
1.601412 -0.221236 -0.478675 2.341805152028776e-38
1.600282 -0.229278 -0.478669 2.341805152028776e-38
1.596267 -0.236897 -0.477809 2.341805152028776e-38
1.596006 -0.245067 -0.478082 2.341805152028776e-38
1.593810 -0.252945 -0.477784 2.341805152028776e-38
1.589683 -0.260500 -0.476916 2.341805152028776e-38
1.588356 -0.268505 -0.476897 2.341805152028776e-38
1.589823 -0.277001 -0.477726 2.341805152028776e-38
1.587470 -0.284845 -0.477417 2.341805152028776e-38
1.582249 -0.292155 -0.476252 2.341805152028776e-38
1.580751 -0.300158 -0.476251 2.341805152028776e-38
1.575440 -0.307437 -0.475129 2.341805152028776e-38
1.575737 -0.315806 -0.475707 2.341805152028776e-38
1.574110 -0.323805 -0.475714 2.341805152028776e-38
1.573381 -0.332000 -0.476000 2.341805152028776e-38
1.573547 -0.340404 -0.476566 2.341805152028776e-38
1.568051 -0.347580 -0.475425 2.341805152028776e-38
1.561588 -0.354501 -0.473996 2.341805152028776e-38
1.558831 -0.362240 -0.473698 2.341805152028776e-38
1.556947 -0.370221 -0.473723 2.341805152028776e-38
1.555018 -0.378205 -0.473752 2.341805152028776e-38
1.551187 -0.385724 -0.473208 2.341805152028776e-38
1.551965 -0.394402 -0.474079 2.341805152028776e-38
1.549912 -0.402381 -0.474092 2.341805152028776e-38
1.547817 -0.410356 -0.474100 2.341805152028776e-38
1.546606 -0.418577 -0.474387 2.341805152028776e-38
1.544427 -0.426548 -0.474385 2.341805152028776e-38
1.544947 -0.435343 -0.475282 2.341805152028776e-38
1.542651 -0.443367 -0.475321 2.341805152028776e-38
1.539393 -0.451117 -0.475070 2.341805152028776e-38
1.535178 -0.458577 -0.474528 2.341805152028776e-38
1.532761 -0.466572 -0.474548 2.341805152028776e-38
1.528471 -0.473993 -0.473993 2.341805152028776e-38
1.525973 -0.481966 -0.474000 2.341805152028776e-38
1.523407 -0.489976 -0.474042 2.341805152028776e-38
1.520792 -0.497991 -0.474088 2.341805152028776e-38
1.516314 -0.505394 -0.473558 2.341805152028776e-38
1.514525 -0.513694 -0.473873 2.341805152028776e-38
1.513597 -0.522310 -0.474465 2.341805152028776e-38
1.511715 -0.530620 -0.474765 2.341805152028776e-38
1.507981 -0.538286 -0.474489 2.341805152028776e-38
1.503271 -0.545666 -0.473973 2.341805152028776e-38
1.498523 -0.553020 -0.473449 2.341805152028776e-38
1.494637 -0.560684 -0.473201 2.341805152028776e-38
1.489816 -0.567987 -0.472660 2.341805152028776e-38
1.485854 -0.575608 -0.472396 2.341805152028776e-38
1.485421 -0.584615 -0.473260 2.341805152028776e-38
1.485806 -0.594024 -0.474422 2.341805152028776e-38
1.484333 -0.602776 -0.475035 2.341805152028776e-38
1.475717 -0.608612 -0.473365 2.341805152028776e-38
1.470619 -0.615862 -0.472823 2.341805152028776e-38
1.470780 -0.625332 -0.473978 2.341805152028776e-38
1.470881 -0.634829 -0.475123 2.341805152028776e-38
1.469160 -0.643591 -0.475698 2.341805152028776e-38
1.464720 -0.651250 -0.475452 2.341805152028776e-38
1.458491 -0.658098 -0.474628 2.341805152028776e-38
1.453975 -0.665703 -0.474363 2.341805152028776e-38
1.448550 -0.672881 -0.473804 2.341805152028776e-38
1.433550 -0.675531 -0.470106 2.341805152028776e-38
1.634481 -0.192763 -0.496262 2.341805152028776e-38
1.625895 -0.200025 -0.493940 2.341805152028776e-38
1.621073 -0.207701 -0.492781 2.341805152028776e-38
1.613367 -0.214958 -0.490754 2.341805152028776e-38
1.606578 -0.222279 -0.489014 2.341805152028776e-38
1.604496 -0.230221 -0.488714 2.341805152028776e-38
1.597638 -0.237448 -0.486969 2.341805152028776e-38
1.597374 -0.245635 -0.487242 2.341805152028776e-38
1.591394 -0.252927 -0.485781 2.341805152028776e-38
1.590105 -0.260945 -0.485760 2.341805152028776e-38
1.588776 -0.268961 -0.485736 2.341805152028776e-38
1.588350 -0.277139 -0.485997 2.341805152028776e-38
1.582223 -0.284316 -0.484538 2.341805152028776e-38
1.580756 -0.292333 -0.484553 2.341805152028776e-38
1.576428 -0.299813 -0.483698 2.341805152028776e-38
1.574883 -0.307813 -0.483706 2.341805152028776e-38
1.576113 -0.316376 -0.484576 2.341805152028776e-38
1.576359 -0.324773 -0.485154 2.341805152028776e-38
1.572814 -0.332394 -0.484574 2.341805152028776e-38
1.572039 -0.340601 -0.484855 2.341805152028776e-38
1.566548 -0.347777 -0.483689 2.341805152028776e-38
1.561020 -0.354918 -0.482528 2.341805152028776e-38
1.557305 -0.362483 -0.481983 2.341805152028776e-38
1.557278 -0.370914 -0.482587 2.341805152028776e-38
1.552555 -0.378229 -0.481744 2.341805152028776e-38
1.552443 -0.386668 -0.482338 2.341805152028776e-38
1.549501 -0.394414 -0.482062 2.341805152028776e-38
1.549300 -0.402870 -0.482647 2.341805152028776e-38
1.549054 -0.411341 -0.483226 2.341805152028776e-38
1.545984 -0.419082 -0.482942 2.341805152028776e-38
1.543773 -0.427103 -0.482986 2.341805152028776e-38
1.545206 -0.436161 -0.484179 2.341805152028776e-38
1.539226 -0.443134 -0.483056 2.341805152028776e-38
1.537809 -0.451412 -0.483371 2.341805152028776e-38
1.531760 -0.458323 -0.482235 2.341805152028776e-38
1.529345 -0.466306 -0.482248 2.341805152028776e-38
1.525973 -0.474000 -0.481966 2.341805152028776e-38
1.525275 -0.482586 -0.482586 2.341805152028776e-38
1.520876 -0.490022 -0.482054 2.341805152028776e-38
1.518260 -0.498030 -0.482093 2.341805152028776e-38
1.515602 -0.506031 -0.482124 2.341805152028776e-38
1.516527 -0.515258 -0.483304 2.341805152028776e-38
1.512873 -0.522952 -0.483032 2.341805152028776e-38
1.510083 -0.530946 -0.483041 2.341805152028776e-38
1.504514 -0.538016 -0.482222 2.341805152028776e-38
1.500706 -0.545711 -0.481979 2.341805152028776e-38
1.495064 -0.552725 -0.481149 2.341805152028776e-38
1.492973 -0.561049 -0.481468 2.341805152028776e-38
1.487259 -0.568007 -0.480622 2.341805152028776e-38
1.485976 -0.576660 -0.481212 2.341805152028776e-38
1.486413 -0.586039 -0.482386 2.341805152028776e-38
1.487650 -0.595850 -0.483878 2.341805152028776e-38
1.481729 -0.602813 -0.483049 2.341805152028776e-38
1.475777 -0.609737 -0.482210 2.341805152028776e-38
1.468911 -0.616251 -0.481073 2.341805152028776e-38
1.469064 -0.625716 -0.482240 2.341805152028776e-38
1.468277 -0.634829 -0.483109 2.341805152028776e-38
1.465643 -0.643246 -0.483434 2.341805152028776e-38
1.462080 -0.651280 -0.483465 2.341805152028776e-38
1.459346 -0.659696 -0.483777 2.341805152028776e-38
1.453083 -0.666512 -0.482922 2.341805152028776e-38
