VERSION .7
FIELDS x y z rgb
SIZE 4 4 4 4
TYPE F F F F
COUNT 1 1 1 1
WIDTH 944
HEIGHT 1
VIEWPOINT 0 0 0 1 0 0 0
POINTS 944
DATA ascii
1.663089 0.101601 -0.264162 2.341805152028776e-38
1.664547 0.093537 -0.264343 2.341805152028776e-38
1.662021 0.085259 -0.263896 2.341805152028776e-38
1.661428 0.077099 -0.263760 2.341805152028776e-38
1.661781 0.068988 -0.263779 2.341805152028776e-38
1.662096 0.060876 -0.263795 2.341805152028776e-38
1.663358 0.052793 -0.263967 2.341805152028776e-38
1.663594 0.044673 -0.263979 2.341805152028776e-38
1.661816 0.036509 -0.263676 2.341805152028776e-38
1.659010 0.028346 -0.263214 2.341805152028776e-38
1.658140 0.020236 -0.263064 2.341805152028776e-38
1.659206 0.012149 -0.263224 2.341805152028776e-38
1.658258 0.004047 -0.263070 2.341805152028776e-38
1.655295 -0.004040 -0.262600 2.341805152028776e-38
1.651305 -0.012091 -0.261971 2.341805152028776e-38
1.652215 -0.020163 -0.262124 2.341805152028776e-38
1.653085 -0.028245 -0.262274 2.341805152028776e-38
1.654904 -0.036357 -0.262579 2.341805152028776e-38
1.654708 -0.044435 -0.262569 2.341805152028776e-38
1.653486 -0.052480 -0.262400 2.341805152028776e-38
1.651239 -0.060478 -0.262072 2.341805152028776e-38
1.649940 -0.068497 -0.261899 2.341805152028776e-38
1.649589 -0.076550 -0.261881 2.341805152028776e-38
1.649199 -0.084601 -0.261860 2.341805152028776e-38
1.647783 -0.092595 -0.261681 2.341805152028776e-38
1.648301 -0.100697 -0.261813 2.341805152028776e-38
1.646809 -0.108677 -0.261630 2.341805152028776e-38
1.647249 -0.116784 -0.261758 2.341805152028776e-38
1.645679 -0.124749 -0.261571 2.341805152028776e-38
1.644071 -0.132701 -0.261381 2.341805152028776e-38
1.643409 -0.140725 -0.261347 2.341805152028776e-38
1.645660 -0.149013 -0.261779 2.341805152028776e-38
1.646885 -0.157232 -0.262053 2.341805152028776e-38
1.645122 -0.165171 -0.261856 2.341805152028776e-38
1.644303 -0.173199 -0.261813 2.341805152028776e-38
1.645409 -0.181440 -0.262080 2.341805152028776e-38
1.645492 -0.189583 -0.262189 2.341805152028776e-38
1.645535 -0.197731 -0.262296 2.341805152028776e-38
1.643579 -0.205639 -0.262089 2.341805152028776e-38
1.643543 -0.213787 -0.262192 2.341805152028776e-38
1.642489 -0.221808 -0.262136 2.341805152028776e-38
1.642374 -0.229960 -0.262235 2.341805152028776e-38
1.640264 -0.237833 -0.262019 2.341805152028776e-38
1.637140 -0.245544 -0.261645 2.341805152028776e-38
1.637884 -0.253836 -0.261894 2.341805152028776e-38
1.638586 -0.262140 -0.262140 2.341805152028776e-38
1.637298 -0.270136 -0.262073 2.341805152028776e-38
1.636945 -0.278292 -0.262159 2.341805152028776e-38
1.636551 -0.286450 -0.262243 2.341805152028776e-38
1.636117 -0.294611 -0.262325 2.341805152028776e-38
1.636614 -0.302954 -0.262560 2.341805152028776e-38
1.642892 -0.312416 -0.263728 2.341805152028776e-38
1.647177 -0.321569 -0.264582 2.341805152028776e-38
1.663035 -0.333098 -0.267301 2.341805152028776e-38
1.699943 0.179154 -0.279147 2.341805152028776e-38
1.681150 0.168876 -0.275969 2.341805152028776e-38
1.669176 0.159444 -0.273916 2.341805152028776e-38
1.662065 0.150577 -0.272667 2.341805152028776e-38
1.659824 0.142205 -0.272221 2.341805152028776e-38
1.659510 0.134018 -0.272096 2.341805152028776e-38
1.659155 0.125836 -0.271969 2.341805152028776e-38
1.657775 0.117592 -0.271678 2.341805152028776e-38
1.660295 0.109624 -0.272031 2.341805152028776e-38
1.663761 0.101695 -0.272543 2.341805152028776e-38
1.665219 0.093624 -0.272729 2.341805152028776e-38
1.663681 0.085389 -0.272430 2.341805152028776e-38
1.660131 0.077079 -0.271806 2.341805152028776e-38
1.659499 0.068930 -0.271664 2.341805152028776e-38
1.659813 0.060824 -0.271681 2.341805152028776e-38
1.659101 0.052686 -0.271534 2.341805152028776e-38
1.660323 0.044609 -0.271708 2.341805152028776e-38
1.661506 0.036521 -0.271880 2.341805152028776e-38
1.660677 0.028389 -0.271727 2.341805152028776e-38
1.657834 0.020242 -0.271249 2.341805152028776e-38
1.655939 0.012131 -0.270931 2.341805152028776e-38
1.654004 0.004039 -0.270610 2.341805152028776e-38
1.654004 -0.004039 -0.270610 2.341805152028776e-38
1.652978 -0.012110 -0.270446 2.341805152028776e-38
1.650926 -0.020158 -0.270119 2.341805152028776e-38
1.651796 -0.028238 -0.270274 2.341805152028776e-38
1.653613 -0.036348 -0.270589 2.341805152028776e-38
1.652431 -0.044397 -0.270417 2.341805152028776e-38
1.651210 -0.052435 -0.270243 2.341805152028776e-38
1.648965 -0.060426 -0.269905 2.341805152028776e-38
1.650625 -0.068561 -0.270211 2.341805152028776e-38
1.649287 -0.076576 -0.270030 2.341805152028776e-38
1.648897 -0.084630 -0.270009 2.341805152028776e-38
1.649453 -0.092737 -0.270147 2.341805152028776e-38
1.648000 -0.100732 -0.269961 2.341805152028776e-38
1.644538 -0.108584 -0.269449 2.341805152028776e-38
1.646947 -0.116824 -0.269904 2.341805152028776e-38
1.645378 -0.124791 -0.269711 2.341805152028776e-38
1.642787 -0.132667 -0.269354 2.341805152028776e-38
1.642125 -0.140689 -0.269318 2.341805152028776e-38
1.645356 -0.149063 -0.269925 2.341805152028776e-38
1.645597 -0.157191 -0.270047 2.341805152028776e-38
1.641871 -0.164931 -0.269521 2.341805152028776e-38
1.642035 -0.173051 -0.269638 2.341805152028776e-38
1.643139 -0.181285 -0.269913 2.341805152028776e-38
1.642243 -0.189308 -0.269865 2.341805152028776e-38
1.642287 -0.197444 -0.269975 2.341805152028776e-38
1.642291 -0.205586 -0.270083 2.341805152028776e-38
1.640297 -0.213477 -0.269867 2.341805152028776e-38
1.639244 -0.221486 -0.269810 2.341805152028776e-38
1.640108 -0.229764 -0.270073 2.341805152028776e-38
1.636046 -0.237346 -0.269529 2.341805152028776e-38
1.636830 -0.245627 -0.269787 2.341805152028776e-38
1.636597 -0.253770 -0.269882 2.341805152028776e-38
1.637298 -0.262073 -0.270136 2.341805152028776e-38
1.635036 -0.269906 -0.269906 2.341805152028776e-38
1.634683 -0.278054 -0.269995 2.341805152028776e-38
1.633318 -0.286035 -0.269920 2.341805152028776e-38
1.632885 -0.294184 -0.270005 2.341805152028776e-38
1.632412 -0.302336 -0.270087 2.341805152028776e-38
1.637717 -0.311598 -0.271130 2.341805152028776e-38
1.646845 -0.321675 -0.272813 2.341805152028776e-38
1.664624 -0.333594 -0.275936 2.341805152028776e-38
1.777079 -0.365164 -0.294771 2.341805152028776e-38
1.950114 -0.410655 -0.323693 2.341805152028776e-38
1.686803 0.177865 -0.285412 2.341805152028776e-38
1.672926 0.168141 -0.282969 2.341805152028776e-38
1.664886 0.159120 -0.281519 2.341805152028776e-38
1.660726 0.150537 -0.280731 2.341805152028776e-38
1.658487 0.142167 -0.280273 2.341805152028776e-38
1.660139 0.134141 -0.280476 2.341805152028776e-38
1.658802 0.125878 -0.280179 2.341805152028776e-38
1.658408 0.117700 -0.280046 2.341805152028776e-38
1.661910 0.109790 -0.280575 2.341805152028776e-38
1.665375 0.101848 -0.281102 2.341805152028776e-38
1.664863 0.093654 -0.280962 2.341805152028776e-38
1.663327 0.085416 -0.280654 2.341805152028776e-38
1.661751 0.077196 -0.280344 2.341805152028776e-38
1.659150 0.068952 -0.279865 2.341805152028776e-38
1.659464 0.060844 -0.279882 2.341805152028776e-38
1.657768 0.052672 -0.279565 2.341805152028776e-38
1.659974 0.044623 -0.279911 2.341805152028776e-38
1.660171 0.036512 -0.279922 2.341805152028776e-38
1.658356 0.028365 -0.279598 2.341805152028776e-38
1.656502 0.020237 -0.279272 2.341805152028776e-38
1.653622 0.012121 -0.278778 2.341805152028776e-38
1.651689 0.004035 -0.278447 2.341805152028776e-38
1.653661 -0.004040 -0.278780 2.341805152028776e-38
1.650664 -0.012099 -0.278279 2.341805152028776e-38
1.650586 -0.020165 -0.278275 2.341805152028776e-38
1.651454 -0.028247 -0.278434 2.341805152028776e-38
1.650312 -0.036295 -0.278259 2.341805152028776e-38
1.651103 -0.044385 -0.278415 2.341805152028776e-38
1.648897 -0.052390 -0.278069 2.341805152028776e-38
1.646653 -0.060374 -0.277722 2.341805152028776e-38
1.646341 -0.068420 -0.277704 2.341805152028776e-38
1.646976 -0.076510 -0.277851 2.341805152028776e-38
1.649540 -0.084708 -0.278328 2.341805152028776e-38
1.649111 -0.092768 -0.278304 2.341805152028776e-38
1.645689 -0.100645 -0.277779 2.341805152028776e-38
1.646167 -0.108750 -0.277917 2.341805152028776e-38
1.645621 -0.116793 -0.277887 2.341805152028776e-38
1.642086 -0.124609 -0.277356 2.341805152028776e-38
1.640480 -0.132552 -0.277155 2.341805152028776e-38
1.640802 -0.140651 -0.277284 2.341805152028776e-38
1.642066 -0.148846 -0.277577 2.341805152028776e-38
1.641326 -0.156868 -0.277536 2.341805152028776e-38
1.640547 -0.164887 -0.277492 2.341805152028776e-38
1.640710 -0.173005 -0.277612 2.341805152028776e-38
1.641814 -0.181237 -0.277896 2.341805152028776e-38
1.641896 -0.189371 -0.278012 2.341805152028776e-38
1.643898 -0.197745 -0.278458 2.341805152028776e-38
1.641942 -0.205654 -0.278237 2.341805152028776e-38
1.641905 -0.213802 -0.278346 2.341805152028776e-38
1.640851 -0.221823 -0.278287 2.341805152028776e-38
1.639758 -0.229839 -0.278226 2.341805152028776e-38
1.635698 -0.237425 -0.277666 2.341805152028776e-38
1.634529 -0.245415 -0.277601 2.341805152028776e-38
1.634296 -0.253551 -0.277699 2.341805152028776e-38
1.634023 -0.261691 -0.277795 2.341805152028776e-38
1.632737 -0.269673 -0.277723 2.341805152028776e-38
1.630440 -0.277484 -0.277484 2.341805152028776e-38
1.629077 -0.285448 -0.277407 2.341805152028776e-38
1.629618 -0.293756 -0.277660 2.341805152028776e-38
1.630116 -0.302076 -0.277910 2.341805152028776e-38
1.636385 -0.311514 -0.279149 2.341805152028776e-38
1.638729 -0.320265 -0.279725 2.341805152028776e-38
1.663269 -0.333505 -0.284097 2.341805152028776e-38
1.755343 -0.360896 -0.300022 2.341805152028776e-38
1.692261 0.178540 -0.294799 2.341805152028776e-38
1.671537 0.168095 -0.291091 2.341805152028776e-38
1.660561 0.158795 -0.289088 2.341805152028776e-38
1.658366 0.150407 -0.288618 2.341805152028776e-38
1.657111 0.142128 -0.288317 2.341805152028776e-38
1.656797 0.133945 -0.288185 2.341805152028776e-38
1.657426 0.125843 -0.288221 2.341805152028776e-38
1.657033 0.117668 -0.288084 2.341805152028776e-38
1.661515 0.109825 -0.288799 2.341805152028776e-38
1.662027 0.101700 -0.288829 2.341805152028776e-38
1.661516 0.093518 -0.288685 2.341805152028776e-38
1.659981 0.085292 -0.288368 2.341805152028776e-38
1.660375 0.077175 -0.288390 2.341805152028776e-38
1.656791 0.068892 -0.287727 2.341805152028776e-38
1.656120 0.060755 -0.287574 2.341805152028776e-38
1.659349 0.052751 -0.288103 2.341805152028776e-38
1.660570 0.044664 -0.288287 2.341805152028776e-38
1.658796 0.036502 -0.287956 2.341805152028776e-38
1.656983 0.028357 -0.287623 2.341805152028776e-38
1.652175 0.020195 -0.286775 2.341805152028776e-38
1.652253 0.012117 -0.286780 2.341805152028776e-38
1.651307 0.004037 -0.286611 2.341805152028776e-38
1.649336 -0.004032 -0.286269 2.341805152028776e-38
1.650282 -0.012103 -0.286438 2.341805152028776e-38
1.649219 -0.020159 -0.286262 2.341805152028776e-38
1.649102 -0.028222 -0.286255 2.341805152028776e-38
1.651901 -0.036350 -0.286759 2.341805152028776e-38
1.650720 -0.044399 -0.286577 2.341805152028776e-38
1.648516 -0.052407 -0.286222 2.341805152028776e-38
1.645289 -0.060358 -0.285693 2.341805152028776e-38
1.644978 -0.068401 -0.285675 2.341805152028776e-38
1.645611 -0.076489 -0.285826 2.341805152028776e-38
1.645222 -0.084534 -0.285804 2.341805152028776e-38
1.645777 -0.092632 -0.285950 2.341805152028776e-38
1.644325 -0.100617 -0.285752 2.341805152028776e-38
1.642836 -0.108590 -0.285552 2.341805152028776e-38
1.642290 -0.116621 -0.285521 2.341805152028776e-38
1.640724 -0.124575 -0.285317 2.341805152028776e-38
1.640102 -0.132595 -0.285281 2.341805152028776e-38
1.638459 -0.140529 -0.285072 2.341805152028776e-38
1.640703 -0.148805 -0.285544 2.341805152028776e-38
1.638982 -0.156731 -0.285331 2.341805152028776e-38
1.638204 -0.164743 -0.285286 2.341805152028776e-38
1.638367 -0.172854 -0.285410 2.341805152028776e-38
1.638490 -0.180971 -0.285532 2.341805152028776e-38
1.640531 -0.189319 -0.285992 2.341805152028776e-38
1.640574 -0.197456 -0.286109 2.341805152028776e-38
1.639598 -0.205475 -0.286053 2.341805152028776e-38
1.640538 -0.213744 -0.286336 2.341805152028776e-38
1.639484 -0.221762 -0.286275 2.341805152028776e-38
1.637416 -0.229639 -0.286042 2.341805152028776e-38
1.634334 -0.237360 -0.285636 2.341805152028776e-38
1.632191 -0.245202 -0.285399 2.341805152028776e-38
1.630011 -0.253028 -0.285159 2.341805152028776e-38
1.629740 -0.261151 -0.285258 2.341805152028776e-38
1.629429 -0.269278 -0.285354 2.341805152028776e-38
1.628106 -0.277242 -0.285278 2.341805152028776e-38
1.626745 -0.285200 -0.285200 2.341805152028776e-38
1.626315 -0.293326 -0.285289 2.341805152028776e-38
1.627782 -0.301813 -0.285717 2.341805152028776e-38
1.632110 -0.310876 -0.286652 2.341805152028776e-38
1.638323 -0.320366 -0.287924 2.341805152028776e-38
1.660908 -0.333219 -0.292081 2.341805152028776e-38
1.721051 -0.354046 -0.302858 2.341805152028776e-38
1.673191 0.176629 -0.299859 2.341805152028776e-38
1.665210 0.167555 -0.298329 2.341805152028776e-38
1.658162 0.158656 -0.296972 2.341805152028776e-38
1.656949 0.150364 -0.296665 2.341805152028776e-38
1.652753 0.141836 -0.295829 2.341805152028776e-38
1.654401 0.133828 -0.296044 2.341805152028776e-38
1.656011 0.125808 -0.296257 2.341805152028776e-38
1.654637 0.117565 -0.295940 2.341805152028776e-38
1.659116 0.109729 -0.296675 2.341805152028776e-38
1.659627 0.101611 -0.296705 2.341805152028776e-38
1.661082 0.093547 -0.296909 2.341805152028776e-38
1.657583 0.085217 -0.296232 2.341805152028776e-38
1.656992 0.077062 -0.296079 2.341805152028776e-38
1.655379 0.068873 -0.295749 2.341805152028776e-38
1.658644 0.060882 -0.296294 2.341805152028776e-38
1.659903 0.052799 -0.296486 2.341805152028776e-38
1.659155 0.044652 -0.296324 2.341805152028776e-38
1.657383 0.036491 -0.295985 2.341805152028776e-38
1.655571 0.028349 -0.295642 2.341805152028776e-38
1.653720 0.020226 -0.295298 2.341805152028776e-38
1.652814 0.012128 -0.295126 2.341805152028776e-38
1.647931 0.004031 -0.294250 2.341805152028776e-38
1.648916 -0.004033 -0.294426 2.341805152028776e-38
1.648876 -0.012100 -0.294423 2.341805152028776e-38
1.647814 -0.020154 -0.294243 2.341805152028776e-38
1.647697 -0.028214 -0.294236 2.341805152028776e-38
1.650493 -0.036340 -0.294754 2.341805152028776e-38
1.648330 -0.044360 -0.294391 2.341805152028776e-38
1.646128 -0.052361 -0.294026 2.341805152028776e-38
1.644871 -0.060377 -0.293834 2.341805152028776e-38
1.644559 -0.068423 -0.293816 2.341805152028776e-38
1.643225 -0.076421 -0.293619 2.341805152028776e-38
1.643819 -0.084510 -0.293772 2.341805152028776e-38
1.644373 -0.092606 -0.293922 2.341805152028776e-38
1.642923 -0.100589 -0.293719 2.341805152028776e-38
1.640452 -0.108495 -0.293338 2.341805152028776e-38
1.639907 -0.116519 -0.293306 2.341805152028776e-38
1.638342 -0.124465 -0.293096 2.341805152028776e-38
1.637720 -0.132479 -0.293059 2.341805152028776e-38
1.638040 -0.140573 -0.293195 2.341805152028776e-38
1.638321 -0.148674 -0.293330 2.341805152028776e-38
1.636602 -0.156593 -0.293110 2.341805152028776e-38
1.635824 -0.164598 -0.293064 2.341805152028776e-38
1.635008 -0.172599 -0.293016 2.341805152028776e-38
1.636110 -0.180812 -0.293317 2.341805152028776e-38
1.637172 -0.189040 -0.293615 2.341805152028776e-38
1.638192 -0.197282 -0.293910 2.341805152028776e-38
1.638194 -0.205417 -0.294028 2.341805152028776e-38
1.640109 -0.213811 -0.294494 2.341805152028776e-38
1.639055 -0.221832 -0.294432 2.341805152028776e-38
1.636986 -0.229711 -0.294192 2.341805152028776e-38
1.632932 -0.237293 -0.293599 2.341805152028776e-38
1.631764 -0.245279 -0.293530 2.341805152028776e-38
1.628612 -0.252957 -0.293109 2.341805152028776e-38
1.628340 -0.261078 -0.293210 2.341805152028776e-38
1.629971 -0.269523 -0.293659 2.341805152028776e-38
1.628647 -0.277495 -0.293581 2.341805152028776e-38
1.626315 -0.285289 -0.293326 2.341805152028776e-38
1.626852 -0.293593 -0.293593 2.341805152028776e-38
1.624444 -0.301369 -0.293333 2.341805152028776e-38
1.630703 -0.310788 -0.294643 2.341805152028776e-38
1.637876 -0.320464 -0.296125 2.341805152028776e-38
1.652716 -0.331769 -0.299001 2.341805152028776e-38
1.719560 -0.353958 -0.311312 2.341805152028776e-38
1.653134 0.174615 -0.304561 2.341805152028776e-38
1.659832 0.167112 -0.305693 2.341805152028776e-38
1.656705 0.158610 -0.305020 2.341805152028776e-38
1.652555 0.150054 -0.304163 2.341805152028776e-38
1.650322 0.141710 -0.303665 2.341805152028776e-38
1.651968 0.133710 -0.303886 2.341805152028776e-38
1.652596 0.125622 -0.303924 2.341805152028776e-38
1.655147 0.117671 -0.304321 2.341805152028776e-38
1.661586 0.109957 -0.305437 2.341805152028776e-38
1.659153 0.101642 -0.304926 2.341805152028776e-38
1.657661 0.093409 -0.304594 2.341805152028776e-38
1.656129 0.085193 -0.304259 2.341805152028776e-38
1.655540 0.077039 -0.304103 2.341805152028776e-38
1.654910 0.068894 -0.303944 2.341805152028776e-38
1.655224 0.060793 -0.303963 2.341805152028776e-38
1.653533 0.052627 -0.303618 2.341805152028776e-38
1.653768 0.044533 -0.303633 2.341805152028776e-38
1.651997 0.036394 -0.303283 2.341805152028776e-38
1.652154 0.028307 -0.303293 2.341805152028776e-38
1.651288 0.020208 -0.303120 2.341805152028776e-38
1.648415 0.012103 -0.302583 2.341805152028776e-38
1.645504 0.004027 -0.302043 2.341805152028776e-38
1.645504 -0.004027 -0.302043 2.341805152028776e-38
1.644481 -0.012074 -0.301861 2.341805152028776e-38
1.645387 -0.020136 -0.302036 2.341805152028776e-38
1.647237 -0.028223 -0.302390 2.341805152028776e-38
1.648064 -0.036307 -0.302561 2.341805152028776e-38
1.642952 -0.044242 -0.301647 2.341805152028776e-38
1.642719 -0.052283 -0.301633 2.341805152028776e-38
1.641463 -0.060287 -0.301436 2.341805152028776e-38
1.640169 -0.068280 -0.301236 2.341805152028776e-38
1.637854 -0.076216 -0.300854 2.341805152028776e-38
1.638448 -0.084283 -0.301011 2.341805152028776e-38
1.639985 -0.092413 -0.301346 2.341805152028776e-38
1.640500 -0.100499 -0.301498 2.341805152028776e-38
1.638031 -0.108398 -0.301107 2.341805152028776e-38
1.637487 -0.116415 -0.301074 2.341805152028776e-38
1.635923 -0.124355 -0.300858 2.341805152028776e-38
1.634321 -0.132282 -0.300640 2.341805152028776e-38
1.632682 -0.140196 -0.300420 2.341805152028776e-38
1.634922 -0.148453 -0.300918 2.341805152028776e-38
1.634184 -0.156454 -0.300873 2.341805152028776e-38
1.632429 -0.164353 -0.300646 2.341805152028776e-38
1.630636 -0.172239 -0.300416 2.341805152028776e-38
1.633693 -0.180651 -0.301085 2.341805152028776e-38
1.634754 -0.188872 -0.301391 2.341805152028776e-38
1.635773 -0.197107 -0.301695 2.341805152028776e-38
1.635776 -0.205235 -0.301816 2.341805152028776e-38
1.635738 -0.213367 -0.301934 2.341805152028776e-38
1.636635 -0.221636 -0.302230 2.341805152028776e-38
1.636517 -0.229782 -0.302344 2.341805152028776e-38
1.634412 -0.237648 -0.302095 2.341805152028776e-38
1.633242 -0.245647 -0.302024 2.341805152028776e-38
1.630090 -0.253337 -0.301591 2.341805152028776e-38
1.629815 -0.261469 -0.301695 2.341805152028776e-38
1.628530 -0.269445 -0.301617 2.341805152028776e-38
1.628176 -0.277579 -0.301717 2.341805152028776e-38
1.625844 -0.285377 -0.301454 2.341805152028776e-38
1.625412 -0.293507 -0.301549 2.341805152028776e-38
1.623971 -0.301461 -0.301461 2.341805152028776e-38
1.627325 -0.310329 -0.302269 2.341805152028776e-38
1.633527 -0.319804 -0.303612 2.341805152028776e-38
1.650282 -0.331487 -0.306932 2.341805152028776e-38
1.717058 -0.353686 -0.319596 2.341805152028776e-38
1.657504 0.175183 -0.313699 2.341805152028776e-38
1.658332 0.167062 -0.313751 2.341805152028776e-38
1.655208 0.158563 -0.313060 2.341805152028776e-38
1.650084 0.149920 -0.311996 2.341805152028776e-38
1.650790 0.141837 -0.312040 2.341805152028776e-38
1.651458 0.133749 -0.312082 2.341805152028776e-38
1.657965 0.126106 -0.313232 2.341805152028776e-38
1.663457 0.118333 -0.314194 2.341805152028776e-38
1.664990 0.110249 -0.314414 2.341805152028776e-38
1.659619 0.101732 -0.313335 2.341805152028776e-38
1.656167 0.093381 -0.312624 2.341805152028776e-38
1.654637 0.085167 -0.312280 2.341805152028776e-38
1.655030 0.077062 -0.312305 2.341805152028776e-38
1.653419 0.068873 -0.311956 2.341805152028776e-38
1.652751 0.060738 -0.311790 2.341805152028776e-38
1.653026 0.052643 -0.311807 2.341805152028776e-38
1.653261 0.044546 -0.311822 2.341805152028776e-38
1.657387 0.036535 -0.312575 2.341805152028776e-38
1.656561 0.028400 -0.312400 2.341805152028776e-38
1.651766 0.020226 -0.311481 2.341805152028776e-38
1.647914 0.012107 -0.310744 2.341805152028776e-38
1.644022 0.004026 -0.310006 2.341805152028776e-38
1.645005 -0.004028 -0.310191 2.341805152028776e-38
1.646931 -0.012100 -0.310559 2.341805152028776e-38
1.647836 -0.020178 -0.310740 2.341805152028776e-38
1.646736 -0.028232 -0.310547 2.341805152028776e-38
1.644615 -0.036253 -0.310167 2.341805152028776e-38
1.642455 -0.044255 -0.309784 2.341805152028776e-38
1.644186 -0.052361 -0.310140 2.341805152028776e-38
1.647841 -0.060558 -0.310864 2.341805152028776e-38
1.645565 -0.068546 -0.310474 2.341805152028776e-38
1.640305 -0.076377 -0.309526 2.341805152028776e-38
1.638935 -0.084359 -0.309317 2.341805152028776e-38
1.639488 -0.092441 -0.309475 2.341805152028776e-38
1.640983 -0.100590 -0.309816 2.341805152028776e-38
1.639496 -0.108561 -0.309600 2.341805152028776e-38
1.636010 -0.116381 -0.309010 2.341805152028776e-38
1.633468 -0.124243 -0.308604 2.341805152028776e-38
1.633826 -0.132322 -0.308750 2.341805152028776e-38
1.632187 -0.140238 -0.308524 2.341805152028776e-38
1.632468 -0.148320 -0.308666 2.341805152028776e-38
1.634665 -0.156595 -0.309175 2.341805152028776e-38
1.636821 -0.164895 -0.309681 2.341805152028776e-38
1.635026 -0.172807 -0.309445 2.341805152028776e-38
1.634170 -0.180813 -0.309392 2.341805152028776e-38
1.635228 -0.189041 -0.309706 2.341805152028776e-38
1.635269 -0.197166 -0.309833 2.341805152028776e-38
1.635270 -0.205296 -0.309957 2.341805152028776e-38
1.635232 -0.213431 -0.310078 2.341805152028776e-38
1.636127 -0.221702 -0.310382 2.341805152028776e-38
1.636008 -0.229850 -0.310499 2.341805152028776e-38
1.632930 -0.237578 -0.310059 2.341805152028776e-38
1.631761 -0.245573 -0.309986 2.341805152028776e-38
1.629582 -0.253412 -0.309726 2.341805152028776e-38
1.629306 -0.261547 -0.309833 2.341805152028776e-38
1.628990 -0.269686 -0.309937 2.341805152028776e-38
1.628634 -0.277827 -0.310039 2.341805152028776e-38
1.624366 -0.285292 -0.309401 2.341805152028776e-38
1.622965 -0.293245 -0.309313 2.341805152028776e-38
1.624426 -0.301730 -0.309776 2.341805152028776e-38
1.626808 -0.310421 -0.310421 2.341805152028776e-38
1.629141 -0.319149 -0.311069 2.341805152028776e-38
1.647802 -0.331223 -0.314866 2.341805152028776e-38
1.701039 -0.350633 -0.325286 2.341805152028776e-38
1.653037 0.174820 -0.321180 2.341805152028776e-38
1.655817 0.166913 -0.321612 2.341805152028776e-38
1.653674 0.158514 -0.321093 2.341805152028776e-38
1.651488 0.150141 -0.320572 2.341805152028776e-38
1.649261 0.141793 -0.320048 2.341805152028776e-38
1.650906 0.133788 -0.320280 2.341805152028776e-38
1.658387 0.126217 -0.321649 2.341805152028776e-38
1.659958 0.118157 -0.321877 2.341805152028776e-38
1.658551 0.109891 -0.321533 2.341805152028776e-38
1.654163 0.101461 -0.320616 2.341805152028776e-38
1.654635 0.093353 -0.320646 2.341805152028776e-38
1.655067 0.085242 -0.320673 2.341805152028776e-38
1.654479 0.077084 -0.320508 2.341805152028776e-38
1.654833 0.068975 -0.320531 2.341805152028776e-38
1.656128 0.060900 -0.320741 2.341805152028776e-38
1.655422 0.052752 -0.320569 2.341805152028776e-38
1.658602 0.044718 -0.321154 2.341805152028776e-38
1.662725 0.036675 -0.321927 2.341805152028776e-38
1.657975 0.028442 -0.320986 2.341805152028776e-38
1.651221 0.020232 -0.319664 2.341805152028776e-38
1.647372 0.012110 -0.318908 2.341805152028776e-38
1.645448 0.004032 -0.318531 2.341805152028776e-38
1.644466 -0.004030 -0.318341 2.341805152028776e-38
1.645409 -0.012096 -0.318528 2.341805152028776e-38
1.644349 -0.020148 -0.318333 2.341805152028776e-38
1.645213 -0.028223 -0.318516 2.341805152028776e-38
1.645057 -0.036285 -0.318506 2.341805152028776e-38
1.644862 -0.044347 -0.318493 2.341805152028776e-38
1.649534 -0.052564 -0.319429 2.341805152028776e-38
1.652204 -0.060756 -0.319981 2.341805152028776e-38
1.646004 -0.068607 -0.318821 2.341805152028776e-38
1.640749 -0.076445 -0.317849 2.341805152028776e-38
1.639379 -0.084434 -0.317634 2.341805152028776e-38
1.642872 -0.092689 -0.318366 2.341805152028776e-38
1.641424 -0.100679 -0.318146 2.341805152028776e-38
1.636998 -0.108463 -0.317354 2.341805152028776e-38
1.635474 -0.116415 -0.317130 2.341805152028776e-38
1.634891 -0.124429 -0.317092 2.341805152028776e-38
1.633291 -0.132360 -0.316863 2.341805152028776e-38
1.631653 -0.140279 -0.316631 2.341805152028776e-38
1.636821 -0.148808 -0.317725 2.341805152028776e-38
1.643900 -0.157578 -0.319196 2.341805152028776e-38
1.640187 -0.165337 -0.318577 2.341805152028776e-38
1.634485 -0.172858 -0.317576 2.341805152028776e-38
1.634605 -0.180974 -0.317710 2.341805152028776e-38
1.635660 -0.189209 -0.318033 2.341805152028776e-38
1.635700 -0.197341 -0.318162 2.341805152028776e-38
1.634725 -0.205356 -0.318100 2.341805152028776e-38
1.632738 -0.213238 -0.317846 2.341805152028776e-38
1.633632 -0.221502 -0.318157 2.341805152028776e-38
1.631568 -0.229369 -0.317898 2.341805152028776e-38
1.629467 -0.237222 -0.317636 2.341805152028776e-38
1.625386 -0.244767 -0.316994 2.341805152028776e-38
1.624182 -0.252731 -0.316916 2.341805152028776e-38
1.625848 -0.261156 -0.317405 2.341805152028776e-38
1.625533 -0.269282 -0.317512 2.341805152028776e-38
1.624210 -0.277246 -0.317427 2.341805152028776e-38
1.622849 -0.285204 -0.317340 2.341805152028776e-38
1.620482 -0.292981 -0.317061 2.341805152028776e-38
1.621941 -0.301458 -0.317536 2.341805152028776e-38
1.626248 -0.310516 -0.318582 2.341805152028776e-38
1.634351 -0.320401 -0.320401 2.341805152028776e-38
1.647210 -0.331343 -0.323162 2.341805152028776e-38
1.688853 -0.348372 -0.331583 2.341805152028776e-38
1.650487 0.174662 -0.329014 2.341805152028776e-38
1.654241 0.166860 -0.329651 2.341805152028776e-38
1.655029 0.158746 -0.329703 2.341805152028776e-38
1.650893 0.150183 -0.328779 2.341805152028776e-38
1.649646 0.141917 -0.328436 2.341805152028776e-38
1.650314 0.133825 -0.328480 2.341805152028776e-38
1.654854 0.126028 -0.329300 2.341805152028776e-38
1.654466 0.117842 -0.329144 2.341805152028776e-38
1.655017 0.109727 -0.329180 2.341805152028776e-38
1.654550 0.101549 -0.329019 2.341805152028776e-38
1.656980 0.093544 -0.329439 2.341805152028776e-38
1.654475 0.085266 -0.328883 2.341805152028776e-38
1.655848 0.077197 -0.329104 2.341805152028776e-38
1.657182 0.069117 -0.329322 2.341805152028776e-38
1.656516 0.060953 -0.329148 2.341805152028776e-38
1.654831 0.052767 -0.328776 2.341805152028776e-38
1.656047 0.044677 -0.328986 2.341805152028776e-38
1.656244 0.036555 -0.328999 2.341805152028776e-38
1.652478 0.028366 -0.328230 2.341805152028776e-38
1.647692 0.020201 -0.327264 2.341805152028776e-38
1.647771 0.012121 -0.327269 2.341805152028776e-38
1.644867 0.004033 -0.326687 2.341805152028776e-38
1.644867 -0.004033 -0.326687 2.341805152028776e-38
1.642866 -0.012085 -0.326295 2.341805152028776e-38
1.643769 -0.020153 -0.326485 2.341805152028776e-38
1.644633 -0.028231 -0.326672 2.341805152028776e-38
1.647418 -0.036361 -0.327246 2.341805152028776e-38
1.645262 -0.044386 -0.326844 2.341805152028776e-38
1.647969 -0.052548 -0.327413 2.341805152028776e-38
1.645734 -0.060557 -0.327005 2.341805152028776e-38
1.640522 -0.068422 -0.326011 2.341805152028776e-38
1.639191 -0.076421 -0.325793 2.341805152028776e-38
1.640761 -0.084559 -0.326157 2.341805152028776e-38
1.641311 -0.092660 -0.326324 2.341805152028776e-38
1.638885 -0.100588 -0.325904 2.341805152028776e-38
1.638379 -0.108624 -0.325871 2.341805152028776e-38
1.636855 -0.116587 -0.325640 2.341805152028776e-38
1.635293 -0.124539 -0.325407 2.341805152028776e-38
1.635649 -0.132636 -0.325561 2.341805152028776e-38
1.634010 -0.140572 -0.325323 2.341805152028776e-38
1.636241 -0.148850 -0.325861 2.341805152028776e-38
1.637453 -0.157060 -0.326202 2.341805152028776e-38
1.632770 -0.164695 -0.325372 2.341805152028776e-38
1.630002 -0.172494 -0.324930 2.341805152028776e-38
1.631098 -0.180702 -0.325263 2.341805152028776e-38
1.635076 -0.189263 -0.326176 2.341805152028776e-38
1.634140 -0.197279 -0.326115 2.341805152028776e-38
1.631219 -0.205047 -0.325662 2.341805152028776e-38
1.631180 -0.213171 -0.325790 2.341805152028776e-38
1.633045 -0.221564 -0.326304 2.341805152028776e-38
1.630981 -0.229434 -0.326038 2.341805152028776e-38
1.624027 -0.236582 -0.324799 2.341805152028776e-38
1.622862 -0.244544 -0.324723 2.341805152028776e-38
1.618751 -0.252048 -0.324062 2.341805152028776e-38
1.620418 -0.260451 -0.324562 2.341805152028776e-38
1.623009 -0.269037 -0.325254 2.341805152028776e-38
1.623621 -0.277325 -0.325555 2.341805152028776e-38
1.621293 -0.285115 -0.325272 2.341805152028776e-38
1.621825 -0.293413 -0.325567 2.341805152028776e-38
1.621346 -0.301551 -0.325675 2.341805152028776e-38
1.625638 -0.310631 -0.326768 2.341805152028776e-38
1.630843 -0.319951 -0.328051 2.341805152028776e-38
1.643690 -0.330880 -0.330880 2.341805152028776e-38
1.699707 -0.350869 -0.342414 2.341805152028776e-38
1.650824 0.174812 -0.337427 2.341805152028776e-38
1.654576 0.167004 -0.338081 2.341805152028776e-38
1.652438 0.158601 -0.337536 2.341805152028776e-38
1.649282 0.150135 -0.336789 2.341805152028776e-38
1.648037 0.141871 -0.336438 2.341805152028776e-38
1.646751 0.133624 -0.336084 2.341805152028776e-38
1.648355 0.125616 -0.336325 2.341805152028776e-38
1.649921 0.117595 -0.336564 2.341805152028776e-38
1.653404 0.109691 -0.337200 2.341805152028776e-38
1.654894 0.101637 -0.337433 2.341805152028776e-38
1.655366 0.093514 -0.337465 2.341805152028776e-38
1.653842 0.085289 -0.337095 2.341805152028776e-38
1.652277 0.077081 -0.336723 2.341805152028776e-38
1.653610 0.069013 -0.336946 2.341805152028776e-38
1.651966 0.060826 -0.336568 2.341805152028776e-38
1.650282 0.052656 -0.336187 2.341805152028776e-38
1.651497 0.044583 -0.336403 2.341805152028776e-38
1.649734 0.036436 -0.336017 2.341805152028776e-38
1.646951 0.028289 -0.335429 2.341805152028776e-38
1.646089 0.020195 -0.335237 2.341805152028776e-38
1.645187 0.012110 -0.335043 2.341805152028776e-38
1.643266 0.004032 -0.334646 2.341805152028776e-38
1.644246 -0.004034 -0.334846 2.341805152028776e-38
1.642248 -0.012088 -0.334444 2.341805152028776e-38
1.643149 -0.020159 -0.334638 2.341805152028776e-38
1.645971 -0.028272 -0.335229 2.341805152028776e-38
1.645815 -0.036349 -0.335219 2.341805152028776e-38
1.644640 -0.044398 -0.335006 2.341805152028776e-38
1.641467 -0.052375 -0.334392 2.341805152028776e-38
1.638257 -0.060321 -0.333775 2.341805152028776e-38
1.635987 -0.068278 -0.333355 2.341805152028776e-38
1.635637 -0.076305 -0.333331 2.341805152028776e-38
1.637205 -0.084431 -0.333704 2.341805152028776e-38
1.637756 -0.092520 -0.333875 2.341805152028776e-38
1.638266 -0.100615 -0.334043 2.341805152028776e-38
1.634827 -0.108459 -0.333411 2.341805152028776e-38
1.636237 -0.116619 -0.333773 2.341805152028776e-38
1.634676 -0.124573 -0.333534 2.341805152028776e-38
1.631123 -0.132356 -0.332895 2.341805152028776e-38
1.630463 -0.140359 -0.332850 2.341805152028776e-38
1.631716 -0.148536 -0.333202 2.341805152028776e-38
1.631953 -0.156635 -0.333351 2.341805152028776e-38
1.628251 -0.164347 -0.332702 2.341805152028776e-38
1.628410 -0.172438 -0.332846 2.341805152028776e-38
1.628530 -0.180536 -0.332988 2.341805152028776e-38
1.629584 -0.188751 -0.333326 2.341805152028776e-38
1.631569 -0.197098 -0.333861 2.341805152028776e-38
1.631568 -0.205225 -0.333994 2.341805152028776e-38
1.634442 -0.213738 -0.334722 2.341805152028776e-38
1.633388 -0.221757 -0.334651 2.341805152028776e-38
1.631325 -0.229634 -0.334379 2.341805152028776e-38
1.623405 -0.236647 -0.332911 2.341805152028776e-38
1.619333 -0.244173 -0.332236 2.341805152028776e-38
1.618132 -0.252118 -0.332155 2.341805152028776e-38
1.620763 -0.260679 -0.332867 2.341805152028776e-38
1.622382 -0.269111 -0.333376 2.341805152028776e-38
1.622026 -0.277235 -0.333486 2.341805152028776e-38
1.621630 -0.285363 -0.333593 2.341805152028776e-38
1.620225 -0.293328 -0.333510 2.341805152028776e-38
1.619739 -0.301482 -0.333640 2.341805152028776e-38
1.623063 -0.310375 -0.334560 2.341805152028776e-38
1.632110 -0.320442 -0.336667 2.341805152028776e-38
1.649744 -0.332349 -0.340555 2.341805152028776e-38
1.724894 -0.356336 -0.356336 2.341805152028776e-38
1.657933 0.175683 -0.347280 2.341805152028776e-38
1.652920 0.166949 -0.346113 2.341805152028776e-38
1.653708 0.158830 -0.346167 2.341805152028776e-38
1.650558 0.150352 -0.345403 2.341805152028776e-38
1.645414 0.141741 -0.344227 2.341805152028776e-38
1.645105 0.133580 -0.344069 2.341805152028776e-38
1.647684 0.125649 -0.344520 2.341805152028776e-38
1.649249 0.117626 -0.344765 2.341805152028776e-38
1.651752 0.109655 -0.345211 2.341805152028776e-38
1.655195 0.101723 -0.345859 2.341805152028776e-38
1.654690 0.093539 -0.345687 2.341805152028776e-38
1.650235 0.085160 -0.344696 2.341805152028776e-38
1.650628 0.077056 -0.344723 2.341805152028776e-38
1.649025 0.068868 -0.344339 2.341805152028776e-38
1.650317 0.060806 -0.344565 2.341805152028776e-38
1.649613 0.052670 -0.344379 2.341805152028776e-38
1.648870 0.044542 -0.344191 2.341805152028776e-38
1.646130 0.036380 -0.343592 2.341805152028776e-38
1.645308 0.028280 -0.343398 2.341805152028776e-38
1.644447 0.020188 -0.343202 2.341805152028776e-38
1.643546 0.012106 -0.343003 2.341805152028776e-38
1.643585 0.004035 -0.343006 2.341805152028776e-38
1.641627 -0.004031 -0.342597 2.341805152028776e-38
1.641588 -0.012092 -0.342595 2.341805152028776e-38
1.640531 -0.020140 -0.342385 2.341805152028776e-38
1.641393 -0.028213 -0.342581 2.341805152028776e-38
1.643194 -0.036315 -0.342979 2.341805152028776e-38
1.642999 -0.044384 -0.342966 2.341805152028776e-38
1.639829 -0.052357 -0.342337 2.341805152028776e-38
1.637600 -0.060337 -0.341909 2.341805152028776e-38
1.635332 -0.068296 -0.341480 2.341805152028776e-38
1.634982 -0.076325 -0.341455 2.341805152028776e-38
1.635571 -0.084403 -0.341633 2.341805152028776e-38
1.637098 -0.092544 -0.342012 2.341805152028776e-38
1.636630 -0.100582 -0.341980 2.341805152028776e-38
1.637101 -0.108683 -0.342149 2.341805152028776e-38
1.633626 -0.116511 -0.341499 2.341805152028776e-38
1.632066 -0.124458 -0.341255 2.341805152028776e-38
1.631444 -0.132471 -0.341212 2.341805152028776e-38
1.631759 -0.140564 -0.341371 2.341805152028776e-38
1.633009 -0.148753 -0.341731 2.341805152028776e-38
1.631295 -0.156677 -0.341476 2.341805152028776e-38
1.629543 -0.164588 -0.341218 2.341805152028776e-38
1.626780 -0.172382 -0.340754 2.341805152028776e-38
1.630791 -0.180908 -0.341715 2.341805152028776e-38
1.629896 -0.188914 -0.341653 2.341805152028776e-38
1.632850 -0.197386 -0.342404 2.341805152028776e-38
1.631875 -0.205402 -0.342337 2.341805152028776e-38
1.632802 -0.213668 -0.342675 2.341805152028776e-38
1.630779 -0.221552 -0.342398 2.341805152028776e-38
1.631626 -0.229831 -0.342731 2.341805152028776e-38
1.626619 -0.237276 -0.341838 2.341805152028776e-38
1.624482 -0.245115 -0.341554 2.341805152028776e-38
1.621342 -0.252789 -0.341064 2.341805152028776e-38
1.622032 -0.261059 -0.341385 2.341805152028776e-38
1.620749 -0.269022 -0.341297 2.341805152028776e-38
1.620392 -0.277144 -0.341409 2.341805152028776e-38
1.620954 -0.285452 -0.341738 2.341805152028776e-38
1.619543 -0.293434 -0.341669 2.341805152028776e-38
1.618093 -0.301410 -0.341597 2.341805152028776e-38
1.623336 -0.310668 -0.342945 2.341805152028776e-38
1.628527 -0.319986 -0.344288 2.341805152028776e-38
1.649984 -0.332653 -0.349081 2.341805152028776e-38
1.718341 -0.355255 -0.363816 2.341805152028776e-38
1.653315 0.175314 -0.354705 2.341805152028776e-38
1.653171 0.167089 -0.354555 2.341805152028776e-38
1.650066 0.158589 -0.353776 2.341805152028776e-38
1.646918 0.150124 -0.352993 2.341805152028776e-38
1.643728 0.141693 -0.352208 2.341805152028776e-38
1.643420 0.133535 -0.352046 2.341805152028776e-38
1.645022 0.125532 -0.352299 2.341805152028776e-38
1.647561 0.117586 -0.352758 2.341805152028776e-38
1.652013 0.109748 -0.353633 2.341805152028776e-38
1.651549 0.101569 -0.353460 2.341805152028776e-38
1.650068 0.093342 -0.353075 2.341805152028776e-38
1.645617 0.084980 -0.352061 2.341805152028776e-38
1.646009 0.076893 -0.352088 2.341805152028776e-38
1.646362 0.068804 -0.352113 2.341805152028776e-38
1.646675 0.060713 -0.352135 2.341805152028776e-38
1.648904 0.052683 -0.352573 2.341805152028776e-38
1.646207 0.044501 -0.351962 2.341805152028776e-38
1.644448 0.036368 -0.351558 2.341805152028776e-38
1.641671 0.028237 -0.350942 2.341805152028776e-38
1.640810 0.020158 -0.350741 2.341805152028776e-38
1.640888 0.012095 -0.350747 2.341805152028776e-38
1.640927 0.004032 -0.350749 2.341805152028776e-38
1.641905 -0.004034 -0.350958 2.341805152028776e-38
1.638933 -0.012080 -0.350329 2.341805152028776e-38
1.636899 -0.020109 -0.349905 2.341805152028776e-38
1.638738 -0.028186 -0.350315 2.341805152028776e-38
1.639559 -0.036260 -0.350513 2.341805152028776e-38
1.637409 -0.044263 -0.350081 2.341805152028776e-38
1.635221 -0.052246 -0.349647 2.341805152028776e-38
1.634948 -0.060281 -0.349628 2.341805152028776e-38
1.632683 -0.068232 -0.349188 2.341805152028776e-38
1.632333 -0.076254 -0.349163 2.341805152028776e-38
1.633898 -0.084375 -0.349554 2.341805152028776e-38
1.636399 -0.092568 -0.350150 2.341805152028776e-38
1.635931 -0.100608 -0.350117 2.341805152028776e-38
1.631522 -0.108387 -0.349246 2.341805152028776e-38
1.631953 -0.116472 -0.349417 2.341805152028776e-38
1.629420 -0.124341 -0.348958 2.341805152028776e-38
1.629773 -0.132426 -0.349123 2.341805152028776e-38
1.629113 -0.140433 -0.349076 2.341805152028776e-38
1.629387 -0.148526 -0.349236 2.341805152028776e-38
1.629623 -0.156624 -0.349393 2.341805152028776e-38
1.629818 -0.164729 -0.349547 2.341805152028776e-38
1.629001 -0.172736 -0.349489 2.341805152028776e-38
1.627174 -0.180631 -0.349220 2.341805152028776e-38
1.629194 -0.188963 -0.349783 2.341805152028776e-38
1.629231 -0.197085 -0.349926 2.341805152028776e-38
1.629228 -0.205211 -0.350065 2.341805152028776e-38
1.629185 -0.213342 -0.350203 2.341805152028776e-38
1.632009 -0.221873 -0.350962 2.341805152028776e-38
1.630916 -0.229890 -0.350885 2.341805152028776e-38
1.626880 -0.237478 -0.350180 2.341805152028776e-38
1.622810 -0.245033 -0.349473 2.341805152028776e-38
1.618705 -0.252553 -0.348763 2.341805152028776e-38
1.618429 -0.260660 -0.348884 2.341805152028776e-38
1.619078 -0.268932 -0.349210 2.341805152028776e-38
1.619677 -0.277234 -0.349556 2.341805152028776e-38
1.620232 -0.285553 -0.349903 2.341805152028776e-38
1.616895 -0.293187 -0.349415 2.341805152028776e-38
1.614485 -0.300976 -0.349132 2.341805152028776e-38
1.617801 -0.309853 -0.350094 2.341805152028776e-38
1.622030 -0.318961 -0.351260 2.341805152028776e-38
1.643467 -0.331600 -0.356163 2.341805152028776e-38
1.710795 -0.353983 -0.371043 2.341805152028776e-38
1.652550 0.175357 -0.362948 2.341805152028776e-38
1.649491 0.166835 -0.362154 2.341805152028776e-38
1.648334 0.158534 -0.361784 2.341805152028776e-38
1.646163 0.150161 -0.361197 2.341805152028776e-38
1.643950 0.141812 -0.360608 2.341805152028776e-38
1.643643 0.133647 -0.360442 2.341805152028776e-38
1.645245 0.125637 -0.360701 2.341805152028776e-38
1.647783 0.117685 -0.361170 2.341805152028776e-38
1.650282 0.109710 -0.361637 2.341805152028776e-38
1.650794 0.101594 -0.361674 2.341805152028776e-38
1.647364 0.093254 -0.360854 2.341805152028776e-38
1.645845 0.085052 -0.360457 2.341805152028776e-38
1.645261 0.076912 -0.360272 2.341805152028776e-38
1.645614 0.068821 -0.360297 2.341805152028776e-38
1.647880 0.060800 -0.360747 2.341805152028776e-38
1.646202 0.052634 -0.360340 2.341805152028776e-38
1.644484 0.044486 -0.359929 2.341805152028776e-38
1.640773 0.036312 -0.359088 2.341805152028776e-38
1.640930 0.028244 -0.359100 2.341805152028776e-38
1.639093 0.020151 -0.358680 2.341805152028776e-38
1.641125 0.012105 -0.359114 2.341805152028776e-38
1.641164 0.004035 -0.359116 2.341805152028776e-38
1.640187 -0.004033 -0.358903 2.341805152028776e-38
1.637217 -0.012076 -0.358259 2.341805152028776e-38
1.637140 -0.020127 -0.358253 2.341805152028776e-38
1.636046 -0.028160 -0.358031 2.341805152028776e-38
1.635890 -0.036204 -0.358020 2.341805152028776e-38
1.635695 -0.044248 -0.358006 2.341805152028776e-38
1.634485 -0.052259 -0.357775 2.341805152028776e-38
1.633237 -0.060260 -0.357542 2.341805152028776e-38
1.631949 -0.068249 -0.357306 2.341805152028776e-38
1.632575 -0.076319 -0.357494 2.341805152028776e-38
1.634138 -0.084447 -0.357893 2.341805152028776e-38
1.633709 -0.092481 -0.357862 2.341805152028776e-38
1.632267 -0.100454 -0.357615 2.341805152028776e-38
1.631762 -0.108479 -0.357579 2.341805152028776e-38
1.631217 -0.116502 -0.357540 2.341805152028776e-38
1.629660 -0.124447 -0.357284 2.341805152028776e-38
1.628064 -0.132380 -0.357026 2.341805152028776e-38
1.629350 -0.140553 -0.357405 2.341805152028776e-38
1.628651 -0.148563 -0.357355 2.341805152028776e-38
1.629857 -0.156757 -0.357728 2.341805152028776e-38
1.631023 -0.164967 -0.358099 2.341805152028776e-38
1.628262 -0.172779 -0.357613 2.341805152028776e-38
1.630319 -0.181108 -0.358192 2.341805152028776e-38
1.628452 -0.189011 -0.357914 2.341805152028776e-38
1.628488 -0.197134 -0.358060 2.341805152028776e-38
1.628483 -0.205262 -0.358203 2.341805152028776e-38
1.629408 -0.213522 -0.358556 2.341805152028776e-38
1.629323 -0.221664 -0.358693 2.341805152028776e-38
1.629198 -0.229811 -0.358827 2.341805152028776e-38
1.625166 -0.237397 -0.358107 2.341805152028776e-38
1.622065 -0.245094 -0.357596 2.341805152028776e-38
1.617963 -0.252616 -0.356871 2.341805152028776e-38
1.618649 -0.260885 -0.357211 2.341805152028776e-38
1.620249 -0.269343 -0.357784 2.341805152028776e-38
1.620842 -0.277660 -0.358141 2.341805152028776e-38
1.617544 -0.285311 -0.357644 2.341805152028776e-38
1.616134 -0.293287 -0.357569 2.341805152028776e-38
1.615645 -0.301436 -0.357704 2.341805152028776e-38
1.617994 -0.310141 -0.358474 2.341805152028776e-38
1.620298 -0.318876 -0.359241 2.341805152028776e-38
1.637874 -0.330751 -0.363418 2.341805152028776e-38
1.687888 -0.349587 -0.374858 2.341805152028776e-38
1.650773 0.175295 -0.370973 2.341805152028776e-38
1.648689 0.166874 -0.370379 2.341805152028776e-38
1.645592 0.158385 -0.369565 2.341805152028776e-38
1.643423 0.150019 -0.368965 2.341805152028776e-38
1.640241 0.141594 -0.368145 2.341805152028776e-38
1.641879 0.133600 -0.368412 2.341805152028776e-38
1.643480 0.125593 -0.368676 2.341805152028776e-38
1.644068 0.117504 -0.368720 2.341805152028776e-38
1.647538 0.109607 -0.369415 2.341805152028776e-38
1.645127 0.101318 -0.368798 2.341805152028776e-38
1.646572 0.093277 -0.369051 2.341805152028776e-38
1.643106 0.084971 -0.368209 2.341805152028776e-38
1.643498 0.076885 -0.368238 2.341805152028776e-38
1.645801 0.068878 -0.368701 2.341805152028776e-38
1.647090 0.060815 -0.368942 2.341805152028776e-38
1.646389 0.052678 -0.368744 2.341805152028776e-38
1.644673 0.044523 -0.368325 2.341805152028776e-38
1.641943 0.036364 -0.367684 2.341805152028776e-38
1.640148 0.028251 -0.367258 2.341805152028776e-38
1.640265 0.020179 -0.367267 2.341805152028776e-38
1.639367 0.012101 -0.367054 2.341805152028776e-38
1.637455 0.004029 -0.366620 2.341805152028776e-38
1.635503 -0.004024 -0.366183 2.341805152028776e-38
1.635464 -0.012072 -0.366180 2.341805152028776e-38
1.634410 -0.020107 -0.365956 2.341805152028776e-38
1.633318 -0.028133 -0.365729 2.341805152028776e-38
1.635113 -0.036213 -0.366154 2.341805152028776e-38
1.633943 -0.044232 -0.365922 2.341805152028776e-38
1.632734 -0.052241 -0.365686 2.341805152028776e-38
1.630511 -0.060203 -0.365229 2.341805152028776e-38
1.633126 -0.068348 -0.365861 2.341805152028776e-38
1.632775 -0.076383 -0.365836 2.341805152028776e-38
1.631411 -0.084367 -0.365588 2.341805152028776e-38
1.629035 -0.092283 -0.365120 2.341805152028776e-38
1.628569 -0.100298 -0.365086 2.341805152028776e-38
1.629038 -0.108376 -0.365267 2.341805152028776e-38
1.628494 -0.116391 -0.365227 2.341805152028776e-38
1.625965 -0.124255 -0.364747 2.341805152028776e-38
1.626316 -0.132334 -0.364920 2.341805152028776e-38
1.628573 -0.140587 -0.365526 2.341805152028776e-38
1.629817 -0.148777 -0.365911 2.341805152028776e-38
1.630049 -0.156889 -0.366074 2.341805152028776e-38
1.629270 -0.164909 -0.366017 2.341805152028776e-38
1.628452 -0.172925 -0.365957 2.341805152028776e-38
1.628566 -0.181044 -0.366112 2.341805152028776e-38
1.626701 -0.188944 -0.365828 2.341805152028776e-38
1.627704 -0.197182 -0.366195 2.341805152028776e-38
1.626730 -0.205190 -0.366123 2.341805152028776e-38
1.626685 -0.213320 -0.366266 2.341805152028776e-38
1.627567 -0.221586 -0.366624 2.341805152028776e-38
1.629375 -0.230002 -0.367197 2.341805152028776e-38
1.625344 -0.237595 -0.366460 2.341805152028776e-38
1.622245 -0.245299 -0.365939 2.341805152028776e-38
1.620068 -0.253141 -0.365648 2.341805152028776e-38
1.618815 -0.261130 -0.365582 2.341805152028776e-38
1.618485 -0.269275 -0.365731 2.341805152028776e-38
1.616190 -0.277094 -0.365442 2.341805152028776e-38
1.612897 -0.284728 -0.364933 2.341805152028776e-38
1.614371 -0.293210 -0.365508 2.341805152028776e-38
1.614841 -0.301535 -0.365862 2.341805152028776e-38
1.619103 -0.310608 -0.367083 2.341805152028776e-38
1.619476 -0.318997 -0.367452 2.341805152028776e-38
1.634143 -0.330330 -0.371111 2.341805152028776e-38
1.651866 0.175541 -0.379658 2.341805152028776e-38
1.646877 0.166814 -0.378383 2.341805152028776e-38
1.645724 0.158515 -0.377997 2.341805152028776e-38
1.642589 0.150053 -0.377161 2.341805152028776e-38
1.640382 0.141711 -0.376546 2.341805152028776e-38
1.640077 0.133552 -0.376373 2.341805152028776e-38
1.642648 0.125622 -0.376866 2.341805152028776e-38
1.643236 0.117531 -0.376911 2.341805152028776e-38
1.645731 0.109567 -0.377398 2.341805152028776e-38
1.646242 0.101461 -0.377437 2.341805152028776e-38
1.645740 0.093298 -0.377249 2.341805152028776e-38
1.643251 0.085041 -0.376612 2.341805152028776e-38
1.645591 0.077039 -0.377088 2.341805152028776e-38
1.645944 0.068935 -0.377115 2.341805152028776e-38
1.645284 0.060793 -0.376915 2.341805152028776e-38
1.643610 0.052628 -0.376489 2.341805152028776e-38
1.640922 0.044454 -0.375838 2.341805152028776e-38
1.641118 0.036373 -0.375852 2.341805152028776e-38
1.641274 0.028291 -0.375864 2.341805152028776e-38
1.639442 0.020184 -0.375427 2.341805152028776e-38
1.640495 0.012118 -0.375656 2.341805152028776e-38
1.637610 0.004032 -0.374989 2.341805152028776e-38
1.637610 -0.004032 -0.374989 2.341805152028776e-38
1.638546 -0.012104 -0.375209 2.341805152028776e-38
1.635544 -0.020136 -0.374534 2.341805152028776e-38
1.637376 -0.028224 -0.374971 2.341805152028776e-38
1.637220 -0.036286 -0.374960 2.341805152028776e-38
1.635076 -0.044296 -0.374499 2.341805152028776e-38
1.632893 -0.052284 -0.374035 2.341805152028776e-38
1.633595 -0.060361 -0.374237 2.341805152028776e-38
1.634257 -0.068445 -0.374437 2.341805152028776e-38
1.633906 -0.076492 -0.374410 2.341805152028776e-38
1.630596 -0.084387 -0.373712 2.341805152028776e-38
1.627248 -0.092250 -0.373010 2.341805152028776e-38
1.627755 -0.100322 -0.373198 2.341805152028776e-38
1.628223 -0.108402 -0.373383 2.341805152028776e-38
1.625734 -0.116279 -0.372896 2.341805152028776e-38
1.624180 -0.124210 -0.372629 2.341805152028776e-38
1.624531 -0.132286 -0.372806 2.341805152028776e-38
1.626785 -0.140536 -0.373425 2.341805152028776e-38
1.627056 -0.148635 -0.373595 2.341805152028776e-38
1.628258 -0.156832 -0.373985 2.341805152028776e-38
1.628449 -0.164947 -0.374149 2.341805152028776e-38
1.628600 -0.173068 -0.374310 2.341805152028776e-38
1.627743 -0.181087 -0.374246 2.341805152028776e-38
1.624910 -0.188876 -0.373733 2.341805152028776e-38
1.625912 -0.197111 -0.374108 2.341805152028776e-38
1.624939 -0.205116 -0.374034 2.341805152028776e-38
1.624893 -0.213243 -0.374181 2.341805152028776e-38
1.625773 -0.221506 -0.374547 2.341805152028776e-38
1.625647 -0.229647 -0.374687 2.341805152028776e-38
1.625480 -0.237794 -0.374827 2.341805152028776e-38
1.622373 -0.245522 -0.374320 2.341805152028776e-38
1.619229 -0.253226 -0.373810 2.341805152028776e-38
1.616050 -0.260906 -0.373297 2.341805152028776e-38
1.614759 -0.268883 -0.373226 2.341805152028776e-38
1.612467 -0.276690 -0.372929 2.341805152028776e-38
1.611099 -0.284651 -0.372852 2.341805152028776e-38
