VERSION .7
FIELDS x y z rgb
SIZE 4 4 4 4
TYPE F F F F
COUNT 1 1 1 1
WIDTH 976
HEIGHT 1
VIEWPOINT 0 0 0 1 0 0 0
POINTS 976
DATA ascii
1.617766 0.273552 0.154616 2.341805152028776e-38
1.620054 0.265855 0.154751 2.341805152028776e-38
1.626238 0.258768 0.155261 2.341805152028776e-38
1.625503 0.250565 0.155112 2.341805152028776e-38
1.628667 0.242963 0.155337 2.341805152028776e-38
1.632780 0.235479 0.155656 2.341805152028776e-38
1.632915 0.227411 0.155597 2.341805152028776e-38
1.633010 0.219347 0.155537 2.341805152028776e-38
1.635040 0.211543 0.155664 2.341805152028776e-38
1.638020 0.203848 0.155884 2.341805152028776e-38
1.633057 0.195183 0.155350 2.341805152028776e-38
1.557373 0.689841 0.151030 2.341805152028776e-38
1.529966 0.668038 0.148008 2.341805152028776e-38
1.532545 0.659586 0.147907 2.341805152028776e-38
1.535053 0.651182 0.147814 2.341805152028776e-38
1.539354 0.643538 0.147894 2.341805152028776e-38
1.539932 0.634351 0.147616 2.341805152028776e-38
1.541380 0.625552 0.147423 2.341805152028776e-38
1.544613 0.617528 0.147410 2.341805152028776e-38
1.548703 0.609923 0.147498 2.341805152028776e-38
1.551826 0.601932 0.147493 2.341805152028776e-38
1.552117 0.592860 0.147220 2.341805152028776e-38
1.552356 0.583802 0.146943 2.341805152028776e-38
1.555337 0.575814 0.146932 2.341805152028776e-38
1.555438 0.566873 0.146673 2.341805152028776e-38
1.559238 0.559291 0.146764 2.341805152028776e-38
1.563001 0.551686 0.146852 2.341805152028776e-38
1.568609 0.544713 0.147112 2.341805152028776e-38
1.570416 0.536410 0.147016 2.341805152028776e-38
1.569310 0.527253 0.146680 2.341805152028776e-38
1.568151 0.518122 0.146340 2.341805152028776e-38
1.571677 0.510556 0.146438 2.341805152028776e-38
1.575167 0.502967 0.146534 2.341805152028776e-38
1.577670 0.495060 0.146538 2.341805152028776e-38
1.579154 0.486929 0.146475 2.341805152028776e-38
1.579636 0.478527 0.146326 2.341805152028776e-38
1.582938 0.470985 0.146441 2.341805152028776e-38
1.584292 0.462864 0.146376 2.341805152028776e-38
1.583689 0.454192 0.146132 2.341805152028776e-38
1.584939 0.446137 0.146080 2.341805152028776e-38
1.587095 0.438387 0.146129 2.341805152028776e-38
1.588253 0.430367 0.146088 2.341805152028776e-38
1.589369 0.422346 0.146045 2.341805152028776e-38
1.591410 0.414577 0.146089 2.341805152028776e-38
1.593408 0.406812 0.146136 2.341805152028776e-38
1.593426 0.398589 0.146018 2.341805152028776e-38
1.595337 0.390849 0.146075 2.341805152028776e-38
1.597210 0.383101 0.146131 2.341805152028776e-38
1.598076 0.375115 0.146098 2.341805152028776e-38
1.600844 0.367576 0.146240 2.341805152028776e-38
1.601633 0.359583 0.146204 2.341805152028776e-38
1.603355 0.351804 0.146256 2.341805152028776e-38
1.606013 0.344226 0.146395 2.341805152028776e-38
1.609610 0.336834 0.146622 2.341805152028776e-38
1.611222 0.329017 0.146670 2.341805152028776e-38
1.612796 0.321192 0.146717 2.341805152028776e-38
1.615310 0.313549 0.146852 2.341805152028776e-38
1.616809 0.305705 0.146897 2.341805152028776e-38
1.617290 0.297673 0.146852 2.341805152028776e-38
1.616751 0.289468 0.146716 2.341805152028776e-38
1.617152 0.281446 0.146669 2.341805152028776e-38
1.619478 0.273759 0.146798 2.341805152028776e-38
1.623732 0.266378 0.147104 2.341805152028776e-38
1.626970 0.258806 0.147320 2.341805152028776e-38
1.627220 0.250754 0.147268 2.341805152028776e-38
1.630385 0.243146 0.147482 2.341805152028776e-38
1.633514 0.235514 0.147695 2.341805152028776e-38
1.634635 0.227582 0.147729 2.341805152028776e-38
1.634730 0.219512 0.147672 2.341805152028776e-38
1.635774 0.211575 0.147703 2.341805152028776e-38
1.636779 0.203632 0.147733 2.341805152028776e-38
1.635767 0.195448 0.147584 2.341805152028776e-38
1.550861 0.686596 0.142195 2.341805152028776e-38
1.530728 0.668016 0.140003 2.341805152028776e-38
1.534212 0.659977 0.139995 2.341805152028776e-38
1.535805 0.651175 0.139823 2.341805152028776e-38
1.538267 0.642759 0.139730 2.341805152028776e-38
1.541604 0.634716 0.139717 2.341805152028776e-38
1.542129 0.625533 0.139450 2.341805152028776e-38
1.544427 0.617159 0.139359 2.341805152028776e-38
1.548515 0.609555 0.139441 2.341805152028776e-38
1.553495 0.602286 0.139603 2.341805152028776e-38
1.555648 0.593916 0.139510 2.341805152028776e-38
1.554958 0.584489 0.139164 2.341805152028776e-38
1.557933 0.576513 0.139158 2.341805152028776e-38
1.559909 0.568241 0.139080 2.341805152028776e-38
1.561840 0.559964 0.138998 2.341805152028776e-38
1.565607 0.552347 0.139080 2.341805152028776e-38
1.570279 0.545033 0.139242 2.341805152028776e-38
1.570190 0.536105 0.138990 2.341805152028776e-38
1.570970 0.527585 0.138838 2.341805152028776e-38
1.573596 0.519696 0.138850 2.341805152028776e-38
1.577131 0.512102 0.138943 2.341805152028776e-38
1.579680 0.504184 0.138948 2.341805152028776e-38
1.581234 0.495966 0.138871 2.341805152028776e-38
1.580811 0.487251 0.138649 2.341805152028776e-38
1.582247 0.479131 0.138592 2.341805152028776e-38
1.583642 0.471009 0.138532 2.341805152028776e-38
1.585953 0.463164 0.138553 2.341805152028776e-38
1.585350 0.454486 0.138322 2.341805152028776e-38
1.586591 0.446455 0.138282 2.341805152028776e-38
1.587789 0.438434 0.138245 2.341805152028776e-38
1.587984 0.430152 0.138122 2.341805152028776e-38
1.592952 0.423157 0.138416 2.341805152028776e-38
1.594032 0.415121 0.138374 2.341805152028776e-38
1.596027 0.407362 0.138424 2.341805152028776e-38
1.598948 0.399854 0.138563 2.341805152028776e-38
1.597961 0.391379 0.138366 2.341805152028776e-38
1.600806 0.383852 0.138503 2.341805152028776e-38
1.602645 0.376079 0.138555 2.341805152028776e-38
1.605418 0.368520 0.138690 2.341805152028776e-38
1.606211 0.360507 0.138656 2.341805152028776e-38
1.607937 0.352708 0.138705 2.341805152028776e-38
1.609626 0.344901 0.138753 2.341805152028776e-38
1.612252 0.337290 0.138884 2.341805152028776e-38
1.612889 0.329263 0.138846 2.341805152028776e-38
1.614464 0.321432 0.138890 2.341805152028776e-38
1.615023 0.313404 0.138850 2.341805152028776e-38
1.617501 0.305748 0.138976 2.341805152028776e-38
1.619942 0.298075 0.139102 2.341805152028776e-38
1.619404 0.289860 0.138974 2.341805152028776e-38
1.621770 0.282169 0.139097 2.341805152028776e-38
1.623117 0.274295 0.139135 2.341805152028776e-38
1.624425 0.266416 0.139172 2.341805152028776e-38
1.628648 0.258999 0.139461 2.341805152028776e-38
1.627913 0.250789 0.139327 2.341805152028776e-38
1.631079 0.243181 0.139530 2.341805152028776e-38
1.634210 0.235547 0.139731 2.341805152028776e-38
1.635331 0.227614 0.139763 2.341805152028776e-38
1.633451 0.219278 0.139541 2.341805152028776e-38
1.638446 0.211860 0.139908 2.341805152028776e-38
1.639452 0.203907 0.139936 2.341805152028776e-38
1.636463 0.195476 0.139626 2.341805152028776e-38
1.542476 0.682545 0.133278 2.341805152028776e-38
1.530535 0.667597 0.131920 2.341805152028776e-38
1.534923 0.659973 0.131995 2.341805152028776e-38
1.537433 0.651556 0.131910 2.341805152028776e-38
1.541736 0.643901 0.131980 2.341805152028776e-38
1.543235 0.635081 0.131809 2.341805152028776e-38
1.541913 0.625139 0.131399 2.341805152028776e-38
1.544199 0.616790 0.131316 2.341805152028776e-38
1.551069 0.610281 0.131629 2.341805152028776e-38
1.552335 0.601558 0.131466 2.341805152028776e-38
1.554484 0.593194 0.131379 2.341805152028776e-38
1.554722 0.584124 0.131130 2.341805152028776e-38
1.558621 0.576519 0.131208 2.341805152028776e-38
1.560596 0.568244 0.131133 2.341805152028776e-38
1.564404 0.560637 0.131213 2.341805152028776e-38
1.567234 0.552674 0.131210 2.341805152028776e-38
1.570025 0.544699 0.131205 2.341805152028776e-38
1.573698 0.537087 0.131288 2.341805152028776e-38
1.573537 0.528232 0.131065 2.341805152028776e-38
1.573326 0.519393 0.130839 2.341805152028776e-38
1.574015 0.510878 0.130690 2.341805152028776e-38
1.578457 0.503582 0.130852 2.341805152028776e-38
1.579999 0.495399 0.130785 2.341805152028776e-38
1.580524 0.486984 0.130654 2.341805152028776e-38
1.581005 0.478577 0.130521 2.341805152028776e-38
1.582397 0.470462 0.130464 2.341805152028776e-38
1.583747 0.462346 0.130405 2.341805152028776e-38
1.584092 0.453972 0.130270 2.341805152028776e-38
1.586287 0.446230 0.130315 2.341805152028776e-38
1.585561 0.437682 0.130122 2.341805152028776e-38
1.590563 0.430715 0.130400 2.341805152028776e-38
1.590717 0.422431 0.130282 2.341805152028776e-38
1.593722 0.414909 0.130400 2.341805152028776e-38
1.595713 0.407170 0.130453 2.341805152028776e-38
1.596698 0.399182 0.130426 2.341805152028776e-38
1.597643 0.391194 0.130398 2.341805152028776e-38
1.599518 0.383438 0.130448 2.341805152028776e-38
1.600385 0.375446 0.130418 2.341805152028776e-38
1.604127 0.368123 0.130624 2.341805152028776e-38
1.606863 0.360555 0.130751 2.341805152028776e-38
1.607616 0.352541 0.130718 2.341805152028776e-38
1.608329 0.344529 0.130683 2.341805152028776e-38
1.610953 0.336927 0.130807 2.341805152028776e-38
1.612566 0.329107 0.130850 2.341805152028776e-38
1.614140 0.321280 0.130892 2.341805152028776e-38
1.616655 0.313635 0.131012 2.341805152028776e-38
1.619134 0.305974 0.131132 2.341805152028776e-38
1.619615 0.297935 0.131091 2.341805152028776e-38
1.622020 0.290249 0.131209 2.341805152028776e-38
1.620460 0.281864 0.131007 2.341805152028776e-38
1.621805 0.274000 0.131043 2.341805152028776e-38
1.625080 0.266451 0.131237 2.341805152028776e-38
1.627335 0.258721 0.131350 2.341805152028776e-38
1.627583 0.250671 0.131304 2.341805152028776e-38
1.629764 0.242919 0.131415 2.341805152028776e-38
1.632894 0.235294 0.131605 2.341805152028776e-38
1.634014 0.227370 0.131635 2.341805152028776e-38
1.635095 0.219440 0.131664 2.341805152028776e-38
1.635150 0.211377 0.131612 2.341805152028776e-38
1.637143 0.203565 0.131718 2.341805152028776e-38
1.635140 0.195266 0.131505 2.341805152028776e-38
1.672709 0.191526 0.134476 2.341805152028776e-38
1.859904 0.203824 0.149471 2.341805152028776e-38
1.538600 0.680512 0.124828 2.341805152028776e-38
1.531208 0.667584 0.123923 2.341805152028776e-38
1.534676 0.659575 0.123920 2.341805152028776e-38
1.538101 0.651549 0.123914 2.341805152028776e-38
1.543325 0.644274 0.124053 2.341805152028776e-38
1.544825 0.635445 0.123892 2.341805152028776e-38
1.547200 0.626994 0.123801 2.341805152028776e-38
1.549486 0.618638 0.123728 2.341805152028776e-38
1.550799 0.609912 0.123577 2.341805152028776e-38
1.553922 0.601911 0.123571 2.341805152028776e-38
1.556073 0.593539 0.123488 2.341805152028776e-38
1.557245 0.584811 0.123327 2.341805152028776e-38
1.561139 0.577216 0.123405 2.341805152028776e-38
1.562179 0.568587 0.123260 2.341805152028776e-38
1.565051 0.560636 0.123260 2.341805152028776e-38
1.565060 0.551676 0.123036 2.341805152028776e-38
1.569729 0.544365 0.123177 2.341805152028776e-38
1.572449 0.536457 0.123186 2.341805152028776e-38
1.573229 0.527926 0.123050 2.341805152028776e-38
1.573016 0.519089 0.122838 2.341805152028776e-38
1.575599 0.511192 0.122845 2.341805152028776e-38
1.578143 0.503282 0.122848 2.341805152028776e-38
1.579674 0.495127 0.122791 2.341805152028776e-38
1.579245 0.486422 0.122594 2.341805152028776e-38
1.580676 0.478311 0.122542 2.341805152028776e-38
1.583979 0.470766 0.122637 2.341805152028776e-38
1.584373 0.462363 0.122507 2.341805152028776e-38
1.585667 0.454291 0.122461 2.341805152028776e-38
1.586903 0.446273 0.122429 2.341805152028776e-38
1.588099 0.438253 0.122395 2.341805152028776e-38
1.592142 0.431015 0.122582 2.341805152028776e-38
1.592297 0.422724 0.122472 2.341805152028776e-38
1.594335 0.414959 0.122512 2.341805152028776e-38
1.596325 0.407221 0.122562 2.341805152028776e-38
1.598278 0.399474 0.122611 2.341805152028776e-38
1.596318 0.390769 0.122362 2.341805152028776e-38
1.600131 0.383486 0.122557 2.341805152028776e-38
1.601968 0.375721 0.122604 2.341805152028776e-38
1.604740 0.368169 0.122723 2.341805152028776e-38
1.607477 0.360600 0.122842 2.341805152028776e-38
1.606281 0.352159 0.122662 2.341805152028776e-38
1.606992 0.344155 0.122630 2.341805152028776e-38
1.610591 0.336765 0.122820 2.341805152028776e-38
1.613180 0.329148 0.122935 2.341805152028776e-38
1.617688 0.321904 0.123198 2.341805152028776e-38
1.618249 0.313864 0.123162 2.341805152028776e-38
1.618769 0.305827 0.123125 2.341805152028776e-38
1.619250 0.297792 0.123087 2.341805152028776e-38
1.620673 0.289935 0.123123 2.341805152028776e-38
1.621075 0.281900 0.123083 2.341805152028776e-38
1.622420 0.274034 0.123117 2.341805152028776e-38
1.623728 0.266162 0.123149 2.341805152028776e-38
1.628937 0.258910 0.123480 2.341805152028776e-38
1.628200 0.250702 0.123362 2.341805152028776e-38
1.631367 0.243096 0.123541 2.341805152028776e-38
1.633512 0.235324 0.123645 2.341805152028776e-38
1.636607 0.227673 0.123822 2.341805152028776e-38
1.635713 0.219467 0.123700 2.341805152028776e-38
1.637745 0.211659 0.123801 2.341805152028776e-38
1.639740 0.203836 0.123901 2.341805152028776e-38
1.636747 0.195408 0.123626 2.341805152028776e-38
1.676312 0.191891 0.126566 2.341805152028776e-38
1.843754 0.202004 0.139158 2.341805152028776e-38
1.917110 0.200636 0.144644 2.341805152028776e-38
1.536503 0.679285 0.116564 2.341805152028776e-38
1.531835 0.667583 0.115928 2.341805152028776e-38
1.536219 0.659965 0.115994 2.341805152028776e-38
1.540565 0.652319 0.116057 2.341805152028776e-38
1.544873 0.644647 0.116117 2.341805152028776e-38
1.546374 0.635810 0.115965 2.341805152028776e-38
1.546894 0.626619 0.115745 2.341805152028776e-38
1.546397 0.617157 0.115468 2.341805152028776e-38
1.549558 0.609178 0.115465 2.341805152028776e-38
1.554539 0.601903 0.115597 2.341805152028776e-38
1.557621 0.593883 0.115588 2.341805152028776e-38
1.559724 0.585506 0.115508 2.341805152028776e-38
1.563617 0.577912 0.115582 2.341805152028776e-38
1.561849 0.568247 0.115239 2.341805152028776e-38
1.561900 0.559289 0.115031 2.341805152028776e-38
1.563784 0.551008 0.114958 2.341805152028776e-38
1.566565 0.543050 0.114952 2.341805152028776e-38
1.572103 0.536147 0.115172 2.341805152028776e-38
1.574772 0.528253 0.115183 2.341805152028776e-38
1.576454 0.520034 0.115122 2.341805152028776e-38
1.577145 0.511504 0.114989 2.341805152028776e-38
1.580641 0.503890 0.115061 2.341805152028776e-38
1.582166 0.495748 0.115014 2.341805152028776e-38
1.581738 0.487031 0.114829 2.341805152028776e-38
1.582218 0.478620 0.114711 2.341805152028776e-38
1.583609 0.470500 0.114660 2.341805152028776e-38
1.584002 0.462100 0.114538 2.341805152028776e-38
1.584327 0.453783 0.114432 2.341805152028776e-38
1.585560 0.445772 0.114402 2.341805152028776e-38
1.589638 0.438557 0.114578 2.341805152028776e-38
1.589831 0.430270 0.114476 2.341805152028776e-38
1.591910 0.422504 0.114510 2.341805152028776e-38
1.593943 0.414757 0.114552 2.341805152028776e-38
1.596899 0.407269 0.114668 2.341805152028776e-38
1.597884 0.399279 0.114644 2.341805152028776e-38
1.599798 0.391526 0.114689 2.341805152028776e-38
1.600705 0.383531 0.114664 2.341805152028776e-38
1.603514 0.375993 0.114777 2.341805152028776e-38
1.604343 0.367990 0.114749 2.341805152028776e-38
1.606105 0.360206 0.114791 2.341805152028776e-38
1.604907 0.351773 0.114623 2.341805152028776e-38
1.606591 0.343986 0.114662 2.341805152028776e-38
1.610190 0.336600 0.114840 2.341805152028776e-38
1.614733 0.329386 0.115087 2.341805152028776e-38
1.617287 0.321747 0.115194 2.341805152028776e-38
1.617846 0.313711 0.115160 2.341805152028776e-38
1.618366 0.305678 0.115125 2.341805152028776e-38
1.618846 0.297646 0.115090 2.341805152028776e-38
1.621249 0.289969 0.115193 2.341805152028776e-38
1.620669 0.281762 0.115086 2.341805152028776e-38
1.622013 0.273900 0.115117 2.341805152028776e-38
1.623320 0.266032 0.115148 2.341805152028776e-38
1.625574 0.258314 0.115248 2.341805152028776e-38
1.627792 0.250580 0.115346 2.341805152028776e-38
1.630959 0.242978 0.115514 2.341805152028776e-38
1.635078 0.235493 0.115751 2.341805152028776e-38
1.636199 0.227562 0.115777 2.341805152028776e-38
1.637281 0.219626 0.115803 2.341805152028776e-38
1.639315 0.211812 0.115897 2.341805152028776e-38
1.641311 0.203983 0.115991 2.341805152028776e-38
1.638317 0.195549 0.115733 2.341805152028776e-38
1.687807 0.193161 0.119184 2.341805152028776e-38
1.886054 0.206589 0.133135 2.341805152028776e-38
1.536186 0.678866 0.108458 2.341805152028776e-38
1.534250 0.668379 0.108061 2.341805152028776e-38
1.538638 0.660747 0.108122 2.341805152028776e-38
1.541150 0.652311 0.108052 2.341805152028776e-38
1.543616 0.643867 0.107978 2.341805152028776e-38
1.547882 0.636175 0.108030 2.341805152028776e-38
1.547470 0.626620 0.107763 2.341805152028776e-38
1.547899 0.617525 0.107569 2.341805152028776e-38
1.551062 0.609538 0.107566 2.341805152028776e-38
1.556045 0.602256 0.107688 2.341805152028776e-38
1.560061 0.594583 0.107743 2.341805152028776e-38
1.561226 0.585863 0.107608 2.341805152028776e-38
1.563249 0.577570 0.107547 2.341805152028776e-38
1.564290 0.568930 0.107420 2.341805152028776e-38
1.565284 0.560295 0.107291 2.341805152028776e-38
1.567172 0.551997 0.107223 2.341805152028776e-38
1.574666 0.545676 0.107542 2.341805152028776e-38
1.580217 0.538735 0.107747 2.341805152028776e-38
1.576276 0.528580 0.107306 2.341805152028776e-38
1.576064 0.519728 0.107120 2.341805152028776e-38
1.578651 0.511816 0.107124 2.341805152028776e-38
1.580244 0.503597 0.107064 2.341805152028776e-38
1.581763 0.495472 0.107022 2.341805152028776e-38
1.581333 0.486758 0.106849 2.341805152028776e-38
1.583721 0.478927 0.106868 2.341805152028776e-38
1.587027 0.471369 0.106949 2.341805152028776e-38
1.583590 0.461835 0.106577 2.341805152028776e-38
1.586784 0.454370 0.106678 2.341805152028776e-38
1.594745 0.448239 0.107101 2.341805152028776e-38
1.594987 0.439919 0.107007 2.341805152028776e-38
1.592297 0.430826 0.106718 2.341805152028776e-38
1.595343 0.423305 0.106815 2.341805152028776e-38
1.597376 0.415556 0.106857 2.341805152028776e-38
1.596468 0.407067 0.106707 2.341805152028776e-38
1.598420 0.399323 0.106750 2.341805152028776e-38
1.599365 0.391332 0.106727 2.341805152028776e-38
1.602211 0.383806 0.106833 2.341805152028776e-38
1.603079 0.375806 0.106808 2.341805152028776e-38
1.604879 0.368030 0.106847 2.341805152028776e-38
1.608590 0.360682 0.107016 2.341805152028776e-38
1.614216 0.353734 0.107313 2.341805152028776e-38
1.618837 0.346531 0.107544 2.341805152028776e-38
1.617565 0.338066 0.107386 2.341805152028776e-38
1.617227 0.329821 0.107291 2.341805152028776e-38
1.618804 0.321977 0.107326 2.341805152028776e-38
1.619365 0.313936 0.107295 2.341805152028776e-38
1.619885 0.305896 0.107262 2.341805152028776e-38
1.620365 0.297859 0.107229 2.341805152028776e-38
1.620806 0.289825 0.107195 2.341805152028776e-38
1.620223 0.281622 0.107096 2.341805152028776e-38
1.622552 0.273930 0.107190 2.341805152028776e-38
1.625828 0.266384 0.107349 2.341805152028776e-38
1.628084 0.258655 0.107441 2.341805152028776e-38
1.630303 0.250911 0.107533 2.341805152028776e-38
1.632486 0.243152 0.107625 2.341805152028776e-38
1.635619 0.235519 0.107780 2.341805152028776e-38
1.637729 0.227724 0.107869 2.341805152028776e-38
1.638812 0.219782 0.107893 2.341805152028776e-38
1.640846 0.211963 0.107981 2.341805152028776e-38
1.640863 0.203883 0.107938 2.341805152028776e-38
1.640840 0.195807 0.107894 2.341805152028776e-38
1.527608 0.674817 0.099825 2.341805152028776e-38
1.532048 0.667181 0.099877 2.341805152028776e-38
1.539182 0.660743 0.100113 2.341805152028776e-38
1.543532 0.653081 0.100166 2.341805152028776e-38
1.547845 0.645393 0.100216 2.341805152028776e-38
1.548426 0.636161 0.100025 2.341805152028776e-38
1.551706 0.628119 0.100019 2.341805152028776e-38
1.548433 0.617523 0.099601 2.341805152028776e-38
1.551596 0.609533 0.099597 2.341805152028776e-38
1.557510 0.602608 0.099770 2.341805152028776e-38
1.558730 0.593862 0.099641 2.341805152028776e-38
1.559883 0.585167 0.099518 2.341805152028776e-38
1.561903 0.576881 0.099462 2.341805152028776e-38
1.563878 0.568589 0.099404 2.341805152028776e-38
1.562990 0.559284 0.099164 2.341805152028776e-38
1.572405 0.553650 0.099577 2.341805152028776e-38
1.578958 0.546995 0.099817 2.341805152028776e-38
1.579792 0.538423 0.099708 2.341805152028776e-38
1.576794 0.528587 0.099359 2.341805152028776e-38
1.574685 0.519109 0.099067 2.341805152028776e-38
1.579168 0.511819 0.099190 2.341805152028776e-38
1.581705 0.503923 0.099197 2.341805152028776e-38
1.582273 0.495493 0.099099 2.341805152028776e-38
1.582796 0.487071 0.098998 2.341805152028776e-38
1.587096 0.479811 0.099135 2.341805152028776e-38
1.585622 0.470816 0.098911 2.341805152028776e-38
1.585050 0.462147 0.098749 2.341805152028776e-38
1.592083 0.455779 0.099082 2.341805152028776e-38
1.598131 0.449084 0.099355 2.341805152028776e-38
1.596452 0.440218 0.099148 2.341805152028776e-38
1.596652 0.431900 0.099060 2.341805152028776e-38
1.596809 0.423594 0.098971 2.341805152028776e-38
1.597874 0.415598 0.098952 2.341805152028776e-38
1.597933 0.407355 0.098873 2.341805152028776e-38
1.599886 0.399605 0.098912 2.341805152028776e-38
1.598893 0.391135 0.098771 2.341805152028776e-38
1.601738 0.383613 0.098869 2.341805152028776e-38
1.603577 0.375845 0.098906 2.341805152028776e-38
1.605377 0.368068 0.098943 2.341805152028776e-38
1.612010 0.361374 0.099279 2.341805152028776e-38
1.621542 0.355265 0.099794 2.341805152028776e-38
1.620314 0.346775 0.099648 2.341805152028776e-38
1.618065 0.338101 0.099441 2.341805152028776e-38
1.614793 0.329257 0.099174 2.341805152028776e-38
1.617347 0.321621 0.099266 2.341805152028776e-38
1.619865 0.313968 0.099357 2.341805152028776e-38
1.621366 0.306113 0.099387 2.341805152028776e-38
1.618901 0.297529 0.099176 2.341805152028776e-38
1.619340 0.289503 0.099145 2.341805152028776e-38
1.620723 0.281651 0.099173 2.341805152028776e-38
1.627973 0.274789 0.099561 2.341805152028776e-38
1.629284 0.266895 0.099588 2.341805152028776e-38
1.629571 0.258838 0.099553 2.341805152028776e-38
1.628832 0.250633 0.099458 2.341805152028776e-38
1.631013 0.242882 0.099542 2.341805152028776e-38
1.636122 0.235543 0.099806 2.341805152028776e-38
1.638231 0.227748 0.099889 2.341805152028776e-38
1.637336 0.219539 0.099791 2.341805152028776e-38
1.639370 0.211729 0.099872 2.341805152028776e-38
1.641366 0.203903 0.099953 2.341805152028776e-38
1.643325 0.196064 0.100033 2.341805152028776e-38
1.529029 0.675206 0.091892 2.341805152028776e-38
1.531633 0.666780 0.091832 2.341805152028776e-38
1.537849 0.659950 0.091993 2.341805152028776e-38
1.543115 0.652685 0.092097 2.341805152028776e-38
1.545583 0.644230 0.092033 2.341805152028776e-38
1.548004 0.635768 0.091967 2.341805152028776e-38
1.552201 0.628119 0.092017 2.341805152028776e-38
1.551708 0.618630 0.091797 2.341805152028776e-38
1.553018 0.609893 0.091683 2.341805152028776e-38
1.557073 0.602240 0.091732 2.341805152028776e-38
1.558290 0.593496 0.091613 2.341805152028776e-38
1.560369 0.585172 0.091557 2.341805152028776e-38
1.560515 0.576191 0.091396 2.341805152028776e-38
1.563425 0.568248 0.091397 2.341805152028776e-38
1.563474 0.559281 0.091230 2.341805152028776e-38
1.573833 0.553976 0.091665 2.341805152028776e-38
1.577552 0.546352 0.091723 2.341805152028776e-38
1.580272 0.538432 0.091733 2.341805152028776e-38
1.577272 0.528594 0.091411 2.341805152028776e-38
1.577059 0.519738 0.091252 2.341805152028776e-38
1.578696 0.511514 0.091200 2.341805152028776e-38
1.582176 0.503943 0.091265 2.341805152028776e-38
1.583696 0.495810 0.091229 2.341805152028776e-38
1.585175 0.487675 0.091191 2.341805152028776e-38
1.584700 0.478960 0.091042 2.341805152028776e-38
1.586092 0.470830 0.091001 2.341805152028776e-38
1.587430 0.462739 0.090966 2.341805152028776e-38
1.591587 0.455537 0.091107 2.341805152028776e-38
1.594751 0.448035 0.091193 2.341805152028776e-38
1.594991 0.439717 0.091113 2.341805152028776e-38
1.595188 0.431408 0.091031 2.341805152028776e-38
1.596303 0.423378 0.091007 2.341805152028776e-38
1.596402 0.415135 0.090934 2.341805152028776e-38
1.597425 0.407147 0.090916 2.341805152028776e-38
1.598408 0.399159 0.090898 2.341805152028776e-38
1.599352 0.391171 0.090878 2.341805152028776e-38
1.603169 0.383881 0.091023 2.341805152028776e-38
1.605981 0.376335 0.091113 2.341805152028776e-38
1.608757 0.368771 0.091202 2.341805152028776e-38
1.616369 0.362281 0.091566 2.341805152028776e-38
1.620055 0.354871 0.091708 2.341805152028776e-38
1.617848 0.346181 0.091519 2.341805152028776e-38
1.615595 0.337520 0.091329 2.341805152028776e-38
1.618189 0.329886 0.091414 2.341805152028776e-38
1.620746 0.322235 0.091499 2.341805152028776e-38
1.623267 0.314567 0.091583 2.341805152028776e-38
1.621827 0.306141 0.091445 2.341805152028776e-38
1.620344 0.297737 0.091306 2.341805152028776e-38
1.622750 0.290057 0.091388 2.341805152028776e-38
1.625118 0.282361 0.091469 2.341805152028776e-38
1.627451 0.274648 0.091549 2.341805152028776e-38
1.625805 0.266274 0.091408 2.341805152028776e-38
1.626089 0.258236 0.091376 2.341805152028776e-38
1.629294 0.250657 0.091510 2.341805152028776e-38
1.632463 0.243052 0.091643 2.341805152028776e-38
1.638562 0.235850 0.091941 2.341805152028776e-38
1.639685 0.227906 0.091962 2.341805152028776e-38
1.637800 0.219560 0.091816 2.341805152028776e-38
1.638844 0.211621 0.091835 2.341805152028776e-38
1.640840 0.203799 0.091910 2.341805152028776e-38
1.641807 0.195846 0.091928 2.341805152028776e-38
1.528580 0.674789 0.083850 2.341805152028776e-38
1.532092 0.666778 0.083846 2.341805152028776e-38
1.536473 0.659158 0.083893 2.341805152028776e-38
1.540816 0.651511 0.083937 2.341805152028776e-38
1.545121 0.643836 0.083979 2.341805152028776e-38
1.549388 0.636135 0.084018 2.341805152028776e-38
1.550803 0.627370 0.083916 2.341805152028776e-38
1.552161 0.618628 0.083814 2.341805152028776e-38
1.556259 0.610983 0.083860 2.341805152028776e-38
1.559388 0.602953 0.083854 2.341805152028776e-38
1.559676 0.593842 0.083696 2.341805152028776e-38
1.560815 0.585175 0.083596 2.341805152028776e-38
1.562833 0.576884 0.083549 2.341805152028776e-38
1.563869 0.568247 0.083449 2.341805152028776e-38
1.567679 0.560624 0.083497 2.341805152028776e-38
1.572394 0.553308 0.083593 2.341805152028776e-38
1.576104 0.545709 0.083649 2.341805152028776e-38
1.575985 0.536829 0.083507 2.341805152028776e-38
1.575817 0.527966 0.083363 2.341805152028776e-38
1.576548 0.519430 0.083267 2.341805152028776e-38
1.579133 0.511516 0.083270 2.341805152028776e-38
1.581656 0.503658 0.083282 2.341805152028776e-38
1.583175 0.495529 0.083249 2.341805152028776e-38
1.581787 0.486516 0.083064 2.341805152028776e-38
1.585130 0.478974 0.083128 2.341805152028776e-38
1.586522 0.470842 0.083090 2.341805152028776e-38
1.587854 0.462770 0.083061 2.341805152028776e-38
1.589131 0.454742 0.083040 2.341805152028776e-38
1.592291 0.447254 0.083118 2.341805152028776e-38
1.594453 0.439480 0.083145 2.341805152028776e-38
1.595613 0.431434 0.083120 2.341805152028776e-38
1.598656 0.423927 0.083201 2.341805152028776e-38
1.598756 0.415673 0.083135 2.341805152028776e-38
1.599782 0.407676 0.083118 2.341805152028776e-38
1.600767 0.399678 0.083101 2.341805152028776e-38
1.603654 0.392154 0.083184 2.341805152028776e-38
1.605533 0.384379 0.083216 2.341805152028776e-38
1.608347 0.376824 0.083298 2.341805152028776e-38
1.610153 0.369026 0.083329 2.341805152028776e-38
1.614844 0.361876 0.083510 2.341805152028776e-38
1.614626 0.353620 0.083438 2.341805152028776e-38
1.615342 0.345584 0.083417 2.341805152028776e-38
1.616018 0.337549 0.083394 2.341805152028776e-38
1.619591 0.330114 0.083523 2.341805152028776e-38
1.622149 0.322458 0.083600 2.341805152028776e-38
1.620750 0.314024 0.083475 2.341805152028776e-38
1.621269 0.305983 0.083450 2.341805152028776e-38
1.622732 0.298124 0.083475 2.341805152028776e-38
1.622190 0.289906 0.083398 2.341805152028776e-38
1.624558 0.282214 0.083472 2.341805152028776e-38
1.623935 0.274007 0.083394 2.341805152028776e-38
1.624257 0.265974 0.083365 2.341805152028776e-38
1.627499 0.258415 0.083488 2.341805152028776e-38
1.631692 0.250982 0.083661 2.341805152028776e-38
1.636839 0.243661 0.083883 2.341805152028776e-38
1.640965 0.236155 0.084055 2.341805152028776e-38
1.640110 0.227926 0.083973 2.341805152028776e-38
1.638225 0.219579 0.083839 2.341805152028776e-38
1.640259 0.211767 0.083908 2.341805152028776e-38
1.644238 0.204186 0.084077 2.341805152028776e-38
1.645208 0.196217 0.084093 2.341805152028776e-38
1.529003 0.674777 0.075862 2.341805152028776e-38
1.532509 0.666775 0.075861 2.341805152028776e-38
1.537808 0.659547 0.075948 2.341805152028776e-38
1.543074 0.652282 0.076033 2.341805152028776e-38
1.546461 0.644211 0.076025 2.341805152028776e-38
1.550730 0.636503 0.076060 2.341805152028776e-38
1.553067 0.628119 0.076014 2.341805152028776e-38
1.553501 0.618995 0.075877 2.341805152028776e-38
1.556671 0.610979 0.075873 2.341805152028776e-38
1.557005 0.601866 0.075731 2.341805152028776e-38
1.557286 0.592766 0.075588 2.341805152028776e-38
1.562155 0.585529 0.075681 2.341805152028776e-38
1.563238 0.576885 0.075592 2.341805152028776e-38
1.567090 0.569270 0.075637 2.341805152028776e-38
1.570906 0.561630 0.075681 2.341805152028776e-38
1.572799 0.553303 0.075631 2.341805152028776e-38
1.575560 0.545391 0.075638 2.341805152028776e-38
1.577330 0.537158 0.075600 2.341805152028776e-38
1.579057 0.528923 0.075560 2.341805152028776e-38
1.576946 0.519433 0.075338 2.341805152028776e-38
1.580481 0.511825 0.075385 2.341805152028776e-38
1.582048 0.503675 0.075353 2.341805152028776e-38
1.581660 0.494947 0.075232 2.341805152028776e-38
1.584088 0.487117 0.075246 2.341805152028776e-38
1.587434 0.479564 0.075303 2.341805152028776e-38
1.588829 0.471421 0.075269 2.341805152028776e-38
1.591117 0.463636 0.075291 2.341805152028776e-38
1.589517 0.454769 0.075136 2.341805152028776e-38
1.592677 0.447280 0.075206 2.341805152028776e-38
1.595802 0.439770 0.075276 2.341805152028776e-38
1.598892 0.432241 0.075345 2.341805152028776e-38
1.600005 0.424216 0.075328 2.341805152028776e-38
1.600106 0.415957 0.075268 2.341805152028776e-38
1.602101 0.408201 0.075299 2.341805152028776e-38
1.603089 0.400193 0.075284 2.341805152028776e-38
1.605978 0.392659 0.075359 2.341805152028776e-38
1.606888 0.384642 0.075342 2.341805152028776e-38
1.607759 0.376625 0.075325 2.341805152028776e-38
1.610537 0.369055 0.075398 2.341805152028776e-38
1.611330 0.361030 0.075380 2.341805152028776e-38
1.613059 0.353220 0.075407 2.341805152028776e-38
1.615726 0.345611 0.075478 2.341805152028776e-38
1.615425 0.337371 0.075412 2.341805152028776e-38
1.618997 0.329940 0.075529 2.341805152028776e-38
1.621555 0.322288 0.075598 2.341805152028776e-38
1.623096 0.314429 0.075622 2.341805152028776e-38
1.622636 0.306192 0.075554 2.341805152028776e-38
1.622134 0.297967 0.075485 2.341805152028776e-38
1.623557 0.290105 0.075507 2.341805152028776e-38
1.624943 0.282236 0.075528 2.341805152028776e-38
1.627275 0.274527 0.075594 2.341805152028776e-38
1.626613 0.266318 0.075523 2.341805152028776e-38
1.631830 0.259062 0.075726 2.341805152028776e-38
1.633065 0.251153 0.075745 2.341805152028776e-38
1.636238 0.243533 0.075855 2.341805152028776e-38
1.639375 0.235888 0.075964 2.341805152028776e-38
1.639508 0.227806 0.075935 2.341805152028776e-38
1.640592 0.219861 0.075952 2.341805152028776e-38
1.642628 0.212039 0.076014 2.341805152028776e-38
1.644626 0.204202 0.076075 2.341805152028776e-38
1.653531 0.197179 0.076457 2.341805152028776e-38
1.533951 0.676789 0.068079 2.341805152028776e-38
1.532885 0.666773 0.067875 2.341805152028776e-38
1.539103 0.659936 0.067993 2.341805152028776e-38
1.544371 0.652664 0.068069 2.341805152028776e-38
1.548682 0.644971 0.068103 2.341805152028776e-38
1.552029 0.636876 0.068094 2.341805152028776e-38
1.551586 0.627369 0.067932 2.341805152028776e-38
1.552943 0.618622 0.067849 2.341805152028776e-38
1.556111 0.610609 0.067845 2.341805152028776e-38
1.558306 0.602220 0.067800 2.341805152028776e-38
1.559522 0.593470 0.067711 2.341805152028776e-38
1.560648 0.584830 0.067633 2.341805152028776e-38
1.563602 0.576886 0.067635 2.341805152028776e-38
1.567455 0.569269 0.067675 2.341805152028776e-38
1.570329 0.561291 0.067673 2.341805152028776e-38
1.573163 0.553298 0.067670 2.341805152028776e-38
1.576864 0.545725 0.067718 2.341805152028776e-38
1.576743 0.536842 0.067602 2.341805152028776e-38
1.577521 0.528292 0.067526 2.341805152028776e-38
1.577304 0.519436 0.067408 2.341805152028776e-38
1.579889 0.511518 0.067409 2.341805152028776e-38
1.583354 0.503993 0.067464 2.341805152028776e-38
1.584873 0.495856 0.067436 2.341805152028776e-38
1.585396 0.487423 0.067367 2.341805152028776e-38
1.588744 0.479863 0.067419 2.341805152028776e-38
1.590140 0.471715 0.067388 2.341805152028776e-38
1.589546 0.463102 0.067288 2.341805152028776e-38
1.591785 0.455343 0.067312 2.341805152028776e-38
1.593025 0.447303 0.067293 2.341805152028776e-38
1.596150 0.439792 0.067356 2.341805152028776e-38
1.597311 0.431741 0.067336 2.341805152028776e-38
1.597453 0.423478 0.067282 2.341805152028776e-38
1.598517 0.415484 0.067269 2.341805152028776e-38
1.602446 0.408230 0.067378 2.341805152028776e-38
1.604404 0.400463 0.067405 2.341805152028776e-38
1.606323 0.392687 0.067431 2.341805152028776e-38
1.606262 0.384437 0.067375 2.341805152028776e-38
1.607131 0.376424 0.067360 2.341805152028776e-38
1.609909 0.368858 0.067426 2.341805152028776e-38
1.609726 0.360619 0.067368 2.341805152028776e-38
1.612428 0.353032 0.067433 2.341805152028776e-38
1.613142 0.345008 0.067415 2.341805152028776e-38
1.616749 0.337599 0.067520 2.341805152028776e-38
1.622280 0.330562 0.067705 2.341805152028776e-38
1.622882 0.322506 0.067686 2.341805152028776e-38
1.624424 0.314641 0.067708 2.341805152028776e-38
1.622001 0.306028 0.067565 2.341805152028776e-38
1.620515 0.297627 0.067462 2.341805152028776e-38
1.621937 0.289774 0.067482 2.341805152028776e-38
1.623320 0.281914 0.067501 2.341805152028776e-38
1.624666 0.274048 0.067519 2.341805152028776e-38
1.627946 0.266498 0.067619 2.341805152028776e-38
1.629217 0.258610 0.067636 2.341805152028776e-38
1.635387 0.251475 0.067858 2.341805152028776e-38
1.637574 0.243698 0.067916 2.341805152028776e-38
1.638734 0.235763 0.067932 2.341805152028776e-38
1.639856 0.227822 0.067947 2.341805152028776e-38
1.640940 0.219877 0.067962 2.341805152028776e-38
1.640994 0.211798 0.067935 2.341805152028776e-38
1.642992 0.203970 0.067990 2.341805152028776e-38
1.651897 0.196956 0.068332 2.341805152028776e-38
1.537029 0.677999 0.060177 2.341805152028776e-38
1.539634 0.669560 0.060140 2.341805152028776e-38
1.543111 0.661507 0.060137 2.341805152028776e-38
1.547467 0.653825 0.060168 2.341805152028776e-38
1.550862 0.645731 0.060161 2.341805152028776e-38
1.552359 0.636877 0.060083 2.341805152028776e-38
1.550989 0.626993 0.059904 2.341805152028776e-38
1.553272 0.618620 0.059866 2.341805152028776e-38
1.558301 0.611335 0.059935 2.341805152028776e-38
1.559568 0.602574 0.059858 2.341805152028776e-38
1.560780 0.593829 0.059781 2.341805152028776e-38
1.563780 0.585884 0.059784 2.341805152028776e-38
1.562988 0.576541 0.059642 2.341805152028776e-38
1.567779 0.569267 0.059713 2.341805152028776e-38
1.570653 0.561288 0.059711 2.341805152028776e-38
1.572541 0.552973 0.059673 2.341805152028776e-38
1.574350 0.544751 0.059644 2.341805152028776e-38
1.578008 0.537170 0.059686 2.341805152028776e-38
1.577840 0.528296 0.059582 2.341805152028776e-38
1.578571 0.519750 0.059513 2.341805152028776e-38
1.580205 0.511526 0.059480 2.341805152028776e-38
1.581763 0.503400 0.059457 2.341805152028776e-38
1.586141 0.496166 0.059540 2.341805152028776e-38
1.587620 0.488021 0.059515 2.341805152028776e-38
1.590014 0.480162 0.059524 2.341805152028776e-38
1.592369 0.472295 0.059533 2.341805152028776e-38
1.593693 0.464243 0.059518 2.341805152028776e-38
1.592094 0.455365 0.059395 2.341805152028776e-38
1.593333 0.447324 0.059379 2.341805152028776e-38
1.595496 0.439547 0.059398 2.341805152028776e-38
1.596655 0.431499 0.059381 2.341805152028776e-38
1.596793 0.423248 0.059334 2.341805152028776e-38
1.599791 0.415761 0.059394 2.341805152028776e-38
1.600816 0.407762 0.059383 2.341805152028776e-38
1.604711 0.400488 0.059478 2.341805152028776e-38
1.606631 0.392712 0.059502 2.341805152028776e-38
1.607541 0.384693 0.059489 2.341805152028776e-38
1.610358 0.377131 0.059547 2.341805152028776e-38
1.610216 0.368881 0.059497 2.341805152028776e-38
1.611008 0.360860 0.059482 2.341805152028776e-38
1.613712 0.353267 0.059539 2.341805152028776e-38
1.616380 0.345657 0.059596 2.341805152028776e-38
1.620970 0.338437 0.059724 2.341805152028776e-38
1.624547 0.330982 0.059816 2.341805152028776e-38
1.625150 0.322915 0.059799 2.341805152028776e-38
1.625713 0.314851 0.059782 2.341805152028776e-38
1.623290 0.306233 0.059656 2.341805152028776e-38
1.623771 0.298187 0.059637 2.341805152028776e-38
1.624212 0.290143 0.059619 2.341805152028776e-38
1.625597 0.282274 0.059635 2.341805152028776e-38
1.624974 0.274065 0.059579 2.341805152028776e-38
1.628254 0.266515 0.059668 2.341805152028776e-38
1.633473 0.259253 0.059828 2.341805152028776e-38
1.636684 0.251642 0.059915 2.341805152028776e-38
1.637883 0.243713 0.059929 2.341805152028776e-38
1.641022 0.236062 0.060016 2.341805152028776e-38
1.643136 0.228249 0.060066 2.341805152028776e-38
1.640259 0.219758 0.059934 2.341805152028776e-38
1.642295 0.211939 0.059983 2.341805152028776e-38
1.646277 0.204352 0.060104 2.341805152028776e-38
1.648239 0.196495 0.060152 2.341805152028776e-38
1.544638 0.681225 0.052402 2.341805152028776e-38
1.541760 0.670355 0.052183 2.341805152028776e-38
1.542486 0.661109 0.052087 2.341805152028776e-38
1.547760 0.653819 0.052145 2.341805152028776e-38
1.550233 0.645340 0.052108 2.341805152028776e-38
1.548949 0.635361 0.051948 2.341805152028776e-38
1.552204 0.627367 0.051948 2.341805152028776e-38
1.553560 0.618618 0.051884 2.341805152028776e-38
1.557659 0.610966 0.051912 2.341805152028776e-38
1.562653 0.603649 0.051970 2.341805152028776e-38
1.563866 0.594898 0.051904 2.341805152028776e-38
1.565935 0.586587 0.051875 2.341805152028776e-38
1.566085 0.577579 0.051783 2.341805152028776e-38
1.567123 0.568925 0.051720 2.341805152028776e-38
1.568113 0.560276 0.051657 2.341805152028776e-38
1.572820 0.552980 0.051718 2.341805152028776e-38
1.574629 0.544757 0.051692 2.341805152028776e-38
1.580180 0.537818 0.051790 2.341805152028776e-38
1.580014 0.528934 0.051700 2.341805152028776e-38
1.579799 0.520065 0.051609 2.341805152028776e-38
1.580479 0.511538 0.051550 2.341805152028776e-38
1.584895 0.504321 0.051623 2.341805152028776e-38
1.587370 0.496475 0.051633 2.341805152028776e-38
1.588850 0.488324 0.051611 2.341805152028776e-38
1.590289 0.480170 0.051589 2.341805152028776e-38
1.593598 0.472599 0.051628 2.341805152028776e-38
1.593004 0.463983 0.051554 2.341805152028776e-38
1.592365 0.455383 0.051478 2.341805152028776e-38
1.594566 0.447612 0.051495 2.341805152028776e-38
1.597693 0.440095 0.051543 2.341805152028776e-38
1.595959 0.431261 0.051435 2.341805152028776e-38
1.597062 0.423272 0.051426 2.341805152028776e-38
1.598124 0.415281 0.051416 2.341805152028776e-38
1.601085 0.407784 0.051468 2.341805152028776e-38
1.603040 0.400026 0.051489 2.341805152028776e-38
1.604958 0.392259 0.051509 2.341805152028776e-38
1.604894 0.384017 0.051466 2.341805152028776e-38
1.607707 0.376468 0.051517 2.341805152028776e-38
1.609511 0.368678 0.051536 2.341805152028776e-38
1.611277 0.360880 0.051554 2.341805152028776e-38
1.613005 0.353073 0.051572 2.341805152028776e-38
1.617627 0.345885 0.051684 2.341805152028776e-38
1.621239 0.338456 0.051764 2.341805152028776e-38
1.622859 0.330601 0.051781 2.341805152028776e-38
1.624440 0.322738 0.051797 2.341805152028776e-38
1.625984 0.314868 0.051814 2.341805152028776e-38
1.625524 0.306620 0.051767 2.341805152028776e-38
1.624040 0.298203 0.051689 2.341805152028776e-38
1.625465 0.290335 0.051704 2.341805152028776e-38
1.627836 0.282631 0.051749 2.341805152028776e-38
1.628200 0.274579 0.051732 2.341805152028776e-38
1.629510 0.266691 0.051746 2.341805152028776e-38
1.634730 0.259424 0.051885 2.341805152028776e-38
1.635967 0.251504 0.051898 2.341805152028776e-38
1.639143 0.243873 0.051973 2.341805152028776e-38
1.642283 0.236217 0.052048 2.341805152028776e-38
1.642417 0.228124 0.052028 2.341805152028776e-38
1.642511 0.220035 0.052008 2.341805152028776e-38
1.643557 0.212079 0.052019 2.341805152028776e-38
1.645557 0.204241 0.052061 2.341805152028776e-38
1.649503 0.196624 0.052166 2.341805152028776e-38
1.544891 0.681224 0.044340 2.341805152028776e-38
1.542012 0.670353 0.044155 2.341805152028776e-38
1.544575 0.661894 0.044126 2.341805152028776e-38
1.546170 0.653037 0.044070 2.341805152028776e-38
1.550484 0.645334 0.044091 2.341805152028776e-38
1.552896 0.636878 0.044061 2.341805152028776e-38
1.553378 0.627741 0.043982 2.341805152028776e-38
1.552878 0.618246 0.043876 2.341805152028776e-38
1.558837 0.611328 0.043952 2.341805152028776e-38
1.561035 0.602924 0.043922 2.341805152028776e-38
1.565979 0.595612 0.043971 2.341805152028776e-38
1.566179 0.586589 0.043894 2.341805152028776e-38
1.564452 0.576887 0.043764 2.341805152028776e-38
1.567365 0.568924 0.043763 2.341805152028776e-38
1.566473 0.559601 0.043657 2.341805152028776e-38
1.570230 0.551991 0.043683 2.341805152028776e-38
1.575813 0.545088 0.043766 2.341805152028776e-38
1.580420 0.537822 0.043823 2.341805152028776e-38
1.581202 0.529254 0.043773 2.341805152028776e-38
1.582887 0.521004 0.043748 2.341805152028776e-38
1.584519 0.512780 0.043725 2.341805152028776e-38
1.586083 0.504633 0.043708 2.341805152028776e-38
1.587605 0.496484 0.043691 2.341805152028776e-38
1.587175 0.487744 0.043619 2.341805152028776e-38
1.588611 0.479599 0.043600 2.341805152028776e-38
1.593830 0.472616 0.043687 2.341805152028776e-38
1.593236 0.463999 0.043624 2.341805152028776e-38
1.596441 0.456499 0.043665 2.341805152028776e-38
1.598648 0.448708 0.043680 2.341805152028776e-38
1.599853 0.440641 0.043667 2.341805152028776e-38
1.600049 0.432325 0.043629 2.341805152028776e-38
1.601156 0.424316 0.043621 2.341805152028776e-38
1.600289 0.415804 0.043560 2.341805152028776e-38
1.603252 0.408297 0.043605 2.341805152028776e-38
1.605210 0.400529 0.043622 2.341805152028776e-38
1.604217 0.392040 0.043560 2.341805152028776e-38
1.607068 0.384500 0.043603 2.341805152028776e-38
1.608910 0.376714 0.043620 2.341805152028776e-38
1.610715 0.368919 0.043636 2.341805152028776e-38
1.612482 0.361115 0.043651 2.341805152028776e-38
1.614212 0.353303 0.043667 2.341805152028776e-38
1.615903 0.345483 0.043682 2.341805152028776e-38
1.618535 0.337859 0.043723 2.341805152028776e-38
1.622111 0.330417 0.043790 2.341805152028776e-38
1.624672 0.322753 0.043831 2.341805152028776e-38
1.626215 0.314883 0.043844 2.341805152028776e-38
1.626738 0.306820 0.043831 2.341805152028776e-38
1.627221 0.298759 0.043818 2.341805152028776e-38
1.628648 0.290876 0.043831 2.341805152028776e-38
1.629052 0.282816 0.043816 2.341805152028776e-38
1.630402 0.274924 0.043828 2.341805152028776e-38
1.632701 0.267188 0.043867 2.341805152028776e-38
1.634962 0.259436 0.043905 2.341805152028776e-38
1.636199 0.251516 0.043915 2.341805152028776e-38
1.639375 0.243885 0.043979 2.341805152028776e-38
1.642515 0.236228 0.044043 2.341805152028776e-38
1.643640 0.228272 0.044053 2.341805152028776e-38
1.642744 0.220046 0.044009 2.341805152028776e-38
1.643790 0.212089 0.044018 2.341805152028776e-38
1.646781 0.204373 0.044080 2.341805152028776e-38
1.649737 0.196634 0.044142 2.341805152028776e-38
1.539613 0.678803 0.036149 2.341805152028776e-38
1.541305 0.669953 0.036105 2.341805152028776e-38
1.542946 0.661103 0.036060 2.341805152028776e-38
1.549142 0.654199 0.036121 2.341805152028776e-38
1.553463 0.646481 0.036139 2.341805152028776e-38
1.552177 0.636499 0.036028 2.341805152028776e-38
1.551730 0.626991 0.035942 2.341805152028776e-38
1.554942 0.618984 0.035941 2.341805152028776e-38
1.556250 0.610230 0.035896 2.341805152028776e-38
1.560308 0.602559 0.035914 2.341805152028776e-38
1.564313 0.594903 0.035934 2.341805152028776e-38
1.566382 0.586590 0.035914 2.341805152028776e-38
1.568406 0.578271 0.035893 2.341805152028776e-38
1.565688 0.568241 0.035763 2.341805152028776e-38
1.567616 0.559936 0.035741 2.341805152028776e-38
1.570429 0.551995 0.035741 2.341805152028776e-38
1.575068 0.544765 0.035788 2.341805152028776e-38
1.580620 0.537825 0.035855 2.341805152028776e-38
1.584245 0.530208 0.035879 2.341805152028776e-38
1.583086 0.521005 0.035794 2.341805152028776e-38
1.584716 0.512789 0.035776 2.341805152028776e-38
1.585327 0.504338 0.035741 2.341805152028776e-38
1.587802 0.496491 0.035747 2.341805152028776e-38
1.589282 0.488338 0.035732 2.341805152028776e-38
1.591678 0.480472 0.035738 2.341805152028776e-38
1.594024 0.472630 0.035745 2.341805152028776e-38
1.595349 0.464572 0.035736 2.341805152028776e-38
1.593751 0.455687 0.035662 2.341805152028776e-38
1.595954 0.447910 0.035674 2.341805152028776e-38
1.598119 0.440122 0.035686 2.341805152028776e-38
1.602171 0.432863 0.035741 2.341805152028776e-38
1.603281 0.424845 0.035735 2.341805152028776e-38
1.604352 0.416826 0.035728 2.341805152028776e-38
1.602475 0.408066 0.035656 2.341805152028776e-38
1.603462 0.400061 0.035649 2.341805152028776e-38
1.606351 0.392530 0.035685 2.341805152028776e-38
1.609205 0.384980 0.035720 2.341805152028776e-38
1.611049 0.377184 0.035733 2.341805152028776e-38
1.613831 0.369603 0.035768 2.341805152028776e-38
1.611699 0.360911 0.035695 2.341805152028776e-38
1.612450 0.352890 0.035685 2.341805152028776e-38
1.616095 0.345497 0.035741 2.341805152028776e-38
1.617749 0.337668 0.035753 2.341805152028776e-38
1.622303 0.330430 0.035830 2.341805152028776e-38
1.622903 0.322376 0.035820 2.341805152028776e-38
1.624445 0.314515 0.035831 2.341805152028776e-38
1.627913 0.307017 0.035885 2.341805152028776e-38
1.628397 0.298951 0.035874 2.341805152028776e-38
1.629825 0.291063 0.035884 2.341805152028776e-38
1.631215 0.283169 0.035895 2.341805152028776e-38
1.631581 0.275101 0.035883 2.341805152028776e-38
1.631907 0.267037 0.035871 2.341805152028776e-38
1.635155 0.259446 0.035923 2.341805152028776e-38
1.636392 0.251526 0.035932 2.341805152028776e-38
1.639568 0.243894 0.035984 2.341805152028776e-38
1.642709 0.236238 0.036036 2.341805152028776e-38
1.641853 0.228006 0.036001 2.341805152028776e-38
1.642937 0.220054 0.036009 2.341805152028776e-38
1.643983 0.212097 0.036016 2.341805152028776e-38
1.645983 0.204258 0.036046 2.341805152028776e-38
1.647945 0.196405 0.036074 2.341805152028776e-38
1.539781 0.678803 0.028116 2.341805152028776e-38
1.539639 0.669154 0.028048 2.341805152028776e-38
1.546790 0.662676 0.028114 2.341805152028776e-38
1.549310 0.654196 0.028094 2.341805152028776e-38
1.551784 0.645708 0.028074 2.341805152028776e-38
1.553268 0.636879 0.028039 2.341805152028776e-38
1.555603 0.628489 0.028022 2.341805152028776e-38
1.556964 0.619722 0.027987 2.341805152028776e-38
1.559207 0.611322 0.027969 2.341805152028776e-38
1.563271 0.603636 0.027983 2.341805152028776e-38
1.565410 0.595260 0.027965 2.341805152028776e-38
1.569353 0.587642 0.027983 2.341805152028776e-38
1.568569 0.578271 0.027917 2.341805152028776e-38
1.569609 0.569605 0.027883 2.341805152028776e-38
1.570602 0.560943 0.027848 2.341805152028776e-38
1.572475 0.552662 0.027832 2.341805152028776e-38
1.578062 0.545749 0.027885 2.341805152028776e-38
1.583619 0.538793 0.027937 2.341805152028776e-38
1.585353 0.530527 0.027922 2.341805152028776e-38
1.586095 0.521944 0.027890 2.341805152028776e-38
1.587727 0.513719 0.027876 2.341805152028776e-38
1.588343 0.505254 0.027849 2.341805152028776e-38
1.589868 0.497094 0.027837 2.341805152028776e-38
1.589439 0.488343 0.027792 2.341805152028776e-38
1.590878 0.480187 0.027779 2.341805152028776e-38
1.594179 0.472642 0.027802 2.341805152028776e-38
1.593584 0.464024 0.027762 2.341805152028776e-38
1.593905 0.455698 0.027738 2.341805152028776e-38
1.598034 0.448461 0.027781 2.341805152028776e-38
1.601165 0.440929 0.027806 2.341805152028776e-38
1.604255 0.433398 0.027833 2.341805152028776e-38
1.604402 0.425114 0.027811 2.341805152028776e-38
1.603538 0.416587 0.027772 2.341805152028776e-38
1.605535 0.408819 0.027784 2.341805152028776e-38
1.607496 0.401041 0.027795 2.341805152028776e-38
1.609418 0.393254 0.027806 2.341805152028776e-38
1.612275 0.385690 0.027833 2.341805152028776e-38
1.612177 0.377424 0.027810 2.341805152028776e-38
1.613010 0.369391 0.027804 2.341805152028776e-38
1.613804 0.361359 0.027797 2.341805152028776e-38
1.614558 0.353328 0.027790 2.341805152028776e-38
1.618204 0.345925 0.027833 2.341805152028776e-38
1.622796 0.338700 0.027893 2.341805152028776e-38
