VERSION .7
FIELDS x y z rgb
SIZE 4 4 4 4
TYPE F F F F
COUNT 1 1 1 1
WIDTH 957
HEIGHT 1
VIEWPOINT 0 0 0 1 0 0 0
POINTS 957
DATA ascii
1.601233 0.297422 -0.305354 2.341805152028776e-38
1.603621 0.289750 -0.305627 2.341805152028776e-38
1.606941 0.282231 -0.306082 2.341805152028776e-38
1.609257 0.274522 -0.306350 2.341805152028776e-38
1.612506 0.266957 -0.306801 2.341805152028776e-38
1.613779 0.259055 -0.306880 2.341805152028776e-38
1.616957 0.251449 -0.307327 2.341805152028776e-38
1.616211 0.243233 -0.307032 2.341805152028776e-38
1.617369 0.235314 -0.307104 2.341805152028776e-38
1.616543 0.227115 -0.306805 2.341805152028776e-38
1.619571 0.219458 -0.307241 2.341805152028776e-38
1.617690 0.211141 -0.306752 2.341805152028776e-38
1.621619 0.203582 -0.307369 2.341805152028776e-38
1.623561 0.195755 -0.307614 2.341805152028776e-38
1.625465 0.187913 -0.307857 2.341805152028776e-38
1.627333 0.180057 -0.308097 2.341805152028776e-38
1.634049 0.172704 -0.309260 2.341805152028776e-38
1.622154 0.163418 -0.306906 2.341805152028776e-38
1.615799 0.687312 -0.337253 2.341805152028776e-38
1.541524 0.646106 -0.321021 2.341805152028776e-38
1.532216 0.632696 -0.318363 2.341805152028776e-38
1.531905 0.623107 -0.317584 2.341805152028776e-38
1.534271 0.614639 -0.317363 2.341805152028776e-38
1.534764 0.605447 -0.316757 2.341805152028776e-38
1.537001 0.597046 -0.316554 2.341805152028776e-38
1.539182 0.588662 -0.316356 2.341805152028776e-38
1.543156 0.580967 -0.316527 2.341805152028776e-38
1.547091 0.573251 -0.316691 2.341805152028776e-38
1.549142 0.564841 -0.316471 2.341805152028776e-38
1.550221 0.556103 -0.316059 2.341805152028776e-38
1.551215 0.547450 -0.315683 2.341805152028776e-38
1.553089 0.539127 -0.315489 2.341805152028776e-38
1.554918 0.530803 -0.315289 2.341805152028776e-38
1.553910 0.521541 -0.314517 2.341805152028776e-38
1.554712 0.512923 -0.314116 2.341805152028776e-38
1.556393 0.504638 -0.313909 2.341805152028776e-38
1.559874 0.497007 -0.314109 2.341805152028776e-38
1.562382 0.489065 -0.314115 2.341805152028776e-38
1.565787 0.481402 -0.314304 2.341805152028776e-38
1.569155 0.473720 -0.314487 2.341805152028776e-38
1.568719 0.464905 -0.313910 2.341805152028776e-38
1.572940 0.457503 -0.314285 2.341805152028776e-38
1.573326 0.449049 -0.313937 2.341805152028776e-38
1.574612 0.440871 -0.313773 2.341805152028776e-38
1.573963 0.432174 -0.313227 2.341805152028776e-38
1.578955 0.425030 -0.313807 2.341805152028776e-38
1.580118 0.416847 -0.313628 2.341805152028776e-38
1.582185 0.408922 -0.313639 2.341805152028776e-38
1.580380 0.400086 -0.312939 2.341805152028776e-38
1.581386 0.391990 -0.312800 2.341805152028776e-38
1.584259 0.384359 -0.313034 2.341805152028776e-38
1.587096 0.376711 -0.313265 2.341805152028776e-38
1.587983 0.368603 -0.313115 2.341805152028776e-38
1.585956 0.359847 -0.312394 2.341805152028776e-38
1.585782 0.351588 -0.312084 2.341805152028776e-38
1.585558 0.343362 -0.311789 2.341805152028776e-38
1.590096 0.336164 -0.312434 2.341805152028776e-38
1.593639 0.328731 -0.312889 2.341805152028776e-38
1.594260 0.320692 -0.312774 2.341805152028776e-38
1.595805 0.312845 -0.312845 2.341805152028776e-38
1.597311 0.304991 -0.312913 2.341805152028776e-38
1.598771 0.297152 -0.313000 2.341805152028776e-38
1.602123 0.289661 -0.313469 2.341805152028776e-38
1.603506 0.281805 -0.313558 2.341805152028776e-38
1.603883 0.273777 -0.313455 2.341805152028776e-38
1.608096 0.266394 -0.314106 2.341805152028776e-38
1.610336 0.258664 -0.314376 2.341805152028776e-38
1.611569 0.250768 -0.314455 2.341805152028776e-38
1.612764 0.242866 -0.314532 2.341805152028776e-38
1.612949 0.234817 -0.314416 2.341805152028776e-38
1.612122 0.226636 -0.314109 2.341805152028776e-38
1.614172 0.218863 -0.314367 2.341805152028776e-38
1.617160 0.211204 -0.314813 2.341805152028776e-38
1.618163 0.203275 -0.314877 2.341805152028776e-38
1.619128 0.195342 -0.314939 2.341805152028776e-38
1.622981 0.187742 -0.315567 2.341805152028776e-38
1.622894 0.179678 -0.315434 2.341805152028776e-38
1.629603 0.172341 -0.316627 2.341805152028776e-38
1.620649 0.163368 -0.314782 2.341805152028776e-38
1.599542 0.681178 -0.342704 2.341805152028776e-38
1.537089 0.644979 -0.328574 2.341805152028776e-38
1.530509 0.632716 -0.326433 2.341805152028776e-38
1.532020 0.623874 -0.326025 2.341805152028776e-38
1.534391 0.615404 -0.325802 2.341805152028776e-38
1.535803 0.606570 -0.325379 2.341805152028776e-38
1.534411 0.596695 -0.324378 2.341805152028776e-38
1.537508 0.588674 -0.324371 2.341805152028776e-38
1.541481 0.580986 -0.324551 2.341805152028776e-38
1.544495 0.572936 -0.324530 2.341805152028776e-38
1.546546 0.564537 -0.324309 2.341805152028776e-38
1.549475 0.556470 -0.324274 2.341805152028776e-38
1.548642 0.547123 -0.323482 2.341805152028776e-38
1.551442 0.539133 -0.323480 2.341805152028776e-38
1.551415 0.530181 -0.322892 2.341805152028776e-38
1.552268 0.521560 -0.322492 2.341805152028776e-38
1.554004 0.513257 -0.322277 2.341805152028776e-38
1.555696 0.504953 -0.322057 2.341805152028776e-38
1.559192 0.497295 -0.322247 2.341805152028776e-38
1.563573 0.489940 -0.322643 2.341805152028776e-38
1.565106 0.481691 -0.322454 2.341805152028776e-38
1.567536 0.473727 -0.322453 2.341805152028776e-38
1.568984 0.465475 -0.322252 2.341805152028776e-38
1.567562 0.456403 -0.321466 2.341805152028776e-38
1.569844 0.448482 -0.321478 2.341805152028776e-38
1.571129 0.440318 -0.321313 2.341805152028776e-38
1.575210 0.432935 -0.321723 2.341805152028776e-38
1.579256 0.425526 -0.322127 2.341805152028776e-38
1.581371 0.417590 -0.322141 2.341805152028776e-38
1.580595 0.408909 -0.321570 2.341805152028776e-38
1.580715 0.400515 -0.321205 2.341805152028776e-38
1.580772 0.392177 -0.320872 2.341805152028776e-38
1.582692 0.384313 -0.320921 2.341805152028776e-38
1.586482 0.376896 -0.321353 2.341805152028776e-38
1.588327 0.369009 -0.321395 2.341805152028776e-38
1.585348 0.360030 -0.320466 2.341805152028776e-38
1.582320 0.351092 -0.319533 2.341805152028776e-38
1.586895 0.343903 -0.320186 2.341805152028776e-38
1.589513 0.336287 -0.320462 2.341805152028776e-38
1.592094 0.328654 -0.320735 2.341805152028776e-38
1.592716 0.320618 -0.320618 2.341805152028776e-38
1.595223 0.312963 -0.320886 2.341805152028776e-38
1.599620 0.305660 -0.321538 2.341805152028776e-38
1.601092 0.297784 -0.321606 2.341805152028776e-38
1.602517 0.289920 -0.321692 2.341805152028776e-38
1.603902 0.282056 -0.321783 2.341805152028776e-38
1.605248 0.274186 -0.321871 2.341805152028776e-38
1.606556 0.266310 -0.321957 2.341805152028776e-38
1.608795 0.258583 -0.322234 2.341805152028776e-38
1.610028 0.250690 -0.322315 2.341805152028776e-38
1.610252 0.242644 -0.322199 2.341805152028776e-38
1.611408 0.234744 -0.322275 2.341805152028776e-38
1.612525 0.226838 -0.322349 2.341805152028776e-38
1.613604 0.218927 -0.322419 2.341805152028776e-38
1.614644 0.211010 -0.322488 2.341805152028776e-38
1.614673 0.202967 -0.322359 2.341805152028776e-38
1.614663 0.194928 -0.322228 2.341805152028776e-38
1.617536 0.187232 -0.322677 2.341805152028776e-38
1.622323 0.179729 -0.323513 2.341805152028776e-38
1.630002 0.172494 -0.324930 2.341805152028776e-38
1.620082 0.163415 -0.322844 2.341805152028776e-38
1.581451 0.674304 -0.347623 2.341805152028776e-38
1.536231 0.645367 -0.336890 2.341805152028776e-38
1.532382 0.634231 -0.335294 2.341805152028776e-38
1.531180 0.624268 -0.334285 2.341805152028776e-38
1.533554 0.615800 -0.334062 2.341805152028776e-38
1.532236 0.605888 -0.333038 2.341805152028776e-38
1.533596 0.597078 -0.332601 2.341805152028776e-38
1.537623 0.589384 -0.332781 2.341805152028776e-38
1.540681 0.581347 -0.332771 2.341805152028776e-38
1.543698 0.573299 -0.332754 2.341805152028776e-38
1.545751 0.564904 -0.332532 2.341805152028776e-38
1.546837 0.556175 -0.332104 2.341805152028776e-38
1.548798 0.547782 -0.331868 2.341805152028776e-38
1.547902 0.538492 -0.331073 2.341805152028776e-38
1.549730 0.530191 -0.330871 2.341805152028776e-38
1.551514 0.521889 -0.330662 2.341805152028776e-38
1.554183 0.513894 -0.330645 2.341805152028776e-38
1.554948 0.505285 -0.330226 2.341805152028776e-38
1.558465 0.497580 -0.330393 2.341805152028776e-38
1.559106 0.489051 -0.330010 2.341805152028776e-38
1.563446 0.481688 -0.330414 2.341805152028776e-38
1.565876 0.473729 -0.330416 2.341805152028776e-38
1.565446 0.464925 -0.329819 2.341805152028776e-38
1.564966 0.456142 -0.329216 2.341805152028776e-38
1.568208 0.448459 -0.329399 2.341805152028776e-38
1.570442 0.440555 -0.329424 2.341805152028776e-38
1.575467 0.433433 -0.330045 2.341805152028776e-38
1.576674 0.425253 -0.329869 2.341805152028776e-38
1.578787 0.417326 -0.329887 2.341805152028776e-38
1.578963 0.408901 -0.329503 2.341805152028776e-38
1.576243 0.399766 -0.328521 2.341805152028776e-38
1.577263 0.391651 -0.328354 2.341805152028776e-38
1.581085 0.384264 -0.328803 2.341805152028776e-38
1.584873 0.376851 -0.329248 2.341805152028776e-38
1.583853 0.368302 -0.328699 2.341805152028776e-38
1.580876 0.359340 -0.327750 2.341805152028776e-38
1.583591 0.351695 -0.327986 2.341805152028776e-38
1.586269 0.344035 -0.328218 2.341805152028776e-38
1.587931 0.336205 -0.328294 2.341805152028776e-38
1.588592 0.328178 -0.328178 2.341805152028776e-38
1.594016 0.321122 -0.329051 2.341805152028776e-38
1.596524 0.313455 -0.329326 2.341805152028776e-38
1.598034 0.305588 -0.329400 2.341805152028776e-38
1.597577 0.297357 -0.329075 2.341805152028776e-38
1.599008 0.289487 -0.329143 2.341805152028776e-38
1.600394 0.281626 -0.329225 2.341805152028776e-38
1.602705 0.273933 -0.329514 2.341805152028776e-38
1.604012 0.266064 -0.329602 2.341805152028776e-38
1.604313 0.258033 -0.329488 2.341805152028776e-38
1.603606 0.249855 -0.329173 2.341805152028776e-38
1.607704 0.242420 -0.329850 2.341805152028776e-38
1.608859 0.234527 -0.329928 2.341805152028776e-38
1.609975 0.226628 -0.330003 2.341805152028776e-38
1.612024 0.218856 -0.330274 2.341805152028776e-38
1.612092 0.210815 -0.330145 2.341805152028776e-38
1.613094 0.202902 -0.330212 2.341805152028776e-38
1.614057 0.194983 -0.330277 2.341805152028776e-38
1.616929 0.187285 -0.330737 2.341805152028776e-38
1.620738 0.179672 -0.331395 2.341805152028776e-38
1.627436 0.172335 -0.332647 2.341805152028776e-38
1.618501 0.163362 -0.330709 2.341805152028776e-38
1.562454 0.667041 -0.352165 2.341805152028776e-38
1.530808 0.643867 -0.344206 2.341805152028776e-38
1.526966 0.632744 -0.342568 2.341805152028776e-38
1.527575 0.623547 -0.341945 2.341805152028776e-38
1.529039 0.614732 -0.341518 2.341805152028776e-38
1.530451 0.605923 -0.341083 2.341805152028776e-38
1.534550 0.598188 -0.341248 2.341805152028776e-38
1.535863 0.589388 -0.340803 2.341805152028776e-38
1.538922 0.581359 -0.340797 2.341805152028776e-38
1.539185 0.572294 -0.340175 2.341805152028776e-38
1.541234 0.563920 -0.339952 2.341805152028776e-38
1.544160 0.555876 -0.339924 2.341805152028776e-38
1.547966 0.548149 -0.340092 2.341805152028776e-38
1.548949 0.539457 -0.339658 2.341805152028776e-38
1.549857 0.530830 -0.339253 2.341805152028776e-38
1.552573 0.522838 -0.339246 2.341805152028776e-38
1.552458 0.513913 -0.338625 2.341805152028776e-38
1.555087 0.505916 -0.338605 2.341805152028776e-38
1.555809 0.497314 -0.338173 2.341805152028776e-38
1.558342 0.489331 -0.338156 2.341805152028776e-38
1.562682 0.481969 -0.338573 2.341805152028776e-38
1.563238 0.473444 -0.338174 2.341805152028776e-38
1.564687 0.465209 -0.337972 2.341805152028776e-38
1.567032 0.457250 -0.337967 2.341805152028776e-38
1.567454 0.448744 -0.337551 2.341805152028776e-38
1.568770 0.440524 -0.337338 2.341805152028776e-38
1.570959 0.432626 -0.337369 2.341805152028776e-38
1.576891 0.425742 -0.338206 2.341805152028776e-38
1.578060 0.417560 -0.338025 2.341805152028776e-38
1.577290 0.408889 -0.337433 2.341805152028776e-38
1.577423 0.400482 -0.337039 2.341805152028776e-38
1.576561 0.391851 -0.336437 2.341805152028776e-38
1.577536 0.383748 -0.336274 2.341805152028776e-38
1.582273 0.376575 -0.336935 2.341805152028776e-38
1.582208 0.368257 -0.336579 2.341805152028776e-38
1.583055 0.360168 -0.336421 2.341805152028776e-38
1.581949 0.351658 -0.335853 2.341805152028776e-38
1.583669 0.343794 -0.335891 2.341805152028776e-38
1.585350 0.335924 -0.335924 2.341805152028776e-38
1.589849 0.328690 -0.336611 2.341805152028776e-38
1.593352 0.321236 -0.337099 2.341805152028776e-38
1.594899 0.313378 -0.337179 2.341805152028776e-38
1.594485 0.305146 -0.336850 2.341805152028776e-38
1.595954 0.297286 -0.336924 2.341805152028776e-38
1.597384 0.289419 -0.336995 2.341805152028776e-38
1.598776 0.281547 -0.337063 2.341805152028776e-38
1.600126 0.273678 -0.337139 2.341805152028776e-38
1.602397 0.265976 -0.337433 2.341805152028776e-38
1.601732 0.257792 -0.337113 2.341805152028776e-38
1.604896 0.250225 -0.337605 2.341805152028776e-38
1.606088 0.242340 -0.337687 2.341805152028776e-38
1.608211 0.234591 -0.337970 2.341805152028776e-38
1.610297 0.226827 -0.338250 2.341805152028776e-38
1.611376 0.218916 -0.338325 2.341805152028776e-38
1.614358 0.211254 -0.338804 2.341805152028776e-38
1.612448 0.202957 -0.338262 2.341805152028776e-38
1.613411 0.195036 -0.338328 2.341805152028776e-38
1.615309 0.187223 -0.338595 2.341805152028776e-38
1.618142 0.179505 -0.339064 2.341805152028776e-38
1.627753 0.172485 -0.340958 2.341805152028776e-38
1.612010 0.162817 -0.337547 2.341805152028776e-38
1.556045 0.665156 -0.359432 2.341805152028776e-38
1.527137 0.643153 -0.351914 2.341805152028776e-38
1.525131 0.632752 -0.350633 2.341805152028776e-38
1.524838 0.623193 -0.349792 2.341805152028776e-38
1.524487 0.613660 -0.348944 2.341805152028776e-38
1.527714 0.605594 -0.348918 2.341805152028776e-38
1.529077 0.596805 -0.348470 2.341805152028776e-38
1.533129 0.589075 -0.348636 2.341805152028776e-38
1.534375 0.580328 -0.348197 2.341805152028776e-38
1.537386 0.572309 -0.348188 2.341805152028776e-38
1.540356 0.564278 -0.348172 2.341805152028776e-38
1.544203 0.556569 -0.348356 2.341805152028776e-38
1.545246 0.547858 -0.347910 2.341805152028776e-38
1.548088 0.539801 -0.347872 2.341805152028776e-38
1.549938 0.531466 -0.347651 2.341805152028776e-38
1.549876 0.522533 -0.347026 2.341805152028776e-38
1.550692 0.513927 -0.346602 2.341805152028776e-38
1.552391 0.505634 -0.346379 2.341805152028776e-38
1.553113 0.497043 -0.345942 2.341805152028776e-38
1.559388 0.490223 -0.346743 2.341805152028776e-38
1.559070 0.481380 -0.346117 2.341805152028776e-38
1.561498 0.473438 -0.346127 2.341805152028776e-38
1.562948 0.465209 -0.345925 2.341805152028776e-38
1.562476 0.456433 -0.345301 2.341805152028776e-38
1.564777 0.448486 -0.345295 2.341805152028776e-38
1.567979 0.440797 -0.345490 2.341805152028776e-38
1.570190 0.432855 -0.345490 2.341805152028776e-38
1.572342 0.424950 -0.345520 2.341805152028776e-38
1.574453 0.417038 -0.345546 2.341805152028776e-38
1.574631 0.408627 -0.345151 2.341805152028776e-38
1.574765 0.400229 -0.344752 2.341805152028776e-38
1.575803 0.392080 -0.344555 2.341805152028776e-38
1.576799 0.383935 -0.344354 2.341805152028776e-38
1.582490 0.376975 -0.345230 2.341805152028776e-38
1.582430 0.368652 -0.344868 2.341805152028776e-38
1.581372 0.360123 -0.344293 2.341805152028776e-38
1.581224 0.351829 -0.343923 2.341805152028776e-38
1.582945 0.343964 -0.343964 2.341805152028776e-38
1.585583 0.336296 -0.344209 2.341805152028776e-38
1.587227 0.328416 -0.344243 2.341805152028776e-38
1.587854 0.320379 -0.344111 2.341805152028776e-38
1.591317 0.312921 -0.344609 2.341805152028776e-38
1.591863 0.304886 -0.344481 2.341805152028776e-38
1.593330 0.297033 -0.344558 2.341805152028776e-38
1.594759 0.289173 -0.344631 2.341805152028776e-38
1.599040 0.281818 -0.345326 2.341805152028776e-38
1.600395 0.273933 -0.345394 2.341805152028776e-38
1.600745 0.265887 -0.345256 2.341805152028776e-38
1.601047 0.257861 -0.345137 2.341805152028776e-38
1.606142 0.250593 -0.346056 2.341805152028776e-38
1.607336 0.242696 -0.346141 2.341805152028776e-38
1.608492 0.234794 -0.346222 2.341805152028776e-38
1.607672 0.226614 -0.345884 2.341805152028776e-38
1.609719 0.218842 -0.346169 2.341805152028776e-38
1.610760 0.210929 -0.346242 2.341805152028776e-38
1.611762 0.203011 -0.346312 2.341805152028776e-38
1.614667 0.195323 -0.346797 2.341805152028776e-38
1.616565 0.187498 -0.347071 2.341805152028776e-38
1.617453 0.179552 -0.347134 2.341805152028776e-38
1.622193 0.172014 -0.348028 2.341805152028776e-38
1.612303 0.162959 -0.345790 2.341805152028776e-38
1.543315 0.660576 -0.365163 2.341805152028776e-38
1.526128 0.643574 -0.360239 2.341805152028776e-38
1.524144 0.633153 -0.358921 2.341805152028776e-38
1.523869 0.623575 -0.358053 2.341805152028776e-38
1.523524 0.614045 -0.357189 2.341805152028776e-38
1.524938 0.605261 -0.356743 2.341805152028776e-38
1.527211 0.596840 -0.356502 2.341805152028776e-38
1.532174 0.589469 -0.356890 2.341805152028776e-38
1.532532 0.580338 -0.356207 2.341805152028776e-38
1.537377 0.573002 -0.356624 2.341805152028776e-38
1.540350 0.564969 -0.356612 2.341805152028776e-38
1.540524 0.555930 -0.355955 2.341805152028776e-38
1.542487 0.547564 -0.355717 2.341805152028776e-38
1.548094 0.540485 -0.356320 2.341805152028776e-38
1.549049 0.531782 -0.355854 2.341805152028776e-38
1.549918 0.523162 -0.355430 2.341805152028776e-38
1.549812 0.514245 -0.354789 2.341805152028776e-38
1.551514 0.505953 -0.354566 2.341805152028776e-38
1.553171 0.497662 -0.354336 2.341805152028776e-38
1.554783 0.489373 -0.354099 2.341805152028776e-38
1.557286 0.481374 -0.354068 2.341805152028776e-38
1.558783 0.473145 -0.353864 2.341805152028776e-38
1.560232 0.464926 -0.353661 2.341805152028776e-38
1.563514 0.457257 -0.353877 2.341805152028776e-38
1.564880 0.449032 -0.353663 2.341805152028776e-38
1.566202 0.440810 -0.353442 2.341805152028776e-38
1.566540 0.432331 -0.353004 2.341805152028776e-38
1.569646 0.424665 -0.353226 2.341805152028776e-38
1.573645 0.417263 -0.353680 2.341805152028776e-38
1.574772 0.409098 -0.353493 2.341805152028776e-38
1.573963 0.400455 -0.352876 2.341805152028776e-38
1.575003 0.392306 -0.352679 2.341805152028776e-38
1.577900 0.384623 -0.352902 2.341805152028776e-38
1.583612 0.377606 -0.353757 2.341805152028776e-38
1.581656 0.368821 -0.352958 2.341805152028776e-38
1.577744 0.359640 -0.351736 2.341805152028776e-38
1.578550 0.351572 -0.351572 2.341805152028776e-38
1.581224 0.343923 -0.351829 2.341805152028776e-38
1.581949 0.335853 -0.351658 2.341805152028776e-38
1.583591 0.327986 -0.351695 2.341805152028776e-38
1.584236 0.319920 -0.351517 2.341805152028776e-38
1.586741 0.312272 -0.351801 2.341805152028776e-38
1.590164 0.304806 -0.352308 2.341805152028776e-38
1.594513 0.297494 -0.353026 2.341805152028776e-38
1.596905 0.289798 -0.353315 2.341805152028776e-38
1.600224 0.282256 -0.353814 2.341805152028776e-38
1.598691 0.273865 -0.353247 2.341805152028776e-38
1.600008 0.265978 -0.353315 2.341805152028776e-38
1.602250 0.258242 -0.353593 2.341805152028776e-38
1.605413 0.250657 -0.354102 2.341805152028776e-38
1.607574 0.242904 -0.354402 2.341805152028776e-38
1.607764 0.234854 -0.354272 2.341805152028776e-38
1.606946 0.226672 -0.353927 2.341805152028776e-38
1.608993 0.218898 -0.354217 2.341805152028776e-38
1.610033 0.210983 -0.354292 2.341805152028776e-38
1.612005 0.203185 -0.354578 2.341805152028776e-38
1.613939 0.195373 -0.354861 2.341805152028776e-38
1.616807 0.187659 -0.355354 2.341805152028776e-38
1.615754 0.179490 -0.354992 2.341805152028776e-38
1.620489 0.171955 -0.355906 2.341805152028776e-38
1.609639 0.162804 -0.353404 2.341805152028776e-38
1.524287 0.653299 -0.369256 2.341805152028776e-38
1.518778 0.641332 -0.367052 2.341805152028776e-38
1.523098 0.633573 -0.367230 2.341805152028776e-38
1.521952 0.623583 -0.366103 2.341805152028776e-38
1.523422 0.614790 -0.365660 2.341805152028776e-38
1.522120 0.604923 -0.364556 2.341805152028776e-38
1.527120 0.597582 -0.364966 2.341805152028776e-38
1.527530 0.588455 -0.364282 2.341805152028776e-38
1.528799 0.579692 -0.363807 2.341805152028776e-38
1.532750 0.571984 -0.363990 2.341805152028776e-38
1.536633 0.564309 -0.364200 2.341805152028776e-38
1.537725 0.555619 -0.363751 2.341805152028776e-38
1.540607 0.547592 -0.363729 2.341805152028776e-38
1.544369 0.539876 -0.363917 2.341805152028776e-38
1.546245 0.531507 -0.363663 2.341805152028776e-38
1.545291 0.522223 -0.362766 2.341805152028776e-38
1.545184 0.513327 -0.362114 2.341805152028776e-38
1.545954 0.504753 -0.361674 2.341805152028776e-38
1.548535 0.496786 -0.361661 2.341805152028776e-38
1.552938 0.489398 -0.362075 2.341805152028776e-38
1.555440 0.481406 -0.362049 2.341805152028776e-38
1.557897 0.473414 -0.362023 2.341805152028776e-38
1.558413 0.464917 -0.361602 2.341805152028776e-38
1.559821 0.456706 -0.361393 2.341805152028776e-38
1.561185 0.448496 -0.361178 2.341805152028776e-38
1.562506 0.440289 -0.360958 2.341805152028776e-38
1.563784 0.432085 -0.360732 2.341805152028776e-38
1.566903 0.424395 -0.360934 2.341805152028776e-38
1.568077 0.416232 -0.360734 2.341805152028776e-38
1.568255 0.407845 -0.360329 2.341805152028776e-38
1.569335 0.399712 -0.360137 2.341805152028776e-38
1.570373 0.391582 -0.359939 2.341805152028776e-38
1.575162 0.384382 -0.360605 2.341805152028776e-38
1.578020 0.376693 -0.360833 2.341805152028776e-38
1.578938 0.368547 -0.360621 2.341805152028776e-38
1.575034 0.359370 -0.359370 2.341805152028776e-38
1.577744 0.351736 -0.359640 2.341805152028776e-38
1.578511 0.343671 -0.359471 2.341805152028776e-38
1.581146 0.336015 -0.359734 2.341805152028776e-38
1.580876 0.327750 -0.359340 2.341805152028776e-38
1.582478 0.319886 -0.359378 2.341805152028776e-38
1.585956 0.312394 -0.359847 2.341805152028776e-38
1.587468 0.304540 -0.359911 2.341805152028776e-38
1.590853 0.297056 -0.360428 2.341805152028776e-38
1.594203 0.289547 -0.360942 2.341805152028776e-38
1.596557 0.281843 -0.361236 2.341805152028776e-38
1.597912 0.273960 -0.361309 2.341805152028776e-38
1.599229 0.266071 -0.361380 2.341805152028776e-38
1.601470 0.258332 -0.361665 2.341805152028776e-38
1.604639 0.250730 -0.362165 2.341805152028776e-38
1.606804 0.242965 -0.362455 2.341805152028776e-38
1.605064 0.234630 -0.361888 2.341805152028776e-38
1.605214 0.226592 -0.361752 2.341805152028776e-38
1.606292 0.218689 -0.361832 2.341805152028776e-38
1.607332 0.210782 -0.361908 2.341805152028776e-38
1.610269 0.203113 -0.362418 2.341805152028776e-38
1.613171 0.195421 -0.362925 2.341805152028776e-38
1.613128 0.187367 -0.362775 2.341805152028776e-38
1.613046 0.179319 -0.362623 2.341805152028776e-38
1.614866 0.171482 -0.362903 2.341805152028776e-38
1.603054 0.162255 -0.360128 2.341805152028776e-38
1.525869 0.654861 -0.378274 2.341805152028776e-38
1.514991 0.640606 -0.374694 2.341805152028776e-38
1.518406 0.632489 -0.374659 2.341805152028776e-38
1.519973 0.623620 -0.374172 2.341805152028776e-38
1.522369 0.615166 -0.373925 2.341805152028776e-38
1.523793 0.606384 -0.373468 2.341805152028776e-38
1.524258 0.597253 -0.372782 2.341805152028776e-38
1.520122 0.586384 -0.370978 2.341805152028776e-38
1.524117 0.578696 -0.371164 2.341805152028776e-38
1.530813 0.572012 -0.372008 2.341805152028776e-38
1.534710 0.564318 -0.372210 2.341805152028776e-38
1.537637 0.556299 -0.372200 2.341805152028776e-38
1.541442 0.548596 -0.372404 2.341805152028776e-38
1.542446 0.539907 -0.371936 2.341805152028776e-38
1.540636 0.530276 -0.370794 2.341805152028776e-38
1.540615 0.521309 -0.370090 2.341805152028776e-38
1.545147 0.513943 -0.370517 2.341805152028776e-38
1.548703 0.506276 -0.370737 2.341805152028776e-38
1.551292 0.498291 -0.370729 2.341805152028776e-38
1.553840 0.490299 -0.370714 2.341805152028776e-38
1.555416 0.482010 -0.370471 2.341805152028776e-38
1.557880 0.474007 -0.370443 2.341805152028776e-38
1.558423 0.465462 -0.369983 2.341805152028776e-38
1.560770 0.457521 -0.369995 2.341805152028776e-38
1.562139 0.449303 -0.369780 2.341805152028776e-38
1.564404 0.441352 -0.369782 2.341805152028776e-38
1.563808 0.432615 -0.369112 2.341805152028776e-38
1.568812 0.425431 -0.369767 2.341805152028776e-38
1.573782 0.418213 -0.370417 2.341805152028776e-38
1.573034 0.409536 -0.369775 2.341805152028776e-38
1.570344 0.400411 -0.368695 2.341805152028776e-38
1.571386 0.392271 -0.368497 2.341805152028776e-38
1.573334 0.384367 -0.368517 2.341805152028776e-38
1.577138 0.376910 -0.368975 2.341805152028776e-38
1.576160 0.368320 -0.368320 2.341805152028776e-38
1.575136 0.359753 -0.367659 2.341805152028776e-38
1.576898 0.351896 -0.367711 2.341805152028776e-38
1.577666 0.343829 -0.367542 2.341805152028776e-38
1.581255 0.336376 -0.368035 2.341805152028776e-38
1.583853 0.328699 -0.368302 2.341805152028776e-38
1.588327 0.321395 -0.369009 2.341805152028776e-38
1.586070 0.312737 -0.368159 2.341805152028776e-38
1.585682 0.304481 -0.367749 2.341805152028776e-38
1.588118 0.296794 -0.368025 2.341805152028776e-38
1.592424 0.289467 -0.368774 2.341805152028776e-38
1.593816 0.281597 -0.368853 2.341805152028776e-38
1.595170 0.273721 -0.368929 2.341805152028776e-38
1.596486 0.265840 -0.369002 2.341805152028776e-38
1.600650 0.258420 -0.369739 2.341805152028776e-38
1.602854 0.250665 -0.370029 2.341805152028776e-38
1.602129 0.242458 -0.369649 2.341805152028776e-38
1.602327 0.234407 -0.369488 2.341805152028776e-38
1.603444 0.226510 -0.369569 2.341805152028776e-38
1.605487 0.218742 -0.369873 2.341805152028776e-38
1.608460 0.211086 -0.370397 2.341805152028776e-38
1.607529 0.202918 -0.370027 2.341805152028776e-38
1.612363 0.195468 -0.370990 2.341805152028776e-38
1.613290 0.187525 -0.371060 2.341805152028776e-38
1.610303 0.179146 -0.370236 2.341805152028776e-38
1.615998 0.171729 -0.371414 2.341805152028776e-38
1.603232 0.162393 -0.368355 2.341805152028776e-38
1.520238 0.653342 -0.385513 2.341805152028776e-38
1.513856 0.641013 -0.382995 2.341805152028776e-38
1.518172 0.633276 -0.383192 2.341805152028776e-38
1.518845 0.624035 -0.382473 2.341805152028776e-38
1.521268 0.615542 -0.382199 2.341805152028776e-38
1.521794 0.606398 -0.381509 2.341805152028776e-38
1.518637 0.595852 -0.379905 2.341805152028776e-38
1.519953 0.587116 -0.379428 2.341805152028776e-38
1.525772 0.580118 -0.380078 2.341805152028776e-38
1.528822 0.572058 -0.380038 2.341805152028776e-38
1.532744 0.564323 -0.380218 2.341805152028776e-38
1.536587 0.556642 -0.380439 2.341805152028776e-38
1.539475 0.548614 -0.380426 2.341805152028776e-38
1.541401 0.540255 -0.380179 2.341805152028776e-38
1.539599 0.530626 -0.379019 2.341805152028776e-38
1.545118 0.523537 -0.379664 2.341805152028776e-38
1.549680 0.516103 -0.380076 2.341805152028776e-38
1.550473 0.507490 -0.379619 2.341805152028776e-38
1.549360 0.498301 -0.378709 2.341805152028776e-38
1.550980 0.490021 -0.378472 2.341805152028776e-38
1.553485 0.482032 -0.378455 2.341805152028776e-38
1.556881 0.474320 -0.378659 2.341805152028776e-38
1.558373 0.466033 -0.378402 2.341805152028776e-38
1.557933 0.457235 -0.377716 2.341805152028776e-38
1.560238 0.449297 -0.377727 2.341805152028776e-38
1.561566 0.441087 -0.377507 2.341805152028776e-38
1.563789 0.433140 -0.377507 2.341805152028776e-38
1.573491 0.427228 -0.379315 2.341805152028776e-38
1.578467 0.419982 -0.379984 2.341805152028776e-38
1.576812 0.410982 -0.379061 2.341805152028776e-38
1.572250 0.401346 -0.377504 2.341805152028776e-38
1.571408 0.392720 -0.376852 2.341805152028776e-38
1.575250 0.385273 -0.377329 2.341805152028776e-38
1.577162 0.377349 -0.377349 2.341805152028776e-38
1.576190 0.368753 -0.376683 2.341805152028776e-38
1.572323 0.359530 -0.375334 2.341805152028776e-38
1.574106 0.351634 -0.375339 2.341805152028776e-38
1.576781 0.343984 -0.375615 2.341805152028776e-38
1.578462 0.336124 -0.375668 2.341805152028776e-38
1.584873 0.329248 -0.376851 2.341805152028776e-38
1.588391 0.321740 -0.377350 2.341805152028776e-38
1.589007 0.313642 -0.377165 2.341805152028776e-38
1.586713 0.304998 -0.376296 2.341805152028776e-38
1.588202 0.297103 -0.376331 2.341805152028776e-38
1.589649 0.289211 -0.376370 2.341805152028776e-38
1.590081 0.281179 -0.376225 2.341805152028776e-38
1.592392 0.273481 -0.376531 2.341805152028776e-38
1.593707 0.265607 -0.376607 2.341805152028776e-38
1.596905 0.258039 -0.377134 2.341805152028776e-38
1.598144 0.250146 -0.377204 2.341805152028776e-38
1.601270 0.242539 -0.377725 2.341805152028776e-38
1.603397 0.234768 -0.378017 2.341805152028776e-38
1.603559 0.226711 -0.377851 2.341805152028776e-38
1.603678 0.218661 -0.377688 2.341805152028776e-38
1.602786 0.210501 -0.377313 2.341805152028776e-38
1.603786 0.202599 -0.377390 2.341805152028776e-38
1.606681 0.194927 -0.377919 2.341805152028776e-38
1.609540 0.187231 -0.378445 2.341805152028776e-38
1.612363 0.179511 -0.378969 2.341805152028776e-38
1.618054 0.172078 -0.380172 2.341805152028776e-38
1.604336 0.162628 -0.376821 2.341805152028776e-38
1.512787 0.651050 -0.392247 2.341805152028776e-38
1.512676 0.641416 -0.391304 2.341805152028776e-38
1.516992 0.633682 -0.391511 2.341805152028776e-38
1.519470 0.625186 -0.391245 2.341805152028776e-38
1.520098 0.615956 -0.390508 2.341805152028776e-38
1.519753 0.606407 -0.389546 2.341805152028776e-38
1.519320 0.596936 -0.388609 2.341805152028776e-38
1.523367 0.589246 -0.388822 2.341805152028776e-38
1.526466 0.581190 -0.388796 2.341805152028776e-38
1.531343 0.573805 -0.389225 2.341805152028776e-38
1.534360 0.565718 -0.389182 2.341805152028776e-38
1.535493 0.556980 -0.388684 2.341805152028776e-38
1.538382 0.548955 -0.388676 2.341805152028776e-38
1.540312 0.540598 -0.388430 2.341805152028776e-38
1.542196 0.532241 -0.388176 2.341805152028776e-38
1.546798 0.524823 -0.388609 2.341805152028776e-38
1.546751 0.515838 -0.387878 2.341805152028776e-38
1.546647 0.506882 -0.387146 2.341805152028776e-38
1.548313 0.498603 -0.386916 2.341805152028776e-38
1.549936 0.490326 -0.386680 2.341805152028776e-38
1.555230 0.483204 -0.387362 2.341805152028776e-38
1.558631 0.475479 -0.387575 2.341805152028776e-38
1.557333 0.466342 -0.386625 2.341805152028776e-38
1.559717 0.458333 -0.386594 2.341805152028776e-38
1.560167 0.449824 -0.386132 2.341805152028776e-38
1.561498 0.441611 -0.385912 2.341805152028776e-38
1.566536 0.434439 -0.386611 2.341805152028776e-38
1.573419 0.427744 -0.387768 2.341805152028776e-38
1.576514 0.419993 -0.387993 2.341805152028776e-38
1.574864 0.410998 -0.387057 2.341805152028776e-38
1.572221 0.401796 -0.385883 2.341805152028776e-38
1.572329 0.393400 -0.385452 2.341805152028776e-38
1.573338 0.385249 -0.385249 2.341805152028776e-38
1.576196 0.377556 -0.385504 2.341805152028776e-38
1.573334 0.368517 -0.384367 2.341805152028776e-38
1.571369 0.359737 -0.383456 2.341805152028776e-38
1.574103 0.352052 -0.383698 2.341805152028776e-38
1.575849 0.344147 -0.383704 2.341805152028776e-38
1.577536 0.336274 -0.383748 2.341805152028776e-38
1.583942 0.329397 -0.384958 2.341805152028776e-38
1.587459 0.321888 -0.385471 2.341805152028776e-38
1.587122 0.313600 -0.385053 2.341805152028776e-38
1.586743 0.305327 -0.384632 2.341805152028776e-38
1.588234 0.297426 -0.384671 2.341805152028776e-38
1.588728 0.289347 -0.384475 2.341805152028776e-38
1.593013 0.281952 -0.385202 2.341805152028776e-38
1.594372 0.274061 -0.385274 2.341805152028776e-38
1.595689 0.266172 -0.385353 2.341805152028776e-38
1.595047 0.257966 -0.384965 2.341805152028776e-38
1.599169 0.250528 -0.385733 2.341805152028776e-38
1.603257 0.243056 -0.386498 2.341805152028776e-38
1.604422 0.235127 -0.386565 2.341805152028776e-38
1.601697 0.226649 -0.385702 2.341805152028776e-38
1.602783 0.218731 -0.385763 2.341805152028776e-38
1.601901 0.210556 -0.385357 2.341805152028776e-38
1.603870 0.202767 -0.385654 2.341805152028776e-38
1.604833 0.194853 -0.385730 2.341805152028776e-38
1.610588 0.187498 -0.386963 2.341805152028776e-38
1.612443 0.179659 -0.387265 2.341805152028776e-38
1.619097 0.172322 -0.388726 2.341805152028776e-38
1.604428 0.162763 -0.385074 2.341805152028776e-38
1.511554 0.651444 -0.400577 2.341805152028776e-38
1.510555 0.641434 -0.399384 2.341805152028776e-38
1.513974 0.633334 -0.399364 2.341805152028776e-38
1.517350 0.625222 -0.399335 2.341805152028776e-38
1.517981 0.616001 -0.398589 2.341805152028776e-38
1.518557 0.606797 -0.397834 2.341805152028776e-38
1.518146 0.597304 -0.396866 2.341805152028776e-38
1.521287 0.589266 -0.396853 2.341805152028776e-38
1.525294 0.581564 -0.397068 2.341805152028776e-38
1.527442 0.573158 -0.396802 2.341805152028776e-38
1.531367 0.565426 -0.397001 2.341805152028776e-38
1.533426 0.557010 -0.396719 2.341805152028776e-38
1.535416 0.548637 -0.396460 2.341805152028776e-38
1.537344 0.540292 -0.396214 2.341805152028776e-38
1.541983 0.532899 -0.396670 2.341805152028776e-38
1.542907 0.524229 -0.396173 2.341805152028776e-38
1.544703 0.515876 -0.395905 2.341805152028776e-38
1.545531 0.507222 -0.395394 2.341805152028776e-38
1.548148 0.499199 -0.395366 2.341805152028776e-38
1.548848 0.490625 -0.394893 2.341805152028776e-38
1.552284 0.482928 -0.395123 2.341805152028776e-38
1.553824 0.474646 -0.394874 2.341805152028776e-38
1.556250 0.466646 -0.394854 2.341805152028776e-38
1.557703 0.458365 -0.394593 2.341805152028776e-38
1.558178 0.449818 -0.394088 2.341805152028776e-38
1.559515 0.441600 -0.393859 2.341805152028776e-38
1.563613 0.434174 -0.394342 2.341805152028776e-38
1.566739 0.426468 -0.394583 2.341805152028776e-38
1.570765 0.418997 -0.395054 2.341805152028776e-38
1.570055 0.410273 -0.394340 2.341805152028776e-38
1.565531 0.400608 -0.392675 2.341805152028776e-38
1.565663 0.392186 -0.392186 2.341805152028776e-38
1.571386 0.385221 -0.393164 2.341805152028776e-38
1.572353 0.377079 -0.392956 2.341805152028776e-38
1.571386 0.368497 -0.392271 2.341805152028776e-38
1.571320 0.360156 -0.391818 2.341805152028776e-38
1.573107 0.352254 -0.391833 2.341805152028776e-38
1.573904 0.344140 -0.391608 2.341805152028776e-38
1.575611 0.336235 -0.391614 2.341805152028776e-38
1.579165 0.328750 -0.392123 2.341805152028776e-38
1.582676 0.321258 -0.392649 2.341805152028776e-38
1.582339 0.312989 -0.392226 2.341805152028776e-38
1.585776 0.305468 -0.392745 2.341805152028776e-38
1.587267 0.297566 -0.392787 2.341805152028776e-38
1.590631 0.290009 -0.393299 2.341805152028776e-38
1.592046 0.282089 -0.393335 2.341805152028776e-38
1.594379 0.274330 -0.393604 2.341805152028776e-38
1.592833 0.265933 -0.392946 2.341805152028776e-38
1.591233 0.257580 -0.392315 2.341805152028776e-38
1.600149 0.250907 -0.394282 2.341805152028776e-38
1.605196 0.243569 -0.395301 2.341805152028776e-38
1.601557 0.234920 -0.394187 2.341805152028776e-38
1.602683 0.226995 -0.394254 2.341805152028776e-38
1.601845 0.218802 -0.393844 2.341805152028776e-38
1.601930 0.210751 -0.393668 2.341805152028776e-38
1.601974 0.202706 -0.393489 2.341805152028776e-38
1.605837 0.195136 -0.394254 2.341805152028776e-38
1.609661 0.187538 -0.395027 2.341805152028776e-38
1.611515 0.179698 -0.395335 2.341805152028776e-38
1.615264 0.172050 -0.396114 2.341805152028776e-38
1.598679 0.162308 -0.391914 2.341805152028776e-38
1.511163 0.652221 -0.409157 2.341805152028776e-38
1.508391 0.641447 -0.407460 2.341805152028776e-38
1.511810 0.633356 -0.407446 2.341805152028776e-38
1.516083 0.625622 -0.407663 2.341805152028776e-38
1.517619 0.616770 -0.407149 2.341805152028776e-38
1.517302 0.607205 -0.406144 2.341805152028776e-38
1.517829 0.598022 -0.405371 2.341805152028776e-38
1.519165 0.589281 -0.404880 2.341805152028776e-38
1.523170 0.581587 -0.405105 2.341805152028776e-38
1.526228 0.573531 -0.405081 2.341805152028776e-38
1.528333 0.565128 -0.404808 2.341805152028776e-38
1.531304 0.557057 -0.404768 2.341805152028776e-38
1.535146 0.549303 -0.404961 2.341805152028776e-38
1.539831 0.541914 -0.405432 2.341805152028776e-38
1.540807 0.533235 -0.404938 2.341805152028776e-38
1.542653 0.524879 -0.404678 2.341805152028776e-38
1.544454 0.516524 -0.404410 2.341805152028776e-38
1.542522 0.506959 -0.403172 2.341805152028776e-38
1.546073 0.499223 -0.403372 2.341805152028776e-38
1.549567 0.491506 -0.403594 2.341805152028776e-38
1.551154 0.483224 -0.403352 2.341805152028776e-38
1.555480 0.475795 -0.403826 2.341805152028776e-38
1.555124 0.466945 -0.403089 2.341805152028776e-38
1.554717 0.458117 -0.402346 2.341805152028776e-38
1.556126 0.449850 -0.402079 2.341805152028776e-38
1.559358 0.442117 -0.402287 2.341805152028776e-38
1.563458 0.434684 -0.402781 2.341805152028776e-38
1.567521 0.427229 -0.403273 2.341805152028776e-38
1.568736 0.418998 -0.403036 2.341805152028776e-38
1.567090 0.410033 -0.402072 2.341805152028776e-38
1.564454 0.400861 -0.400861 2.341805152028776e-38
1.565531 0.392675 -0.400608 2.341805152028776e-38
1.568450 0.384958 -0.400832 2.341805152028776e-38
1.572250 0.377504 -0.401346 2.341805152028776e-38
1.571288 0.368917 -0.400652 2.341805152028776e-38
1.571227 0.360571 -0.400194 2.341805152028776e-38
1.572069 0.352451 -0.399973 2.341805152028776e-38
1.573817 0.344544 -0.399988 2.341805152028776e-38
1.574576 0.336431 -0.399759 2.341805152028776e-38
1.578143 0.328917 -0.400248 2.341805152028776e-38
1.581666 0.321398 -0.400756 2.341805152028776e-38
1.582284 0.313316 -0.400568 2.341805152028776e-38
1.581908 0.305054 -0.400136 2.341805152028776e-38
1.586259 0.297702 -0.400906 2.341805152028776e-38
1.588666 0.289969 -0.401190 2.341805152028776e-38
1.590081 0.282053 -0.401230 2.341805152028776e-38
1.591456 0.274133 -0.401267 2.341805152028776e-38
1.590878 0.265889 -0.400818 2.341805152028776e-38
1.593131 0.258127 -0.401089 2.341805152028776e-38
1.598207 0.250832 -0.402127 2.341805152028776e-38
1.600371 0.243060 -0.402443 2.341805152028776e-38
1.599616 0.234851 -0.402032 2.341805152028776e-38
1.601703 0.227065 -0.402342 2.341805152028776e-38
1.600867 0.218870 -0.401926 2.341805152028776e-38
1.600953 0.210818 -0.401747 2.341805152028776e-38
1.603887 0.203137 -0.402290 2.341805152028776e-38
1.604858 0.195198 -0.402347 2.341805152028776e-38
1.608682 0.187593 -0.403126 2.341805152028776e-38
1.607649 0.179419 -0.402695 2.341805152028776e-38
1.613327 0.171982 -0.403958 2.341805152028776e-38
1.597729 0.162342 -0.399917 2.341805152028776e-38
1.505359 0.650729 -0.416305 2.341805152028776e-38
1.507075 0.641835 -0.415780 2.341805152028776e-38
1.508709 0.632997 -0.415279 2.341805152028776e-38
1.513874 0.625647 -0.415753 2.341805152028776e-38
1.513618 0.616073 -0.414742 2.341805152028776e-38
1.515102 0.607247 -0.414215 2.341805152028776e-38
1.511125 0.596294 -0.412203 2.341805152028776e-38
1.515193 0.588589 -0.412412 2.341805152028776e-38
1.520098 0.581258 -0.412893 2.341805152028776e-38
1.522248 0.572873 -0.412629 2.341805152028776e-38
1.525259 0.564825 -0.412602 2.341805152028776e-38
1.527318 0.556434 -0.412322 2.341805152028776e-38
1.532068 0.549026 -0.412771 2.341805152028776e-38
1.536777 0.541597 -0.413218 2.341805152028776e-38
1.539586 0.533565 -0.413212 2.341805152028776e-38
1.538683 0.524274 -0.412215 2.341805152028776e-38
1.540482 0.515936 -0.411949 2.341805152028776e-38
1.541315 0.507296 -0.411429 2.341805152028776e-38
1.543945 0.499265 -0.411394 2.341805152028776e-38
1.544685 0.490639 -0.410860 2.341805152028776e-38
1.549054 0.483226 -0.411341 2.341805152028776e-38
1.551524 0.475236 -0.411339 2.341805152028776e-38
1.551169 0.466402 -0.410593 2.341805152028776e-38
1.551693 0.457864 -0.410086 2.341805152028776e-38
1.554033 0.449877 -0.410065 2.341805152028776e-38
1.557264 0.442150 -0.410284 2.341805152028776e-38
1.560456 0.434409 -0.410497 2.341805152028776e-38
1.562644 0.426454 -0.410512 2.341805152028776e-38
1.564793 0.418493 -0.410521 2.341805152028776e-38
1.563150 0.409543 -0.409543 2.341805152028776e-38
1.563335 0.401108 -0.409051 2.341805152028776e-38
1.563474 0.392687 -0.408553 2.341805152028776e-38
1.565451 0.384743 -0.408542 2.341805152028776e-38
1.566444 0.376568 -0.408280 2.341805152028776e-38
1.566428 0.368223 -0.407817 2.341805152028776e-38
1.567311 0.360112 -0.407600 2.341805152028776e-38
1.569097 0.352219 -0.407624 2.341805152028776e-38
1.570844 0.344321 -0.407645 2.341805152028776e-38
1.574447 0.336825 -0.408152 2.341805152028776e-38
1.578963 0.329503 -0.408901 2.341805152028776e-38
1.578696 0.321183 -0.408418 2.341805152028776e-38
1.579332 0.313074 -0.408185 2.341805152028776e-38
1.579910 0.305004 -0.407993 2.341805152028776e-38
1.584257 0.297656 -0.408781 2.341805152028776e-38
1.585709 0.289752 -0.408827 2.341805152028776e-38
1.587122 0.281843 -0.408871 2.341805152028776e-38
1.587542 0.273766 -0.408666 2.341805152028776e-38
1.589832 0.266015 -0.408949 2.341805152028776e-38
1.591128 0.258096 -0.408983 2.341805152028776e-38
1.593343 0.250324 -0.409260 2.341805152028776e-38
1.595514 0.242548 -0.409548 2.341805152028776e-38
1.598596 0.234920 -0.410114 2.341805152028776e-38
1.599722 0.226996 -0.410186 2.341805152028776e-38
1.599849 0.218936 -0.410008 2.341805152028776e-38
1.600897 0.211009 -0.410073 2.341805152028776e-38
1.602868 0.203199 -0.410382 2.341805152028776e-38
1.602877 0.195141 -0.410195 2.341805152028776e-38
1.605735 0.187427 -0.410744 2.341805152028776e-38
1.607593 0.179582 -0.411044 2.341805152028776e-38
1.611340 0.171931 -0.411834 2.341805152028776e-38
1.595767 0.162286 -0.407695 2.341805152028776e-38
1.505740 0.651924 -0.425168 2.341805152028776e-38
1.504808 0.641861 -0.423871 2.341805152028776e-38
1.511814 0.635258 -0.424854 2.341805152028776e-38
1.513411 0.626407 -0.424340 2.341805152028776e-38
1.513164 0.616832 -0.423316 2.341805152028776e-38
1.510163 0.606202 -0.421531 2.341805152028776e-38
1.513393 0.598119 -0.421493 2.341805152028776e-38
1.518384 0.590726 -0.421948 2.341805152028776e-38
1.522411 0.583001 -0.422173 2.341805152028776e-38
1.521853 0.573576 -0.421157 2.341805152028776e-38
1.523961 0.565189 -0.420885 2.341805152028776e-38
1.527842 0.557466 -0.421107 2.341805152028776e-38
1.532595 0.550050 -0.421571 2.341805152028776e-38
1.535486 0.541963 -0.421527 2.341805152028776e-38
1.537406 0.533572 -0.421241 2.341805152028776e-38
1.539257 0.525226 -0.420983 2.341805152028776e-38
1.538309 0.515957 -0.419965 2.341805152028776e-38
1.540983 0.507931 -0.419943 2.341805152028776e-38
1.541774 0.499301 -0.419412 2.341805152028776e-38
1.545285 0.491562 -0.419626 2.341805152028776e-38
1.548756 0.483808 -0.419833 2.341805152028776e-38
1.549383 0.475239 -0.419328 2.341805152028776e-38
1.549958 0.466690 -0.418824 2.341805152028776e-38
1.551415 0.458427 -0.418564 2.341805152028776e-38
1.553758 0.450438 -0.418549 2.341805152028776e-38
1.555128 0.442178 -0.418276 2.341805152028776e-38
1.557387 0.434182 -0.418249 2.341805152028776e-38
1.560537 0.426439 -0.418468 2.341805152028776e-38
1.559880 0.417732 -0.417732 2.341805152028776e-38
1.561047 0.409539 -0.417491 2.341805152028776e-38
1.561234 0.401109 -0.416994 2.341805152028776e-38
1.561376 0.392693 -0.416493 2.341805152028776e-38
1.563353 0.384754 -0.416487 2.341805152028776e-38
1.565289 0.376811 -0.416476 2.341805152028776e-38
1.565300 0.368421 -0.415959 2.341805152028776e-38
1.567134 0.360517 -0.415982 2.341805152028776e-38
1.568922 0.352619 -0.416011 2.341805152028776e-38
1.571616 0.344923 -0.416287 2.341805152028776e-38
1.574273 0.337214 -0.416558 2.341805152028776e-38
1.575944 0.329293 -0.416575 2.341805152028776e-38
1.576627 0.321175 -0.416337 2.341805152028776e-38
1.578218 0.313251 -0.416346 2.341805152028776e-38
1.578819 0.305141 -0.416101 2.341805152028776e-38
1.580312 0.297247 -0.416146 2.341805152028776e-38
1.582715 0.289530 -0.416447 2.341805152028776e-38
1.586034 0.281969 -0.416996 2.341805152028776e-38
1.586455 0.273890 -0.416790 2.341805152028776e-38
1.589700 0.266298 -0.417332 2.341805152028776e-38
1.590997 0.258372 -0.417370 2.341805152028776e-38
1.594168 0.250744 -0.417906 2.341805152028776e-38
1.597302 0.243093 -0.418440 2.341805152028776e-38
1.599443 0.235281 -0.418720 2.341805152028776e-38
1.596744 0.226789 -0.417769 2.341805152028776e-38
1.598790 0.219000 -0.418090 2.341805152028776e-38
1.598879 0.210944 -0.417907 2.341805152028776e-38
1.602769 0.203380 -0.418724 2.341805152028776e-38
1.602780 0.195316 -0.418535 2.341805152028776e-38
1.604674 0.187483 -0.418845 2.341805152028776e-38
1.606531 0.179636 -0.419152 2.341805152028776e-38
1.610275 0.171983 -0.419958 2.341805152028776e-38
1.596649 0.162533 -0.416243 2.341805152028776e-38
1.510503 0.655037 -0.435335 2.341805152028776e-38
1.509595 0.644945 -0.434020 2.341805152028776e-38
1.516642 0.638264 -0.434995 2.341805152028776e-38
1.515579 0.628272 -0.433710 2.341805152028776e-38
1.519822 0.620509 -0.433951 2.341805152028776e-38
1.520438 0.611282 -0.433160 2.341805152028776e-38
1.518302 0.601005 -0.431594 2.341805152028776e-38
1.519703 0.592179 -0.431042 2.341805152028776e-38
1.523760 0.584401 -0.431247 2.341805152028776e-38
1.522316 0.574614 -0.429956 2.341805152028776e-38
1.524431 0.566221 -0.429685 2.341805152028776e-38
1.527407 0.558159 -0.429662 2.341805152028776e-38
1.532161 0.550742 -0.430142 2.341805152028776e-38
1.535967 0.542975 -0.430358 2.341805152028776e-38
1.538820 0.534873 -0.430311 2.341805152028776e-38
1.542526 0.527111 -0.430541 2.341805152028776e-38
1.543426 0.518436 -0.430021 2.341805152028776e-38
1.542441 0.509166 -0.428983 2.341805152028776e-38
1.543241 0.500524 -0.428448 2.341805152028776e-38
1.547678 0.493067 -0.428928 2.341805152028776e-38
1.548387 0.484430 -0.428380 2.341805152028776e-38
1.549049 0.475805 -0.427825 2.341805152028776e-38
1.551482 0.467810 -0.427826 2.341805152028776e-38
1.553873 0.459809 -0.427822 2.341805152028776e-38
1.555294 0.451532 -0.427557 2.341805152028776e-38
1.553881 0.442465 -0.426520 2.341805152028776e-38
1.557073 0.434730 -0.426753 2.341805152028776e-38
1.559293 0.426725 -0.426725 2.341805152028776e-38
1.560537 0.418468 -0.426439 2.341805152028776e-38
1.558904 0.409529 -0.425433 2.341805152028776e-38
1.560966 0.401586 -0.425443 2.341805152028776e-38
1.562051 0.393402 -0.425192 2.341805152028776e-38
1.564031 0.385454 -0.425192 2.341805152028776e-38
1.565031 0.377275 -0.424931 2.341805152028776e-38
1.565988 0.369102 -0.424665 2.341805152028776e-38
1.568787 0.361368 -0.424905 2.341805152028776e-38
1.570589 0.353438 -0.424920 2.341805152028776e-38
1.571397 0.345313 -0.424695 2.341805152028776e-38
1.573109 0.337395 -0.424721 2.341805152028776e-38
1.574782 0.329473 -0.424743 2.341805152028776e-38
1.577362 0.321741 -0.425016 2.341805152028776e-38
1.577059 0.313430 -0.424519 2.341805152028776e-38
1.578611 0.305502 -0.424529 2.341805152028776e-38
1.579173 0.297393 -0.424281 2.341805152028776e-38
1.584440 0.290176 -0.425326 2.341805152028776e-38
1.584904 0.282090 -0.425122 2.341805152028776e-38
1.587232 0.274340 -0.425426 2.341805152028776e-38
1.588570 0.266416 -0.425470 2.341805152028776e-38
1.592731 0.258954 -0.426278 2.341805152028776e-38
1.594947 0.251160 -0.426573 2.341805152028776e-38
1.597125 0.243352 -0.426864 2.341805152028776e-38
1.594483 0.234828 -0.425875 2.341805152028776e-38
1.595625 0.226884 -0.425905 2.341805152028776e-38
1.596727 0.218937 -0.425933 2.341805152028776e-38
1.599697 0.211256 -0.426498 2.341805152028776e-38
1.598790 0.203072 -0.426054 2.341805152028776e-38
1.600720 0.195255 -0.426373 2.341805152028776e-38
1.604534 0.187649 -0.427201 2.341805152028776e-38
1.604468 0.179581 -0.427004 2.341805152028776e-38
1.608208 0.171930 -0.427826 2.341805152028776e-38
1.594601 0.162483 -0.424042 2.341805152028776e-38
1.506344 0.654298 -0.442972 2.341805152028776e-38
1.508990 0.645744 -0.442680 2.341805152028776e-38
1.513366 0.637937 -0.442899 2.341805152028776e-38
1.517689 0.630131 -0.443125 2.341805152028776e-38
1.521047 0.621987 -0.443115 2.341805152028776e-38
1.520780 0.612389 -0.442056 2.341805152028776e-38
1.520453 0.602818 -0.440988 2.341805152028776e-38
1.520966 0.593626 -0.440171 2.341805152028776e-38
1.523228 0.585144 -0.439867 2.341805152028776e-38
1.525437 0.576671 -0.439561 2.341805152028776e-38
1.529374 0.568930 -0.439811 2.341805152028776e-38
1.535992 0.562166 -0.440835 2.341805152028776e-38
1.538038 0.553718 -0.440549 2.341805152028776e-38
1.540948 0.545594 -0.440516 2.341805152028776e-38
1.541992 0.536826 -0.439955 2.341805152028776e-38
1.547553 0.529632 -0.440686 2.341805152028776e-38
1.543903 0.519370 -0.438847 2.341805152028776e-38
1.543846 0.510396 -0.438056 2.341805152028776e-38
1.548328 0.502934 -0.438559 2.341805152028776e-38
1.552774 0.495446 -0.439054 2.341805152028776e-38
1.552578 0.486489 -0.438242 2.341805152028776e-38
1.553253 0.477837 -0.437683 2.341805152028776e-38
1.554802 0.469482 -0.437381 2.341805152028776e-38
1.560905 0.462556 -0.438423 2.341805152028776e-38
