VERSION .7
FIELDS x y z rgb
SIZE 4 4 4 4
TYPE F F F F
COUNT 1 1 1 1
WIDTH 965
HEIGHT 1
VIEWPOINT 0 0 0 1 0 0 0
POINTS 965
DATA ascii
1.798376 0.214370 0.056874 2.341805152028776e-38
1.800385 0.205773 0.056916 2.341805152028776e-38
1.799373 0.196834 0.056863 2.341805152028776e-38
1.800305 0.188118 0.056873 2.341805152028776e-38
1.802189 0.179497 0.056914 2.341805152028776e-38
1.803037 0.170768 0.056923 2.341805152028776e-38
1.802847 0.161945 0.056900 2.341805152028776e-38
1.803610 0.153213 0.056908 2.341805152028776e-38
1.806323 0.144637 0.056978 2.341805152028776e-38
1.807002 0.135888 0.056985 2.341805152028776e-38
1.805645 0.126996 0.056929 2.341805152028776e-38
1.805241 0.118185 0.056904 2.341805152028776e-38
1.806789 0.109502 0.056941 2.341805152028776e-38
1.808296 0.100807 0.056978 2.341805152028776e-38
1.810760 0.092151 0.057046 2.341805152028776e-38
1.812183 0.083427 0.057082 2.341805152028776e-38
1.813564 0.074691 0.057117 2.341805152028776e-38
1.814903 0.065945 0.057152 2.341805152028776e-38
1.811205 0.057029 0.057029 2.341805152028776e-38
1.871409 0.049855 0.058919 2.341805152028776e-38
1.926588 0.041990 0.060652 2.341805152028776e-38
1.767514 0.641575 0.049352 2.341805152028776e-38
1.743454 0.622825 0.048589 2.341805152028776e-38
1.737156 0.610671 0.048326 2.341805152028776e-38
1.738307 0.601296 0.048279 2.341805152028776e-38
1.738462 0.591604 0.048205 2.341805152028776e-38
1.741407 0.582877 0.048208 2.341805152028776e-38
1.742410 0.573511 0.048157 2.341805152028776e-38
1.743351 0.564181 0.048108 2.341805152028776e-38
1.744215 0.554945 0.048066 2.341805152028776e-38
1.747892 0.546610 0.048102 2.341805152028776e-38
1.749619 0.537664 0.048084 2.341805152028776e-38
1.750343 0.528426 0.048039 2.341805152028776e-38
1.750050 0.518940 0.047969 2.341805152028776e-38
1.752560 0.510399 0.047986 2.341805152028776e-38
1.754067 0.501571 0.047976 2.341805152028776e-38
1.756491 0.493011 0.047992 2.341805152028776e-38
1.757910 0.484174 0.047981 2.341805152028776e-38
1.759282 0.475349 0.047971 2.341805152028776e-38
1.762528 0.467080 0.048018 2.341805152028776e-38
1.764769 0.458541 0.048038 2.341805152028776e-38
1.763093 0.449003 0.047952 2.341805152028776e-38
1.766216 0.440703 0.047997 2.341805152028776e-38
1.767357 0.431908 0.047990 2.341805152028776e-38
1.769428 0.423345 0.048008 2.341805152028776e-38
1.771456 0.414773 0.048026 2.341805152028776e-38
1.774418 0.406413 0.048070 2.341805152028776e-38
1.775389 0.397598 0.048061 2.341805152028776e-38
1.777293 0.388997 0.048078 2.341805152028776e-38
1.778177 0.380178 0.048068 2.341805152028776e-38
1.779997 0.371563 0.048085 2.341805152028776e-38
1.779816 0.362541 0.048048 2.341805152028776e-38
1.781550 0.353918 0.048063 2.341805152028776e-38
1.781280 0.344908 0.048025 2.341805152028776e-38
1.785875 0.336835 0.048119 2.341805152028776e-38
1.783552 0.327461 0.048028 2.341805152028776e-38
1.785117 0.318821 0.048042 2.341805152028776e-38
1.786639 0.310174 0.048055 2.341805152028776e-38
1.789105 0.301685 0.048095 2.341805152028776e-38
1.789558 0.292857 0.048081 2.341805152028776e-38
1.790955 0.284189 0.048093 2.341805152028776e-38
1.790334 0.275210 0.048052 2.341805152028776e-38
1.792634 0.266685 0.048091 2.341805152028776e-38
1.794893 0.258144 0.048128 2.341805152028776e-38
1.795132 0.249312 0.048113 2.341805152028776e-38
1.795327 0.240484 0.048097 2.341805152028776e-38
1.795478 0.231660 0.048080 2.341805152028776e-38
1.797571 0.223087 0.048117 2.341805152028776e-38
1.798630 0.214380 0.048126 2.341805152028776e-38
1.799646 0.205669 0.048135 2.341805152028776e-38
1.800621 0.196952 0.048144 2.341805152028776e-38
1.800559 0.188127 0.048126 2.341805152028776e-38
1.801449 0.179407 0.048133 2.341805152028776e-38
1.804286 0.170870 0.048194 2.341805152028776e-38
1.805092 0.162132 0.048201 2.341805152028776e-38
1.806852 0.153474 0.048235 2.341805152028776e-38
1.806578 0.144644 0.048215 2.341805152028776e-38
1.805263 0.135744 0.048167 2.341805152028776e-38
1.806896 0.127072 0.048200 2.341805152028776e-38
1.804498 0.118125 0.048125 2.341805152028776e-38
1.807044 0.109507 0.048183 2.341805152028776e-38
1.810547 0.100923 0.048268 2.341805152028776e-38
1.812013 0.092206 0.048298 2.341805152028776e-38
1.814435 0.083523 0.048355 2.341805152028776e-38
1.815817 0.074777 0.048385 2.341805152028776e-38
1.816158 0.065984 0.048388 2.341805152028776e-38
1.810461 0.057001 0.048231 2.341805152028776e-38
1.882665 0.050150 0.050150 2.341805152028776e-38
2.050786 0.044693 0.054624 2.341805152028776e-38
1.744620 0.623159 0.039776 2.341805152028776e-38
1.739262 0.611339 0.039583 2.341805152028776e-38
1.737582 0.600974 0.039480 2.341805152028776e-38
1.738682 0.591607 0.039440 2.341805152028776e-38
1.741627 0.582879 0.039443 2.341805152028776e-38
1.742629 0.573512 0.039402 2.341805152028776e-38
1.742617 0.563883 0.039341 2.341805152028776e-38
1.745384 0.555257 0.039349 2.341805152028776e-38
1.747155 0.546319 0.039335 2.341805152028776e-38
1.748879 0.537378 0.039320 2.341805152028776e-38
1.749601 0.528143 0.039283 2.341805152028776e-38
1.752180 0.519524 0.039292 2.341805152028776e-38
1.751813 0.510135 0.039241 2.341805152028776e-38
1.754279 0.501586 0.039255 2.341805152028776e-38
1.756704 0.493025 0.039268 2.341805152028776e-38
1.759087 0.484453 0.039280 2.341805152028776e-38
1.760458 0.475628 0.039272 2.341805152028776e-38
1.763706 0.467355 0.039310 2.341805152028776e-38
1.764013 0.458307 0.039283 2.341805152028776e-38
1.765242 0.449514 0.039278 2.341805152028776e-38
1.766427 0.440720 0.039272 2.341805152028776e-38
1.766597 0.431688 0.039244 2.341805152028776e-38
1.769639 0.423362 0.039281 2.341805152028776e-38
1.770694 0.414561 0.039274 2.341805152028776e-38
1.773655 0.406206 0.039310 2.341805152028776e-38
1.774625 0.397395 0.039303 2.341805152028776e-38
1.776528 0.388799 0.039317 2.341805152028776e-38
1.779367 0.380402 0.039352 2.341805152028776e-38
1.780209 0.371578 0.039344 2.341805152028776e-38
1.781007 0.362755 0.039335 2.341805152028776e-38
1.780781 0.353738 0.039304 2.341805152028776e-38
1.783454 0.345301 0.039338 2.341805152028776e-38
1.782157 0.336107 0.039285 2.341805152028776e-38
1.782780 0.327293 0.039275 2.341805152028776e-38
1.786312 0.319009 0.039330 2.341805152028776e-38
1.788821 0.310528 0.039363 2.341805152028776e-38
1.788331 0.301531 0.039330 2.341805152028776e-38
1.789770 0.292869 0.039341 2.341805152028776e-38
1.791167 0.284200 0.039351 2.341805152028776e-38
1.793510 0.275676 0.039382 2.341805152028776e-38
1.792845 0.266695 0.039348 2.341805152028776e-38
1.795105 0.258154 0.039379 2.341805152028776e-38
1.795343 0.249322 0.039367 2.341805152028776e-38
1.794547 0.240361 0.039332 2.341805152028776e-38
1.797673 0.231925 0.039384 2.341805152028776e-38
1.797783 0.223096 0.039370 2.341805152028776e-38
1.798842 0.214389 0.039378 2.341805152028776e-38
1.799858 0.205677 0.039385 2.341805152028776e-38
1.799839 0.196851 0.039370 2.341805152028776e-38
1.799777 0.188031 0.039355 2.341805152028776e-38
1.802655 0.179513 0.039405 2.341805152028776e-38
1.804499 0.170877 0.039433 2.341805152028776e-38
1.806300 0.162228 0.039461 2.341805152028776e-38
1.805072 0.153311 0.039423 2.341805152028776e-38
1.806790 0.144649 0.039450 2.341805152028776e-38
1.807469 0.135900 0.039455 2.341805152028776e-38
1.807108 0.127077 0.039438 2.341805152028776e-38
1.807702 0.118326 0.039442 2.341805152028776e-38
1.810250 0.109693 0.039489 2.341805152028776e-38
1.810760 0.100927 0.039493 2.341805152028776e-38
1.813224 0.092260 0.039540 2.341805152028776e-38
1.815647 0.083572 0.039587 2.341805152028776e-38
1.816030 0.074780 0.039590 2.341805152028776e-38
1.815372 0.065950 0.039570 2.341805152028776e-38
1.813671 0.057097 0.039529 2.341805152028776e-38
1.744800 0.623158 0.030937 2.341805152028776e-38
1.739439 0.611343 0.030787 2.341805152028776e-38
1.740593 0.601958 0.030757 2.341805152028776e-38
1.740751 0.592254 0.030709 2.341805152028776e-38
1.740855 0.582564 0.030661 2.341805152028776e-38
1.742805 0.573513 0.030646 2.341805152028776e-38
1.742790 0.563890 0.030599 2.341805152028776e-38
1.746510 0.555567 0.030622 2.341805152028776e-38
1.746373 0.546027 0.030578 2.341805152028776e-38
1.747141 0.536796 0.030549 2.341805152028776e-38
1.748817 0.527859 0.030537 2.341805152028776e-38
1.753309 0.519821 0.030578 2.341805152028776e-38
1.753903 0.510706 0.030555 2.341805152028776e-38
1.756372 0.502147 0.030565 2.341805152028776e-38
1.757837 0.493307 0.030559 2.341805152028776e-38
1.760221 0.484730 0.030569 2.341805152028776e-38
1.761592 0.475904 0.030563 2.341805152028776e-38
1.762909 0.467113 0.030559 2.341805152028776e-38
1.763214 0.458070 0.030538 2.341805152028776e-38
1.766380 0.449775 0.030567 2.341805152028776e-38
1.767566 0.440976 0.030563 2.341805152028776e-38
1.768709 0.432176 0.030558 2.341805152028776e-38
1.769808 0.423375 0.030553 2.341805152028776e-38
1.771837 0.414802 0.030564 2.341805152028776e-38
1.772849 0.405996 0.030559 2.341805152028776e-38
1.773818 0.397189 0.030553 2.341805152028776e-38
1.776697 0.388811 0.030581 2.341805152028776e-38
1.778558 0.380204 0.030591 2.341805152028776e-38
1.780378 0.371589 0.030601 2.341805152028776e-38
1.781176 0.362766 0.030595 2.341805152028776e-38
1.781931 0.353943 0.030588 2.341805152028776e-38
1.782642 0.345122 0.030580 2.341805152028776e-38
1.784292 0.336488 0.030590 2.341805152028776e-38
1.785900 0.327845 0.030599 2.341805152028776e-38
1.787466 0.319195 0.030608 2.341805152028776e-38
1.788990 0.310538 0.030616 2.341805152028776e-38
1.788500 0.301540 0.030591 2.341805152028776e-38
1.790926 0.293039 0.030616 2.341805152028776e-38
1.789361 0.283895 0.030573 2.341805152028776e-38
1.791703 0.275381 0.030598 2.341805152028776e-38
1.794004 0.266850 0.030622 2.341805152028776e-38
1.795274 0.258162 0.030629 2.341805152028776e-38
1.796503 0.249467 0.030636 2.341805152028776e-38
1.797690 0.240767 0.030643 2.341805152028776e-38
1.795859 0.231677 0.030599 2.341805152028776e-38
1.797952 0.223103 0.030622 2.341805152028776e-38
1.799011 0.214395 0.030628 2.341805152028776e-38
1.801021 0.205797 0.030651 2.341805152028776e-38
1.801002 0.196966 0.030639 2.341805152028776e-38
1.799946 0.188037 0.030611 2.341805152028776e-38
1.800835 0.179320 0.030616 2.341805152028776e-38
1.802677 0.170694 0.030637 2.341805152028776e-38
1.803483 0.161964 0.030642 2.341805152028776e-38
1.806238 0.153400 0.030680 2.341805152028776e-38
1.806960 0.144654 0.030684 2.341805152028776e-38
1.809633 0.136054 0.030722 2.341805152028776e-38
1.809273 0.127221 0.030708 2.341805152028776e-38
1.808870 0.118395 0.030695 2.341805152028776e-38
1.808424 0.109575 0.030681 2.341805152028776e-38
1.810929 0.100930 0.030718 2.341805152028776e-38
1.814393 0.092314 0.030771 2.341805152028776e-38
1.816816 0.083621 0.030808 2.341805152028776e-38
1.816200 0.074783 0.030793 2.341805152028776e-38
1.817540 0.066025 0.030812 2.341805152028776e-38
1.814840 0.057130 0.030763 2.341805152028776e-38
1.919044 0.051112 0.032526 2.341805152028776e-38
1.917270 0.041777 0.032493 2.341805152028776e-38
1.744935 0.623156 0.022098 2.341805152028776e-38
1.740515 0.611678 0.022003 2.341805152028776e-38
1.739780 0.601633 0.021957 2.341805152028776e-38
1.738989 0.591612 0.021912 2.341805152028776e-38
1.740038 0.582248 0.021889 2.341805152028776e-38
1.741037 0.572888 0.021866 2.341805152028776e-38
1.740065 0.562973 0.021821 2.341805152028776e-38
1.743781 0.554663 0.021837 2.341805152028776e-38
1.744594 0.545435 0.021817 2.341805152028776e-38
1.748226 0.537094 0.021833 2.341805152028776e-38
1.749904 0.528152 0.021824 2.341805152028776e-38
1.753437 0.519830 0.021842 2.341805152028776e-38
1.753070 0.510435 0.021813 2.341805152028776e-38
1.755538 0.501881 0.021821 2.341805152028776e-38
1.756039 0.492775 0.021804 2.341805152028776e-38
1.758421 0.484207 0.021811 2.341805152028776e-38
1.759788 0.475393 0.021807 2.341805152028776e-38
1.761102 0.466612 0.021804 2.341805152028776e-38
1.765276 0.458584 0.021837 2.341805152028776e-38
1.766506 0.449786 0.021834 2.341805152028776e-38
1.766723 0.440744 0.021819 2.341805152028776e-38
1.769807 0.432424 0.021840 2.341805152028776e-38
1.770907 0.423618 0.021836 2.341805152028776e-38
1.770990 0.414584 0.021820 2.341805152028776e-38
1.772976 0.406005 0.021828 2.341805152028776e-38
1.773945 0.397199 0.021824 2.341805152028776e-38
1.775847 0.388606 0.021832 2.341805152028776e-38
1.777707 0.380004 0.021839 2.341805152028776e-38
1.778547 0.371189 0.021835 2.341805152028776e-38
1.780323 0.362575 0.021842 2.341805152028776e-38
1.781077 0.353757 0.021837 2.341805152028776e-38
1.782769 0.345130 0.021844 2.341805152028776e-38
1.785401 0.336681 0.021862 2.341805152028776e-38
1.787010 0.328034 0.021869 2.341805152028776e-38
1.787593 0.319203 0.021863 2.341805152028776e-38
1.789117 0.310545 0.021869 2.341805152028776e-38
1.789613 0.301714 0.021863 2.341805152028776e-38
1.789079 0.292723 0.021845 2.341805152028776e-38
1.788500 0.283745 0.021827 2.341805152028776e-38
1.789853 0.275084 0.021832 2.341805152028776e-38
1.792153 0.266562 0.021849 2.341805152028776e-38
1.795402 0.258168 0.021879 2.341805152028776e-38
1.795640 0.249335 0.021872 2.341805152028776e-38
1.796826 0.240640 0.021876 2.341805152028776e-38
1.795986 0.231682 0.021857 2.341805152028776e-38
1.796094 0.222862 0.021849 2.341805152028776e-38
1.798145 0.214282 0.021866 2.341805152028776e-38
1.800155 0.205688 0.021882 2.341805152028776e-38
1.799142 0.196753 0.021861 2.341805152028776e-38
1.799078 0.187937 0.021853 2.341805152028776e-38
1.800962 0.179324 0.021869 2.341805152028776e-38
1.801809 0.170604 0.021872 2.341805152028776e-38
1.804606 0.162058 0.021900 2.341805152028776e-38
1.804373 0.153235 0.021891 2.341805152028776e-38
1.807087 0.144657 0.021918 2.341805152028776e-38
1.808763 0.135982 0.021933 2.341805152028776e-38
1.808403 0.127154 0.021923 2.341805152028776e-38
1.807999 0.118332 0.021913 2.341805152028776e-38
1.808551 0.109578 0.021916 2.341805152028776e-38
1.810059 0.100877 0.021930 2.341805152028776e-38
1.814520 0.092316 0.021980 2.341805152028776e-38
1.814946 0.083531 0.021982 2.341805152028776e-38
1.816328 0.074784 0.021995 2.341805152028776e-38
1.817668 0.066027 0.022009 2.341805152028776e-38
1.814968 0.057132 0.021974 2.341805152028776e-38
1.914181 0.050980 0.023173 2.341805152028776e-38
1.911406 0.041647 0.023137 2.341805152028776e-38
1.767213 0.641230 0.013452 2.341805152028776e-38
1.745966 0.623491 0.013266 2.341805152028776e-38
1.740603 0.611680 0.013202 2.341805152028776e-38
1.739869 0.601635 0.013174 2.341805152028776e-38
1.739077 0.591613 0.013147 2.341805152028776e-38
1.739178 0.581931 0.013126 2.341805152028776e-38
1.743974 0.573826 0.013141 2.341805152028776e-38
1.753471 0.567286 0.013193 2.341805152028776e-38
1.755303 0.558304 0.013188 2.341805152028776e-38
1.749452 0.546930 0.013126 2.341805152028776e-38
1.751180 0.537978 0.013121 2.341805152028776e-38
1.751905 0.528732 0.013109 2.341805152028776e-38
1.751605 0.519268 0.013091 2.341805152028776e-38
1.754116 0.510721 0.013095 2.341805152028776e-38
1.755623 0.501887 0.013093 2.341805152028776e-38
1.758050 0.493321 0.013097 2.341805152028776e-38
1.760434 0.484743 0.013101 2.341805152028776e-38
1.764700 0.476705 0.013120 2.341805152028776e-38
1.766020 0.467900 0.013119 2.341805152028776e-38
1.767296 0.459094 0.013117 2.341805152028776e-38
1.765622 0.449546 0.013094 2.341805152028776e-38
1.768748 0.441235 0.013106 2.341805152028776e-38
1.770863 0.432668 0.013111 2.341805152028776e-38
1.772937 0.424090 0.013116 2.341805152028776e-38
1.773022 0.415046 0.013107 2.341805152028776e-38
1.775010 0.406458 0.013112 2.341805152028776e-38
1.776957 0.397860 0.013116 2.341805152028776e-38
1.777885 0.389040 0.013114 2.341805152028776e-38
1.778770 0.380219 0.013111 2.341805152028776e-38
1.780590 0.371604 0.013115 2.341805152028776e-38
1.782368 0.362980 0.013120 2.341805152028776e-38
1.782142 0.353957 0.013110 2.341805152028776e-38
1.782853 0.345136 0.013106 2.341805152028776e-38
1.785486 0.336686 0.013118 2.341805152028776e-38
1.787095 0.328039 0.013122 2.341805152028776e-38
1.787677 0.319208 0.013118 2.341805152028776e-38
1.789202 0.310550 0.013122 2.341805152028776e-38
1.790684 0.301885 0.013125 2.341805152028776e-38
1.789164 0.292728 0.013107 2.341805152028776e-38
1.789572 0.283906 0.013103 2.341805152028776e-38
1.790926 0.275240 0.013107 2.341805152028776e-38
1.792237 0.266567 0.013110 2.341805152028776e-38
1.793507 0.257887 0.013113 2.341805152028776e-38
1.795725 0.249339 0.013123 2.341805152028776e-38
1.795919 0.240511 0.013119 2.341805152028776e-38
1.797063 0.231814 0.013122 2.341805152028776e-38
1.799156 0.223234 0.013131 2.341805152028776e-38
1.801209 0.214640 0.013141 2.341805152028776e-38
1.800240 0.205691 0.013129 2.341805152028776e-38
1.800220 0.196865 0.013124 2.341805152028776e-38
1.802147 0.188252 0.013134 2.341805152028776e-38
1.802042 0.179426 0.013129 2.341805152028776e-38
1.803885 0.170795 0.013138 2.341805152028776e-38
1.803695 0.161971 0.013133 2.341805152028776e-38
1.805454 0.153322 0.013142 2.341805152028776e-38
1.807172 0.144659 0.013151 2.341805152028776e-38
1.806854 0.135834 0.013145 2.341805152028776e-38
1.807490 0.127086 0.013147 2.341805152028776e-38
1.807086 0.118269 0.013141 2.341805152028776e-38
1.808636 0.109580 0.013150 2.341805152028776e-38
1.811142 0.100934 0.013165 2.341805152028776e-38
1.812608 0.092216 0.013174 2.341805152028776e-38
1.815031 0.083532 0.013189 2.341805152028776e-38
1.817412 0.074827 0.013205 2.341805152028776e-38
1.817753 0.066028 0.013206 2.341805152028776e-38
1.814054 0.057101 0.013177 2.341805152028776e-38
1.910272 0.050874 0.013875 2.341805152028776e-38
1.895500 0.041299 0.013766 2.341805152028776e-38
1.754098 0.636455 0.004451 2.341805152028776e-38
1.745070 0.623155 0.004420 2.341805152028776e-38
1.742534 0.612344 0.004405 2.341805152028776e-38
1.739913 0.601636 0.004392 2.341805152028776e-38
1.741015 0.592258 0.004387 2.341805152028776e-38
1.742067 0.582884 0.004383 2.341805152028776e-38
1.759217 0.578827 0.004419 2.341805152028776e-38
1.766835 0.571597 0.004431 2.341805152028776e-38
1.765829 0.561639 0.004422 2.341805152028776e-38
1.759040 0.549916 0.004399 2.341805152028776e-38
1.753135 0.538566 0.004379 2.341805152028776e-38
1.754820 0.529601 0.004377 2.341805152028776e-38
1.757400 0.520976 0.004378 2.341805152028776e-38
1.758959 0.512122 0.004377 2.341805152028776e-38
1.761435 0.503539 0.004379 2.341805152028776e-38
1.761944 0.494405 0.004375 2.341805152028776e-38
1.767226 0.486604 0.004384 2.341805152028776e-38
1.772465 0.478795 0.004393 2.341805152028776e-38
1.773795 0.469953 0.004392 2.341805152028776e-38
1.767339 0.459097 0.004372 2.341805152028776e-38
1.767602 0.450043 0.004369 2.341805152028776e-38
1.769760 0.441481 0.004371 2.341805152028776e-38
1.770905 0.432671 0.004370 2.341805152028776e-38
1.772979 0.424093 0.004372 2.341805152028776e-38
1.774038 0.415277 0.004371 2.341805152028776e-38
1.779926 0.407577 0.004383 2.341805152028776e-38
1.780903 0.398737 0.004382 2.341805152028776e-38
1.778905 0.389257 0.004374 2.341805152028776e-38
1.779790 0.380431 0.004373 2.341805152028776e-38
1.786505 0.372833 0.004386 2.341805152028776e-38
1.785350 0.363581 0.004380 2.341805152028776e-38
1.784146 0.354350 0.004375 2.341805152028776e-38
1.785841 0.345709 0.004376 2.341805152028776e-38
1.788476 0.337245 0.004380 2.341805152028776e-38
1.789104 0.328402 0.004379 2.341805152028776e-38
1.791657 0.319913 0.004382 2.341805152028776e-38
1.792200 0.311065 0.004381 2.341805152028776e-38
1.792699 0.302219 0.004380 2.341805152028776e-38
1.792167 0.293215 0.004376 2.341805152028776e-38
1.792578 0.284379 0.004375 2.341805152028776e-38
1.792945 0.275546 0.004374 2.341805152028776e-38
1.792280 0.266569 0.004370 2.341805152028776e-38
1.791569 0.257605 0.004366 2.341805152028776e-38
1.790814 0.248654 0.004362 2.341805152028776e-38
1.794971 0.240380 0.004371 2.341805152028776e-38
1.797105 0.231815 0.004374 2.341805152028776e-38
1.800191 0.223359 0.004380 2.341805152028776e-38
1.804230 0.214997 0.004388 2.341805152028776e-38
1.804256 0.206147 0.004386 2.341805152028776e-38
1.804239 0.197301 0.004384 2.341805152028776e-38
1.804178 0.188461 0.004383 2.341805152028776e-38
1.805069 0.179725 0.004384 2.341805152028776e-38
1.805918 0.170985 0.004384 2.341805152028776e-38
1.805729 0.162151 0.004382 2.341805152028776e-38
1.805496 0.153323 0.004381 2.341805152028776e-38
1.806217 0.144581 0.004381 2.341805152028776e-38
1.807893 0.135910 0.004384 2.341805152028776e-38
1.809528 0.127227 0.004387 2.341805152028776e-38
1.809124 0.118400 0.004385 2.341805152028776e-38
1.811673 0.109762 0.004390 2.341805152028776e-38
1.813181 0.101046 0.004393 2.341805152028776e-38
1.813649 0.092267 0.004394 2.341805152028776e-38
1.816072 0.083579 0.004399 2.341805152028776e-38
1.817455 0.074827 0.004402 2.341805152028776e-38
1.818795 0.066064 0.004404 2.341805152028776e-38
1.814096 0.057102 0.004392 2.341805152028776e-38
1.920313 0.051141 0.004649 2.341805152028776e-38
1.799630 0.663351 -0.004575 2.341805152028776e-38
1.752218 0.635773 -0.004446 2.341805152028776e-38
1.745070 0.623155 -0.004420 2.341805152028776e-38
1.743477 0.612676 -0.004408 2.341805152028776e-38
1.742748 0.602616 -0.004399 2.341805152028776e-38
1.744802 0.593546 -0.004397 2.341805152028776e-38
1.746808 0.584470 -0.004395 2.341805152028776e-38
1.760167 0.579140 -0.004421 2.341805152028776e-38
1.763981 0.570674 -0.004424 2.341805152028776e-38
1.761064 0.560124 -0.004410 2.341805152028776e-38
1.759995 0.550214 -0.004402 2.341805152028776e-38
1.756959 0.539741 -0.004388 2.341805152028776e-38
1.757692 0.530467 -0.004384 2.341805152028776e-38
1.760276 0.521829 -0.004385 2.341805152028776e-38
1.762799 0.513240 -0.004387 2.341805152028776e-38
1.765281 0.504639 -0.004388 2.341805152028776e-38
1.760981 0.494134 -0.004373 2.341805152028776e-38
1.766261 0.486339 -0.004381 2.341805152028776e-38
1.768603 0.477752 -0.004383 2.341805152028776e-38
1.767996 0.468416 -0.004378 2.341805152028776e-38
1.769275 0.459600 -0.004377 2.341805152028776e-38
1.768571 0.450290 -0.004372 2.341805152028776e-38
1.770731 0.441723 -0.004373 2.341805152028776e-38
1.773820 0.433383 -0.004378 2.341805152028776e-38
1.774924 0.424558 -0.004377 2.341805152028776e-38
1.777932 0.416189 -0.004381 2.341805152028776e-38
1.780901 0.407800 -0.004385 2.341805152028776e-38
1.782854 0.399174 -0.004387 2.341805152028776e-38
1.781835 0.389898 -0.004381 2.341805152028776e-38
1.783702 0.381267 -0.004382 2.341805152028776e-38
1.785527 0.372628 -0.004384 2.341805152028776e-38
1.783390 0.363182 -0.004376 2.341805152028776e-38
1.782185 0.353960 -0.004370 2.341805152028776e-38
1.786823 0.345899 -0.004378 2.341805152028776e-38
1.790442 0.337615 -0.004385 2.341805152028776e-38
1.792055 0.328944 -0.004386 2.341805152028776e-38
1.792642 0.320089 -0.004385 2.341805152028776e-38
1.792200 0.311065 -0.004381 2.341805152028776e-38
1.794671 0.302552 -0.004385 2.341805152028776e-38
1.796114 0.293860 -0.004386 2.341805152028776e-38
1.796528 0.285005 -0.004385 2.341805152028776e-38
1.795910 0.276001 -0.004381 2.341805152028776e-38
1.792280 0.266569 -0.004370 2.341805152028776e-38
1.794539 0.258032 -0.004373 2.341805152028776e-38
1.803691 0.250442 -0.004394 2.341805152028776e-38
1.805873 0.241840 -0.004397 2.341805152028776e-38
1.803056 0.232583 -0.004388 2.341805152028776e-38
1.803168 0.223729 -0.004387 2.341805152028776e-38
1.804230 0.214997 -0.004388 2.341805152028776e-38
1.805250 0.206260 -0.004389 2.341805152028776e-38
1.806227 0.197519 -0.004389 2.341805152028776e-38
1.807162 0.188773 -0.004390 2.341805152028776e-38
1.807060 0.179923 -0.004388 2.341805152028776e-38
1.807909 0.171173 -0.004389 2.341805152028776e-38
1.806725 0.162240 -0.004385 2.341805152028776e-38
1.806493 0.153407 -0.004383 2.341805152028776e-38
1.810205 0.144900 -0.004391 2.341805152028776e-38
1.812879 0.136285 -0.004396 2.341805152028776e-38
1.812520 0.127437 -0.004394 2.341805152028776e-38
1.814114 0.118727 -0.004397 2.341805152028776e-38
1.814667 0.109943 -0.004398 2.341805152028776e-38
1.815178 0.101157 -0.004398 2.341805152028776e-38
1.815647 0.092369 -0.004399 2.341805152028776e-38
1.818070 0.083670 -0.004404 2.341805152028776e-38
1.819453 0.074909 -0.004406 2.341805152028776e-38
1.820794 0.066137 -0.004409 2.341805152028776e-38
1.820093 0.057290 -0.004407 2.341805152028776e-38
1.931310 0.051434 -0.004676 2.341805152028776e-38
1.829608 0.674419 -0.013953 2.341805152028776e-38
1.754993 0.636796 -0.013359 2.341805152028776e-38
1.745025 0.623155 -0.013259 2.341805152028776e-38
1.743433 0.612675 -0.013223 2.341805152028776e-38
1.744594 0.603269 -0.013210 2.341805152028776e-38
1.744758 0.593545 -0.013190 2.341805152028776e-38
1.748661 0.585104 -0.013198 2.341805152028776e-38
1.752523 0.576639 -0.013205 2.341805152028776e-38
1.754423 0.567594 -0.013200 2.341805152028776e-38
1.757208 0.558910 -0.013203 2.341805152028776e-38
1.756133 0.549019 -0.013176 2.341805152028776e-38
1.755960 0.539446 -0.013157 2.341805152028776e-38
1.758606 0.530755 -0.013159 2.341805152028776e-38
1.761192 0.522110 -0.013162 2.341805152028776e-38
1.762757 0.513237 -0.013160 2.341805152028776e-38
1.763315 0.504086 -0.013150 2.341805152028776e-38
1.759975 0.493861 -0.013111 2.341805152028776e-38
1.762362 0.485274 -0.013116 2.341805152028776e-38
1.765665 0.476965 -0.013127 2.341805152028776e-38
1.767953 0.468412 -0.013133 2.341805152028776e-38
1.767296 0.459094 -0.013117 2.341805152028776e-38
1.768529 0.450286 -0.013115 2.341805152028776e-38
1.772629 0.442203 -0.013135 2.341805152028776e-38
1.774749 0.433617 -0.013140 2.341805152028776e-38
1.775854 0.424788 -0.013138 2.341805152028776e-38
1.777890 0.416186 -0.013143 2.341805152028776e-38
1.780859 0.407797 -0.013155 2.341805152028776e-38
1.779884 0.398516 -0.013138 2.341805152028776e-38
1.780816 0.389681 -0.013135 2.341805152028776e-38
1.782681 0.381055 -0.013140 2.341805152028776e-38
1.781569 0.371808 -0.013123 2.341805152028776e-38
1.779428 0.362381 -0.013098 2.341805152028776e-38
1.784104 0.354347 -0.013124 2.341805152028776e-38
1.787762 0.346086 -0.013143 2.341805152028776e-38
1.790399 0.337613 -0.013154 2.341805152028776e-38
1.792012 0.328941 -0.013158 2.341805152028776e-38
1.792599 0.320087 -0.013154 2.341805152028776e-38
1.794128 0.311405 -0.013158 2.341805152028776e-38
1.796600 0.302882 -0.013169 2.341805152028776e-38
1.798046 0.294181 -0.013172 2.341805152028776e-38
1.798461 0.285317 -0.013168 2.341805152028776e-38
1.796856 0.276151 -0.013150 2.341805152028776e-38
1.795205 0.267008 -0.013132 2.341805152028776e-38
1.804394 0.259453 -0.013193 2.341805152028776e-38
1.811572 0.251540 -0.013239 2.341805152028776e-38
1.807813 0.242103 -0.013206 2.341805152028776e-38
1.805988 0.232965 -0.013187 2.341805152028776e-38
1.803126 0.223727 -0.013160 2.341805152028776e-38
1.806173 0.215232 -0.013177 2.341805152028776e-38
1.806201 0.206372 -0.013173 2.341805152028776e-38
1.805190 0.197409 -0.013161 2.341805152028776e-38
1.804136 0.188460 -0.013148 2.341805152028776e-38
1.808012 0.180021 -0.013172 2.341805152028776e-38
1.808862 0.171266 -0.013174 2.341805152028776e-38
1.808674 0.162418 -0.013169 2.341805152028776e-38
1.811432 0.153829 -0.013185 2.341805152028776e-38
1.818136 0.145537 -0.013231 2.341805152028776e-38
1.819817 0.136809 -0.013240 2.341805152028776e-38
1.815470 0.127647 -0.013205 2.341805152028776e-38
1.812075 0.118595 -0.013177 2.341805152028776e-38
1.814625 0.109943 -0.013193 2.341805152028776e-38
1.817132 0.101268 -0.013209 2.341805152028776e-38
1.817601 0.092470 -0.013210 2.341805152028776e-38
1.819027 0.083716 -0.013218 2.341805152028776e-38
1.820410 0.074950 -0.013226 2.341805152028776e-38
1.822750 0.066209 -0.013242 2.341805152028776e-38
1.822049 0.057353 -0.013235 2.341805152028776e-38
1.924267 0.051247 -0.013976 2.341805152028776e-38
1.763362 0.639866 -0.022373 2.341805152028776e-38
1.748701 0.624501 -0.022145 2.341805152028776e-38
1.747118 0.613999 -0.022086 2.341805152028776e-38
1.747341 0.604248 -0.022053 2.341805152028776e-38
1.747509 0.594510 -0.022019 2.341805152028776e-38
1.750469 0.585738 -0.022020 2.341805152028776e-38
1.752435 0.576639 -0.022009 2.341805152028776e-38
1.754336 0.567590 -0.022000 2.341805152028776e-38
1.756168 0.558603 -0.021992 2.341805152028776e-38
1.755092 0.548717 -0.021949 2.341805152028776e-38
1.757784 0.540030 -0.021952 2.341805152028776e-38
1.759477 0.531041 -0.021944 2.341805152028776e-38
1.761106 0.522104 -0.021937 2.341805152028776e-38
1.762671 0.513231 -0.021933 2.341805152028776e-38
1.762268 0.503805 -0.021905 2.341805152028776e-38
1.762778 0.494666 -0.021888 2.341805152028776e-38
1.767097 0.486596 -0.021919 2.341805152028776e-38
1.767511 0.477480 -0.021903 2.341805152028776e-38
1.769802 0.468917 -0.021912 2.341805152028776e-38
1.770115 0.459841 -0.021897 2.341805152028776e-38
1.772321 0.451266 -0.021906 2.341805152028776e-38
1.774484 0.442681 -0.021915 2.341805152028776e-38
1.775635 0.433848 -0.021911 2.341805152028776e-38
1.778687 0.425479 -0.021932 2.341805152028776e-38
1.778779 0.416407 -0.021916 2.341805152028776e-38
1.780774 0.407791 -0.021924 2.341805152028776e-38
1.782727 0.399165 -0.021932 2.341805152028776e-38
1.784638 0.390530 -0.021940 2.341805152028776e-38
1.784552 0.381468 -0.021923 2.341805152028776e-38
1.784420 0.372415 -0.021907 2.341805152028776e-38
1.785223 0.363573 -0.021902 2.341805152028776e-38
1.785981 0.354731 -0.021897 2.341805152028776e-38
1.789641 0.346461 -0.021928 2.341805152028776e-38
1.793262 0.338163 -0.021959 2.341805152028776e-38
1.793895 0.329297 -0.021953 2.341805152028776e-38
1.795468 0.320609 -0.021960 2.341805152028776e-38
1.795028 0.311571 -0.021942 2.341805152028776e-38
1.796515 0.302877 -0.021948 2.341805152028776e-38
1.796974 0.294015 -0.021941 2.341805152028776e-38
1.798376 0.285312 -0.021947 2.341805152028776e-38
1.799736 0.276603 -0.021953 2.341805152028776e-38
1.802043 0.268034 -0.021970 2.341805152028776e-38
1.807279 0.259876 -0.022023 2.341805152028776e-38
1.807525 0.250986 -0.022016 2.341805152028776e-38
1.806737 0.241967 -0.021997 2.341805152028776e-38
1.806895 0.233089 -0.021990 2.341805152028776e-38
1.807010 0.224216 -0.021982 2.341805152028776e-38
1.807081 0.215347 -0.021974 2.341805152028776e-38
1.806116 0.206369 -0.021954 2.341805152028776e-38
1.807094 0.197623 -0.021958 2.341805152028776e-38
1.808029 0.188872 -0.021962 2.341805152028776e-38
1.808922 0.180117 -0.021965 2.341805152028776e-38
1.808777 0.171263 -0.021957 2.341805152028776e-38
1.805602 0.162147 -0.021912 2.341805152028776e-38
1.812343 0.153912 -0.021987 2.341805152028776e-38
1.812071 0.145056 -0.021978 2.341805152028776e-38
1.812752 0.136282 -0.021981 2.341805152028776e-38
1.811395 0.127364 -0.021959 2.341805152028776e-38
1.814984 0.118789 -0.021998 2.341805152028776e-38
1.816536 0.110062 -0.022012 2.341805152028776e-38
1.818046 0.101322 -0.022027 2.341805152028776e-38
1.818515 0.092519 -0.022028 2.341805152028776e-38
1.819940 0.083760 -0.022042 2.341805152028776e-38
1.820324 0.074949 -0.022044 2.341805152028776e-38
1.821665 0.066172 -0.022057 2.341805152028776e-38
1.822963 0.057383 -0.022071 2.341805152028776e-38
1.855639 0.684103 -0.033026 2.341805152028776e-38
1.766045 0.640890 -0.031372 2.341805152028776e-38
1.749508 0.624839 -0.031020 2.341805152028776e-38
1.746042 0.613664 -0.030904 2.341805152028776e-38
1.747208 0.604245 -0.030874 2.341805152028776e-38
1.748323 0.594830 -0.030843 2.341805152028776e-38
1.750337 0.585737 -0.030828 2.341805152028776e-38
1.753252 0.576951 -0.030829 2.341805152028776e-38
1.754205 0.567584 -0.030799 2.341805152028776e-38
1.755085 0.558295 -0.030772 2.341805152028776e-38
1.755916 0.549011 -0.030745 2.341805152028776e-38
1.757654 0.540026 -0.030733 2.341805152028776e-38
1.760303 0.531327 -0.030738 2.341805152028776e-38
1.762895 0.522663 -0.030745 2.341805152028776e-38
1.763503 0.513501 -0.030722 2.341805152028776e-38
1.765024 0.504621 -0.030716 2.341805152028776e-38
1.767464 0.496009 -0.030726 2.341805152028776e-38
1.767933 0.486853 -0.030702 2.341805152028776e-38
1.770279 0.478251 -0.030713 2.341805152028776e-38
1.771607 0.469418 -0.030710 2.341805152028776e-38
1.771924 0.460333 -0.030689 2.341805152028776e-38
1.773162 0.451502 -0.030685 2.341805152028776e-38
1.774357 0.442670 -0.030680 2.341805152028776e-38
1.776479 0.434075 -0.030692 2.341805152028776e-38
1.776615 0.425004 -0.030670 2.341805152028776e-38
1.780599 0.416853 -0.030715 2.341805152028776e-38
1.782596 0.408228 -0.030727 2.341805152028776e-38
1.783575 0.399374 -0.030721 2.341805152028776e-38
1.784511 0.390521 -0.030715 2.341805152028776e-38
1.786380 0.381877 -0.030726 2.341805152028776e-38
1.786251 0.372815 -0.030702 2.341805152028776e-38
1.787055 0.363963 -0.030696 2.341805152028776e-38
1.788796 0.355307 -0.030706 2.341805152028776e-38
1.791476 0.346833 -0.030732 2.341805152028776e-38
1.794117 0.338341 -0.030758 2.341805152028776e-38
1.794750 0.329470 -0.030751 2.341805152028776e-38
1.795340 0.320601 -0.030743 2.341805152028776e-38
1.796871 0.311906 -0.030751 2.341805152028776e-38
1.797374 0.303036 -0.030743 2.341805152028776e-38
1.796846 0.294008 -0.030717 2.341805152028776e-38
1.798249 0.285305 -0.030725 2.341805152028776e-38
1.800597 0.276748 -0.030750 2.341805152028776e-38
1.802904 0.268174 -0.030774 2.341805152028776e-38
1.805171 0.259585 -0.030798 2.341805152028776e-38
1.805416 0.250705 -0.030788 2.341805152028776e-38
1.806609 0.241961 -0.030795 2.341805152028776e-38
1.806767 0.233084 -0.030785 2.341805152028776e-38
1.807875 0.224334 -0.030791 2.341805152028776e-38
1.807946 0.215460 -0.030780 2.341805152028776e-38
1.806982 0.206478 -0.030752 2.341805152028776e-38
1.806966 0.197618 -0.030741 2.341805152028776e-38
1.806907 0.188764 -0.030729 2.341805152028776e-38
1.806805 0.179915 -0.030717 2.341805152028776e-38
1.806659 0.171071 -0.030705 2.341805152028776e-38
1.801491 0.161785 -0.030608 2.341805152028776e-38
1.806238 0.153400 -0.030680 2.341805152028776e-38
1.808953 0.144813 -0.030718 2.341805152028776e-38
1.810630 0.136129 -0.030739 2.341805152028776e-38
1.813262 0.127501 -0.030776 2.341805152028776e-38
1.812861 0.118656 -0.030763 2.341805152028776e-38
1.816408 0.110059 -0.030817 2.341805152028776e-38
1.817918 0.101320 -0.030836 2.341805152028776e-38
1.820384 0.092619 -0.030873 2.341805152028776e-38
1.818813 0.083712 -0.030841 2.341805152028776e-38
1.821195 0.074988 -0.030877 2.341805152028776e-38
1.821537 0.066170 -0.030879 2.341805152028776e-38
1.826833 0.057508 -0.030966 2.341805152028776e-38
1.931038 0.051431 -0.032729 2.341805152028776e-38
1.974596 0.739461 -0.045273 2.341805152028776e-38
1.848881 0.681682 -0.042311 2.341805152028776e-38
1.764923 0.640550 -0.040314 2.341805152028776e-38
1.751211 0.625514 -0.039926 2.341805152028776e-38
1.748694 0.614654 -0.039798 2.341805152028776e-38
1.747976 0.604569 -0.039716 2.341805152028776e-38
1.750039 0.595472 -0.039698 2.341805152028776e-38
1.750160 0.585735 -0.039636 2.341805152028776e-38
1.753075 0.576950 -0.039638 2.341805152028776e-38
1.754982 0.567884 -0.039620 2.341805152028776e-38
1.755864 0.558591 -0.039585 2.341805152028776e-38
1.757651 0.549601 -0.039571 2.341805152028776e-38
1.759392 0.540608 -0.039557 2.341805152028776e-38
1.762044 0.531899 -0.039563 2.341805152028776e-38
1.764641 0.523219 -0.039571 2.341805152028776e-38
1.765251 0.514048 -0.039542 2.341805152028776e-38
1.766775 0.505159 -0.039534 2.341805152028776e-38
1.769217 0.496537 -0.039547 2.341805152028776e-38
1.769690 0.487373 -0.039517 2.341805152028776e-38
1.770109 0.478236 -0.039487 2.341805152028776e-38
1.770471 0.469147 -0.039461 2.341805152028776e-38
1.772721 0.460570 -0.039477 2.341805152028776e-38
1.772024 0.451241 -0.039429 2.341805152028776e-38
1.773217 0.442414 -0.039423 2.341805152028776e-38
1.775338 0.433824 -0.039439 2.341805152028776e-38
1.779362 0.425688 -0.039497 2.341805152028776e-38
1.779455 0.416612 -0.039469 2.341805152028776e-38
1.780477 0.407769 -0.039461 2.341805152028776e-38
1.780478 0.398706 -0.039432 2.341805152028776e-38
1.785318 0.390722 -0.039511 2.341805152028776e-38
1.786211 0.381865 -0.039503 2.341805152028776e-38
1.786081 0.372803 -0.039473 2.341805152028776e-38
1.786885 0.363952 -0.039465 2.341805152028776e-38
1.788626 0.355296 -0.039477 2.341805152028776e-38
1.791306 0.346822 -0.039511 2.341805152028776e-38
1.792964 0.338145 -0.039523 2.341805152028776e-38
1.793597 0.329279 -0.039514 2.341805152028776e-38
1.796154 0.320767 -0.039547 2.341805152028776e-38
1.796701 0.311896 -0.039536 2.341805152028776e-38
1.798190 0.303193 -0.039547 2.341805152028776e-38
1.796676 0.293999 -0.039492 2.341805152028776e-38
1.799066 0.285453 -0.039524 2.341805152028776e-38
1.801415 0.276891 -0.039556 2.341805152028776e-38
1.801745 0.268019 -0.039544 2.341805152028776e-38
1.802032 0.259150 -0.039531 2.341805152028776e-38
1.804256 0.250559 -0.039562 2.341805152028776e-38
1.806438 0.241954 -0.039592 2.341805152028776e-38
1.807589 0.233204 -0.039601 2.341805152028776e-38
1.808696 0.224450 -0.039609 2.341805152028776e-38
1.808769 0.215572 -0.039595 2.341805152028776e-38
1.806811 0.206471 -0.039537 2.341805152028776e-38
1.807790 0.197721 -0.039544 2.341805152028776e-38
1.808726 0.188966 -0.039551 2.341805152028776e-38
1.809619 0.180206 -0.039557 2.341805152028776e-38
1.809475 0.171348 -0.039542 2.341805152028776e-38
1.808292 0.162406 -0.039504 2.341805152028776e-38
1.810053 0.153734 -0.039532 2.341805152028776e-38
1.811773 0.145048 -0.039559 2.341805152028776e-38
1.813451 0.136349 -0.039585 2.341805152028776e-38
1.814089 0.127568 -0.039590 2.341805152028776e-38
1.816681 0.118913 -0.039638 2.341805152028776e-38
1.818233 0.110177 -0.039664 2.341805152028776e-38
1.818745 0.101372 -0.039667 2.341805152028776e-38
1.819215 0.092565 -0.039671 2.341805152028776e-38
1.819641 0.083756 -0.039674 2.341805152028776e-38
1.822023 0.075027 -0.039720 2.341805152028776e-38
1.824363 0.066277 -0.039766 2.341805152028776e-38
1.829659 0.057601 -0.039877 2.341805152028776e-38
1.999816 0.053267 -0.043582 2.341805152028776e-38
1.750044 0.625180 -0.048773 2.341805152028776e-38
1.747530 0.614318 -0.048615 2.341805152028776e-38
1.747754 0.604564 -0.048542 2.341805152028776e-38
1.749818 0.595469 -0.048520 2.341805152028776e-38
1.750887 0.586050 -0.048470 2.341805152028776e-38
1.751905 0.576636 -0.048420 2.341805152028776e-38
1.753814 0.567567 -0.048397 2.341805152028776e-38
1.757552 0.559188 -0.048434 2.341805152028776e-38
1.759342 0.550190 -0.048417 2.341805152028776e-38
1.759174 0.540600 -0.048346 2.341805152028776e-38
1.762784 0.532182 -0.048380 2.341805152028776e-38
1.762510 0.522634 -0.048311 2.341805152028776e-38
1.764077 0.513753 -0.048302 2.341805152028776e-38
1.764639 0.504595 -0.048266 2.341805152028776e-38
1.766116 0.495713 -0.048255 2.341805152028776e-38
1.766584 0.486563 -0.048218 2.341805152028776e-38
1.767967 0.477695 -0.048208 2.341805152028776e-38
1.768326 0.468617 -0.048176 2.341805152028776e-38
1.769606 0.459798 -0.048169 2.341805152028776e-38
1.771811 0.451224 -0.048189 2.341805152028776e-38
1.774945 0.442881 -0.048235 2.341805152028776e-38
1.775126 0.433807 -0.048201 2.341805152028776e-38
1.777205 0.425206 -0.048219 2.341805152028776e-38
1.777296 0.416140 -0.048185 2.341805152028776e-38
1.781239 0.407976 -0.048255 2.341805152028776e-38
1.781242 0.398909 -0.048220 2.341805152028776e-38
1.783152 0.390279 -0.048237 2.341805152028776e-38
1.782088 0.381014 -0.048174 2.341805152028776e-38
1.782933 0.372176 -0.048164 2.341805152028776e-38
1.784714 0.363538 -0.048180 2.341805152028776e-38
1.787433 0.355087 -0.048222 2.341805152028776e-38
1.789131 0.346428 -0.048237 2.341805152028776e-38
1.792752 0.338131 -0.048304 2.341805152028776e-38
1.794368 0.329447 -0.048319 2.341805152028776e-38
1.793973 0.320403 -0.048280 2.341805152028776e-38
1.795503 0.311713 -0.048294 2.341805152028776e-38
1.796991 0.303015 -0.048307 2.341805152028776e-38
1.798437 0.294310 -0.048320 2.341805152028776e-38
1.798853 0.285442 -0.048306 2.341805152028776e-38
1.800214 0.276728 -0.048318 2.341805152028776e-38
1.800544 0.267861 -0.048303 2.341805152028776e-38
1.802809 0.259282 -0.048341 2.341805152028776e-38
1.803053 0.250412 -0.048325 2.341805152028776e-38
1.803253 0.241546 -0.048309 2.341805152028776e-38
1.806384 0.233067 -0.048372 2.341805152028776e-38
1.808483 0.224441 -0.048409 2.341805152028776e-38
1.808556 0.215563 -0.048392 2.341805152028776e-38
1.807592 0.206577 -0.048348 2.341805152028776e-38
1.808571 0.197822 -0.048356 2.341805152028776e-38
1.809507 0.189062 -0.048365 2.341805152028776e-38
1.811396 0.180397 -0.048399 2.341805152028776e-38
1.810258 0.171436 -0.048354 2.341805152028776e-38
1.809075 0.162489 -0.048308 2.341805152028776e-38
1.809840 0.153728 -0.048314 2.341805152028776e-38
1.814549 0.145282 -0.048427 2.341805152028776e-38
1.812241 0.136269 -0.048354 2.341805152028776e-38
1.813876 0.127563 -0.048386 2.341805152028776e-38
1.815470 0.118843 -0.048418 2.341805152028776e-38
1.816024 0.110051 -0.048423 2.341805152028776e-38
1.817534 0.101312 -0.048454 2.341805152028776e-38
1.819001 0.092561 -0.048485 2.341805152028776e-38
1.821425 0.083845 -0.048542 2.341805152028776e-38
1.821810 0.075024 -0.048545 2.341805152028776e-38
1.824150 0.066274 -0.048601 2.341805152028776e-38
1.828446 0.057567 -0.048710 2.341805152028776e-38
1.992587 0.053078 -0.053078 2.341805152028776e-38
1.749773 0.625182 -0.057641 2.341805152028776e-38
1.747264 0.614311 -0.057454 2.341805152028776e-38
1.747489 0.604559 -0.057367 2.341805152028776e-38
1.749553 0.595465 -0.057341 2.341805152028776e-38
1.750622 0.586047 -0.057283 2.341805152028776e-38
1.750691 0.576322 -0.057192 2.341805152028776e-38
1.754503 0.567863 -0.057226 2.341805152028776e-38
1.756338 0.558874 -0.057208 2.341805152028776e-38
1.759080 0.550180 -0.057219 2.341805152028776e-38
1.760824 0.541179 -0.057198 2.341805152028776e-38
1.761566 0.531885 -0.057145 2.341805152028776e-38
1.762253 0.522615 -0.057092 2.341805152028776e-38
1.762861 0.513455 -0.057051 2.341805152028776e-38
1.765343 0.504852 -0.057070 2.341805152028776e-38
1.764897 0.495426 -0.056996 2.341805152028776e-38
1.765364 0.486281 -0.056952 2.341805152028776e-38
1.767712 0.477673 -0.056970 2.341805152028776e-38
1.768072 0.468595 -0.056932 2.341805152028776e-38
1.770319 0.460027 -0.056956 2.341805152028776e-38
1.771557 0.451202 -0.056948 2.341805152028776e-38
1.772751 0.442376 -0.056940 2.341805152028776e-38
1.773901 0.433549 -0.056931 2.341805152028776e-38
1.777923 0.425419 -0.057015 2.341805152028776e-38
1.781908 0.417260 -0.057099 2.341805152028776e-38
1.781958 0.408180 -0.057057 2.341805152028776e-38
1.781963 0.399109 -0.057016 2.341805152028776e-38
1.781921 0.390047 -0.056973 2.341805152028776e-38
1.782811 0.381205 -0.056962 2.341805152028776e-38
1.785614 0.372771 -0.057012 2.341805152028776e-38
1.788377 0.364319 -0.057062 2.341805152028776e-38
1.788159 0.355265 -0.057018 2.341805152028776e-38
1.791820 0.346982 -0.057098 2.341805152028776e-38
1.792497 0.338116 -0.057084 2.341805152028776e-38
1.793129 0.329251 -0.057070 2.341805152028776e-38
1.794702 0.320564 -0.057087 2.341805152028776e-38
1.796233 0.311869 -0.057103 2.341805152028776e-38
1.797722 0.303167 -0.057118 2.341805152028776e-38
1.800155 0.294619 -0.057165 2.341805152028776e-38
1.800573 0.285742 -0.057148 2.341805152028776e-38
1.800947 0.276867 -0.057131 2.341805152028776e-38
1.801277 0.267996 -0.057114 2.341805152028776e-38
1.801564 0.259128 -0.057096 2.341805152028776e-38
1.802798 0.250400 -0.057109 2.341805152028776e-38
1.804979 0.241800 -0.057153 2.341805152028776e-38
1.806129 0.233057 -0.057165 2.341805152028776e-38
1.807236 0.224308 -0.057176 2.341805152028776e-38
1.806315 0.215317 -0.057125 2.341805152028776e-38
1.807337 0.206567 -0.057136 2.341805152028776e-38
1.812290 0.198247 -0.057271 2.341805152028776e-38
1.811240 0.189261 -0.057218 2.341805152028776e-38
1.812135 0.180488 -0.057228 2.341805152028776e-38
1.811992 0.171616 -0.057205 2.341805152028776e-38
1.811806 0.162750 -0.057182 2.341805152028776e-38
1.814565 0.154144 -0.057253 2.341805152028776e-38
1.812301 0.145115 -0.057167 2.341805152028776e-38
1.813979 0.136413 -0.057205 2.341805152028776e-38
1.815615 0.127697 -0.057243 2.341805152028776e-38
1.816212 0.118903 -0.057250 2.341805152028776e-38
1.816766 0.110107 -0.057255 2.341805152028776e-38
1.818276 0.101363 -0.057292 2.341805152028776e-38
1.819743 0.092608 -0.057329 2.341805152028776e-38
1.819172 0.083749 -0.057302 2.341805152028776e-38
1.820555 0.074979 -0.057337 2.341805152028776e-38
1.821895 0.066199 -0.057372 2.341805152028776e-38
1.823193 0.057407 -0.057407 2.341805152028776e-38
1.933356 0.051505 -0.060870 2.341805152028776e-38
1.751340 0.625858 -0.066581 2.341805152028776e-38
1.747896 0.614635 -0.066328 2.341805152028776e-38
1.748123 0.604880 -0.066228 2.341805152028776e-38
1.750189 0.595782 -0.066198 2.341805152028776e-38
1.751260 0.586361 -0.066131 2.341805152028776e-38
1.750382 0.576320 -0.065991 2.341805152028776e-38
1.754199 0.567849 -0.066029 2.341805152028776e-38
1.756033 0.558862 -0.066007 2.341805152028776e-38
1.757822 0.549870 -0.065984 2.341805152028776e-38
1.758609 0.540581 -0.065925 2.341805152028776e-38
1.760305 0.531587 -0.065899 2.341805152028776e-38
1.760995 0.522309 -0.065837 2.341805152028776e-38
1.764480 0.513993 -0.065897 2.341805152028776e-38
1.765044 0.504831 -0.065848 2.341805152028776e-38
1.767484 0.496216 -0.065869 2.341805152028776e-38
1.767956 0.487058 -0.065819 2.341805152028776e-38
1.769345 0.478169 -0.065803 2.341805152028776e-38
1.767775 0.468569 -0.065687 2.341805152028776e-38
1.770990 0.460253 -0.065750 2.341805152028776e-38
1.770292 0.450931 -0.065670 2.341805152028776e-38
1.771484 0.442110 -0.065660 2.341805152028776e-38
1.774575 0.433762 -0.065722 2.341805152028776e-38
1.778597 0.425628 -0.065819 2.341805152028776e-38
1.781610 0.417237 -0.065880 2.341805152028776e-38
1.781661 0.408157 -0.065832 2.341805152028776e-38
1.780690 0.398868 -0.065748 2.341805152028776e-38
1.782600 0.390240 -0.065771 2.341805152028776e-38
1.783491 0.381393 -0.065757 2.341805152028776e-38
1.787273 0.373159 -0.065852 2.341805152028776e-38
1.787100 0.364100 -0.065801 2.341805152028776e-38
1.786881 0.355051 -0.065750 2.341805152028776e-38
1.789560 0.346583 -0.065807 2.341805152028776e-38
1.792199 0.338097 -0.065863 2.341805152028776e-38
1.791849 0.329052 -0.065810 2.341805152028776e-38
1.794405 0.320546 -0.065866 2.341805152028776e-38
1.795935 0.311852 -0.065884 2.341805152028776e-38
1.798409 0.303317 -0.065938 2.341805152028776e-38
1.798870 0.294442 -0.065920 2.341805152028776e-38
1.799288 0.285570 -0.065901 2.341805152028776e-38
1.798674 0.276548 -0.065845 2.341805152028776e-38
1.799991 0.267834 -0.065861 2.341805152028776e-38
1.801267 0.259113 -0.065876 2.341805152028776e-38
1.804480 0.250662 -0.065964 2.341805152028776e-38
1.804681 0.241787 -0.065942 2.341805152028776e-38
1.805831 0.233044 -0.065956 2.341805152028776e-38
1.805946 0.224172 -0.065933 2.341805152028776e-38
1.808002 0.215542 -0.065982 2.341805152028776e-38
1.810017 0.206896 -0.066031 2.341805152028776e-38
1.810004 0.198019 -0.066006 2.341805152028776e-38
1.808954 0.189043 -0.065945 2.341805152028776e-38
1.811837 0.180478 -0.066029 2.341805152028776e-38
1.812689 0.171701 -0.066039 2.341805152028776e-38
1.813499 0.162920 -0.066049 2.341805152028776e-38
1.813271 0.154051 -0.066022 2.341805152028776e-38
1.812003 0.145108 -0.065958 2.341805152028776e-38
1.815674 0.136555 -0.066075 2.341805152028776e-38
1.816313 0.127760 -0.066083 2.341805152028776e-38
1.814916 0.118831 -0.066017 2.341805152028776e-38
1.815470 0.110040 -0.066024 2.341805152028776e-38
1.816979 0.101302 -0.066067 2.341805152028776e-38
1.817448 0.092501 -0.066072 2.341805152028776e-38
1.817875 0.083698 -0.066077 2.341805152028776e-38
1.819257 0.074934 -0.066118 2.341805152028776e-38
1.822595 0.066231 -0.066231 2.341805152028776e-38
1.820896 0.057341 -0.066162 2.341805152028776e-38
1.751919 0.626197 -0.075499 2.341805152028776e-38
1.745655 0.613965 -0.075089 2.341805152028776e-38
1.749658 0.605526 -0.075138 2.341805152028776e-38
1.749835 0.595776 -0.075024 2.341805152028776e-38
1.749959 0.586040 -0.074907 2.341805152028776e-38
1.750029 0.576317 -0.074789 2.341805152028776e-38
