VERSION .7
FIELDS x y z rgb
SIZE 4 4 4 4
TYPE F F F F
COUNT 1 1 1 1
WIDTH 960
HEIGHT 1
VIEWPOINT 0 0 0 1 0 0 0
POINTS 960
DATA ascii
1.804288 -0.188742 0.118513 2.341805152028776e-38
1.804345 -0.197596 0.118557 2.341805152028776e-38
1.803367 -0.206341 0.118536 2.341805152028776e-38
1.800366 -0.214844 0.118384 2.341805152028776e-38
1.801285 -0.223816 0.118491 2.341805152028776e-38
1.801170 -0.232673 0.118532 2.341805152028776e-38
1.802990 -0.241800 0.118702 2.341805152028776e-38
1.801798 -0.250538 0.118676 2.341805152028776e-38
1.802539 -0.259555 0.118779 2.341805152028776e-38
1.801262 -0.268290 0.118751 2.341805152028776e-38
1.801914 -0.277323 0.118853 2.341805152028776e-38
1.802522 -0.286368 0.118953 2.341805152028776e-38
1.804069 -0.295587 0.119117 2.341805152028776e-38
1.802616 -0.304330 0.119086 2.341805152028776e-38
1.801122 -0.313065 0.119053 2.341805152028776e-38
1.800568 -0.321969 0.119084 2.341805152028776e-38
1.799969 -0.330875 0.119115 2.341805152028776e-38
1.793444 -0.338671 0.118755 2.341805152028776e-38
1.789824 -0.346982 0.118589 2.341805152028776e-38
1.787144 -0.355460 0.118487 2.341805152028776e-38
1.786380 -0.364319 0.118513 2.341805152028776e-38
1.785573 -0.373179 0.118539 2.341805152028776e-38
1.778866 -0.380787 0.118175 2.341805152028776e-38
1.835744 0.147124 0.111458 2.341805152028776e-38
1.826481 0.137476 0.110867 2.341805152028776e-38
1.825134 0.128481 0.110760 2.341805152028776e-38
1.825734 0.119633 0.110772 2.341805152028776e-38
1.826292 0.110783 0.110783 2.341805152028776e-38
1.825810 0.101874 0.110733 2.341805152028776e-38
1.824288 0.092922 0.110622 2.341805152028776e-38
1.824717 0.084079 0.110630 2.341805152028776e-38
1.827097 0.075316 0.110759 2.341805152028776e-38
1.828438 0.066496 0.110826 2.341805152028776e-38
1.824748 0.057507 0.110590 2.341805152028776e-38
1.824007 0.048635 0.110535 2.341805152028776e-38
1.822225 0.039751 0.110419 2.341805152028776e-38
1.821398 0.030901 0.110362 2.341805152028776e-38
1.821526 0.022073 0.110364 2.341805152028776e-38
1.819615 0.013229 0.110245 2.341805152028776e-38
1.816664 0.004403 0.110064 2.341805152028776e-38
1.817662 -0.004405 0.110125 2.341805152028776e-38
1.817619 -0.013215 0.110124 2.341805152028776e-38
1.814539 -0.021988 0.109941 2.341805152028776e-38
1.812416 -0.030749 0.109817 2.341805152028776e-38
1.813244 -0.039555 0.109874 2.341805152028776e-38
1.812033 -0.048316 0.109810 2.341805152028776e-38
1.809783 -0.057035 0.109683 2.341805152028776e-38
1.810483 -0.065843 0.109738 2.341805152028776e-38
1.811140 -0.074658 0.109792 2.341805152028776e-38
1.813749 -0.083574 0.109965 2.341805152028776e-38
1.814320 -0.092414 0.110017 2.341805152028776e-38
1.811858 -0.101096 0.109887 2.341805152028776e-38
1.811347 -0.109876 0.109876 2.341805152028776e-38
1.806810 -0.118393 0.109623 2.341805152028776e-38
1.807211 -0.127219 0.109672 2.341805152028776e-38
1.806574 -0.135977 0.109659 2.341805152028776e-38
1.804900 -0.144652 0.109585 2.341805152028776e-38
1.805173 -0.153483 0.109631 2.341805152028776e-38
1.803414 -0.162141 0.109555 2.341805152028776e-38
1.802608 -0.170880 0.109539 2.341805152028776e-38
1.802753 -0.179714 0.109582 2.341805152028776e-38
1.801862 -0.188450 0.109564 2.341805152028776e-38
1.802913 -0.197398 0.109666 2.341805152028776e-38
1.801937 -0.206135 0.109646 2.341805152028776e-38
1.798935 -0.214629 0.109505 2.341805152028776e-38
1.796885 -0.223223 0.109423 2.341805152028776e-38
1.797763 -0.232186 0.109521 2.341805152028776e-38
1.800575 -0.241427 0.109740 2.341805152028776e-38
1.801363 -0.250426 0.109836 2.341805152028776e-38
1.800129 -0.259154 0.109811 2.341805152028776e-38
1.797866 -0.267729 0.109725 2.341805152028776e-38
1.800495 -0.277047 0.109939 2.341805152028776e-38
1.801105 -0.286084 0.110032 2.341805152028776e-38
1.799699 -0.294811 0.110004 2.341805152028776e-38
1.800219 -0.303862 0.110095 2.341805152028776e-38
1.794793 -0.311901 0.109824 2.341805152028776e-38
1.796210 -0.321123 0.109974 2.341805152028776e-38
1.793652 -0.329645 0.109882 2.341805152028776e-38
1.789093 -0.337780 0.109669 2.341805152028776e-38
1.786457 -0.346257 0.109575 2.341805152028776e-38
1.786718 -0.355301 0.109661 2.341805152028776e-38
1.783999 -0.363758 0.109566 2.341805152028776e-38
1.783194 -0.372605 0.109590 2.341805152028776e-38
1.773561 -0.379572 0.109072 2.341805152028776e-38
1.838253 0.147297 0.102662 2.341805152028776e-38
1.829983 0.137713 0.102174 2.341805152028776e-38
1.827641 0.128633 0.102020 2.341805152028776e-38
1.826249 0.119645 0.101920 2.341805152028776e-38
1.825810 0.110733 0.101874 2.341805152028776e-38
1.825328 0.101828 0.101828 2.341805152028776e-38
1.821811 0.092778 0.101614 2.341805152028776e-38
1.822239 0.083949 0.101622 2.341805152028776e-38
1.824619 0.075200 0.101741 2.341805152028776e-38
1.824962 0.066357 0.101747 2.341805152028776e-38
1.825262 0.057512 0.101753 2.341805152028776e-38
1.825518 0.048667 0.101758 2.341805152028776e-38
1.824735 0.039798 0.101706 2.341805152028776e-38
1.823907 0.030938 0.101653 2.341805152028776e-38
1.822039 0.022075 0.101544 2.341805152028776e-38
1.820128 0.013231 0.101435 2.341805152028776e-38
1.819172 0.004408 0.101380 2.341805152028776e-38
1.817175 -0.004403 0.101269 2.341805152028776e-38
1.817132 -0.013209 0.101268 2.341805152028776e-38
1.815050 -0.021990 0.101155 2.341805152028776e-38
1.814923 -0.030786 0.101153 2.341805152028776e-38
1.814752 -0.039580 0.101149 2.341805152028776e-38
1.811545 -0.048294 0.100979 2.341805152028776e-38
1.810292 -0.057041 0.100918 2.341805152028776e-38
1.810993 -0.065849 0.100968 2.341805152028776e-38
1.812648 -0.074706 0.101073 2.341805152028776e-38
1.812265 -0.083489 0.101066 2.341805152028776e-38
1.811839 -0.092271 0.101058 2.341805152028776e-38
1.812369 -0.101105 0.101105 2.341805152028776e-38
1.812854 -0.109947 0.101151 2.341805152028776e-38
1.813297 -0.118796 0.101197 2.341805152028776e-38
1.808717 -0.127301 0.100963 2.341805152028776e-38
1.807084 -0.135990 0.100896 2.341805152028776e-38
1.805409 -0.144666 0.100828 2.341805152028776e-38
1.804688 -0.153413 0.100814 2.341805152028776e-38
1.802929 -0.162067 0.100744 2.341805152028776e-38
1.805106 -0.171085 0.100896 2.341805152028776e-38
1.803263 -0.179731 0.100825 2.341805152028776e-38
1.804358 -0.188675 0.100919 2.341805152028776e-38
1.804415 -0.197526 0.100958 2.341805152028776e-38
1.803438 -0.206267 0.100939 2.341805152028776e-38
1.800436 -0.214768 0.100809 2.341805152028776e-38
1.798384 -0.223367 0.100734 2.341805152028776e-38
1.799262 -0.232335 0.100825 2.341805152028776e-38
1.803064 -0.241715 0.101081 2.341805152028776e-38
1.799895 -0.250175 0.100948 2.341805152028776e-38
1.798663 -0.258894 0.100925 2.341805152028776e-38
1.799364 -0.267901 0.101012 2.341805152028776e-38
1.799032 -0.276770 0.101043 2.341805152028776e-38
1.798658 -0.285641 0.101073 2.341805152028776e-38
1.795283 -0.294031 0.100936 2.341805152028776e-38
1.794823 -0.302894 0.100965 2.341805152028776e-38
1.795303 -0.311930 0.101048 2.341805152028776e-38
1.791806 -0.320275 0.100909 2.341805152028776e-38
1.789253 -0.328774 0.100824 2.341805152028776e-38
1.787640 -0.337441 0.100794 2.341805152028776e-38
1.786966 -0.346290 0.100819 2.341805152028776e-38
1.784289 -0.354751 0.100732 2.341805152028776e-38
1.785486 -0.363992 0.100865 2.341805152028776e-38
1.783703 -0.372640 0.100832 2.341805152028776e-38
1.774068 -0.379608 0.100356 2.341805152028776e-38
1.837733 0.147230 0.093692 2.341805152028776e-38
1.828465 0.137575 0.093196 2.341805152028776e-38
1.826121 0.128504 0.093055 2.341805152028776e-38
1.823732 0.119459 0.092913 2.341805152028776e-38
1.825285 0.110682 0.092973 2.341805152028776e-38
1.823805 0.101726 0.092880 2.341805152028776e-38
1.824276 0.092888 0.092888 2.341805152028776e-38
1.822709 0.083956 0.092794 2.341805152028776e-38
1.824092 0.075165 0.092851 2.341805152028776e-38
1.825433 0.066363 0.092908 2.341805152028776e-38
1.825733 0.057517 0.092913 2.341805152028776e-38
1.825990 0.048671 0.092917 2.341805152028776e-38
1.825205 0.039801 0.092870 2.341805152028776e-38
1.822381 0.030907 0.092720 2.341805152028776e-38
1.822509 0.022077 0.092723 2.341805152028776e-38
1.820597 0.013232 0.092622 2.341805152028776e-38
1.820640 0.004411 0.092623 2.341805152028776e-38
1.816645 -0.004401 0.092420 2.341805152028776e-38
1.814605 -0.013188 0.092317 2.341805152028776e-38
1.815519 -0.021992 0.092367 2.341805152028776e-38
1.815391 -0.030788 0.092365 2.341805152028776e-38
1.813224 -0.039540 0.092260 2.341805152028776e-38
1.813011 -0.048325 0.092257 2.341805152028776e-38
1.810760 -0.057046 0.092151 2.341805152028776e-38
1.811460 -0.065855 0.092196 2.341805152028776e-38
1.812118 -0.074672 0.092241 2.341805152028776e-38
1.811735 -0.083451 0.092235 2.341805152028776e-38
1.811310 -0.092228 0.092228 2.341805152028776e-38
1.812837 -0.101114 0.092321 2.341805152028776e-38
1.811329 -0.109836 0.092262 2.341805152028776e-38
1.810776 -0.118610 0.092253 2.341805152028776e-38
1.807192 -0.127172 0.092090 2.341805152028776e-38
1.806555 -0.135927 0.092079 2.341805152028776e-38
1.803885 -0.144519 0.091966 2.341805152028776e-38
1.805154 -0.153426 0.092056 2.341805152028776e-38
1.806380 -0.162349 0.092144 2.341805152028776e-38
1.806567 -0.171194 0.092181 2.341805152028776e-38
1.803730 -0.179747 0.092065 2.341805152028776e-38
1.802838 -0.188484 0.092050 2.341805152028776e-38
1.802897 -0.197325 0.092085 2.341805152028776e-38
1.803905 -0.206285 0.092170 2.341805152028776e-38
1.802886 -0.215023 0.092153 2.341805152028776e-38
1.801824 -0.223756 0.092135 2.341805152028776e-38
1.800719 -0.232483 0.092116 2.341805152028776e-38
1.801553 -0.241470 0.092198 2.341805152028776e-38
1.798384 -0.249921 0.092076 2.341805152028776e-38
1.799130 -0.258916 0.092157 2.341805152028776e-38
1.798844 -0.267777 0.092186 2.341805152028776e-38
1.798513 -0.276642 0.092214 2.341805152028776e-38
1.796167 -0.285196 0.092140 2.341805152028776e-38
1.794765 -0.293895 0.092116 2.341805152028776e-38
1.795291 -0.302920 0.092193 2.341805152028776e-38
1.791835 -0.311273 0.092067 2.341805152028776e-38
1.789324 -0.319776 0.091990 2.341805152028776e-38
1.789720 -0.328802 0.092065 2.341805152028776e-38
1.788107 -0.337470 0.092037 2.341805152028776e-38
1.785472 -0.345940 0.091959 2.341805152028776e-38
1.786715 -0.355171 0.092081 2.341805152028776e-38
1.784975 -0.363823 0.092052 2.341805152028776e-38
1.784170 -0.372672 0.092072 2.341805152028776e-38
1.773556 -0.379432 0.091587 2.341805152028776e-38
1.839160 0.147322 0.084822 2.341805152028776e-38
1.830887 0.137736 0.084419 2.341805152028776e-38
1.828543 0.128654 0.084291 2.341805152028776e-38
1.826154 0.119599 0.084162 2.341805152028776e-38
1.827708 0.110812 0.084217 2.341805152028776e-38
1.826228 0.101845 0.084133 2.341805152028776e-38
1.825702 0.092946 0.084094 2.341805152028776e-38
1.824135 0.084009 0.084009 2.341805152028776e-38
1.826517 0.075253 0.084107 2.341805152028776e-38
1.828856 0.066477 0.084204 2.341805152028776e-38
1.829156 0.057616 0.084208 2.341805152028776e-38
1.824421 0.048621 0.083982 2.341805152028776e-38
1.822638 0.039739 0.083894 2.341805152028776e-38
1.822809 0.030909 0.083896 2.341805152028776e-38
1.821938 0.022066 0.083852 2.341805152028776e-38
1.821025 0.013233 0.083808 2.341805152028776e-38
1.818070 0.004404 0.083670 2.341805152028776e-38
1.817071 -0.004401 0.083624 2.341805152028776e-38
1.817029 -0.013204 0.083624 2.341805152028776e-38
1.817943 -0.022018 0.083668 2.341805152028776e-38
1.815817 -0.030791 0.083575 2.341805152028776e-38
1.815647 -0.039587 0.083572 2.341805152028776e-38
1.812438 -0.048302 0.083431 2.341805152028776e-38
1.812183 -0.057082 0.083427 2.341805152028776e-38
1.813882 -0.065932 0.083514 2.341805152028776e-38
1.812543 -0.074677 0.083463 2.341805152028776e-38
1.811163 -0.083411 0.083411 2.341805152028776e-38
1.813731 -0.092337 0.083543 2.341805152028776e-38
1.814260 -0.101177 0.083581 2.341805152028776e-38
1.811754 -0.109844 0.083482 2.341805152028776e-38
1.812198 -0.118685 0.083519 2.341805152028776e-38
1.810606 -0.127392 0.083464 2.341805152028776e-38
1.807976 -0.136012 0.083362 2.341805152028776e-38
1.805305 -0.144610 0.083260 2.341805152028776e-38
1.806574 -0.153523 0.083341 2.341805152028776e-38
1.805810 -0.162273 0.083329 2.341805152028776e-38
1.805003 -0.171019 0.083317 2.341805152028776e-38
1.804154 -0.179761 0.083304 2.341805152028776e-38
1.803263 -0.188499 0.083290 2.341805152028776e-38
1.806301 -0.197667 0.083459 2.341805152028776e-38
1.806315 -0.206528 0.083490 2.341805152028776e-38
1.804303 -0.215158 0.083429 2.341805152028776e-38
1.800266 -0.223527 0.083275 2.341805152028776e-38
1.803126 -0.232757 0.083441 2.341805152028776e-38
1.801978 -0.241489 0.083424 2.341805152028776e-38
1.801777 -0.250353 0.083451 2.341805152028776e-38
1.799555 -0.258937 0.083386 2.341805152028776e-38
1.800257 -0.267945 0.083458 2.341805152028776e-38
1.799926 -0.276815 0.083484 2.341805152028776e-38
1.797578 -0.285375 0.083417 2.341805152028776e-38
1.796175 -0.294080 0.083396 2.341805152028776e-38
1.796701 -0.303110 0.083465 2.341805152028776e-38
1.794228 -0.311639 0.083396 2.341805152028776e-38
1.792699 -0.320328 0.083373 2.341805152028776e-38
1.787197 -0.328287 0.083166 2.341805152028776e-38
1.786568 -0.337126 0.083187 2.341805152028776e-38
1.785896 -0.345967 0.083207 2.341805152028776e-38
1.786160 -0.355004 0.083272 2.341805152028776e-38
1.785399 -0.363852 0.083291 2.341805152028776e-38
1.784595 -0.372701 0.083310 2.341805152028776e-38
1.772024 -0.379044 0.082780 2.341805152028776e-38
1.838553 0.147252 0.075857 2.341805152028776e-38
1.829281 0.137596 0.075456 2.341805152028776e-38
1.827932 0.128593 0.075382 2.341805152028776e-38
1.826540 0.119607 0.075308 2.341805152028776e-38
1.826100 0.110698 0.075275 2.341805152028776e-38
1.824619 0.101741 0.075200 2.341805152028776e-38
1.825090 0.092902 0.075206 2.341805152028776e-38
1.824520 0.084015 0.075171 2.341805152028776e-38
1.827901 0.075300 0.075300 2.341805152028776e-38
1.832238 0.066590 0.075469 2.341805152028776e-38
1.828544 0.057589 0.075308 2.341805152028776e-38
1.826804 0.048678 0.075230 2.341805152028776e-38
1.827018 0.039829 0.075233 2.341805152028776e-38
1.821195 0.030877 0.074988 2.341805152028776e-38
1.820324 0.022044 0.074949 2.341805152028776e-38
1.819411 0.013219 0.074909 2.341805152028776e-38
1.818454 0.004404 0.074868 2.341805152028776e-38
1.816456 -0.004399 0.074786 2.341805152028776e-38
1.818411 -0.013212 0.074868 2.341805152028776e-38
1.819325 -0.022032 0.074908 2.341805152028776e-38
1.819197 -0.030844 0.074906 2.341805152028776e-38
1.815031 -0.039568 0.074739 2.341805152028776e-38
1.814818 -0.048359 0.074736 2.341805152028776e-38
1.812565 -0.057086 0.074650 2.341805152028776e-38
1.814265 -0.065937 0.074729 2.341805152028776e-38
1.812926 -0.074683 0.074683 2.341805152028776e-38
1.815538 -0.083601 0.074801 2.341805152028776e-38
1.815112 -0.092394 0.074795 2.341805152028776e-38
1.813645 -0.101129 0.074747 2.341805152028776e-38
1.812137 -0.109852 0.074699 2.341805152028776e-38
1.812581 -0.118693 0.074733 2.341805152028776e-38
1.807999 -0.127191 0.074560 2.341805152028776e-38
1.808358 -0.136022 0.074593 2.341805152028776e-38
1.805686 -0.144620 0.074501 2.341805152028776e-38
1.805961 -0.153449 0.074532 2.341805152028776e-38
1.807187 -0.162373 0.074604 2.341805152028776e-38
1.807375 -0.171219 0.074634 2.341805152028776e-38
1.805530 -0.179872 0.074581 2.341805152028776e-38
1.806626 -0.188823 0.074651 2.341805152028776e-38
1.807677 -0.197789 0.074720 2.341805152028776e-38
1.806698 -0.206543 0.074707 2.341805152028776e-38
1.804685 -0.215173 0.074652 2.341805152028776e-38
1.804614 -0.224035 0.074678 2.341805152028776e-38
1.803508 -0.232773 0.074663 2.341805152028776e-38
1.803351 -0.241639 0.074688 2.341805152028776e-38
1.799191 -0.249959 0.074549 2.341805152028776e-38
1.799937 -0.258955 0.074614 2.341805152028776e-38
1.801628 -0.268111 0.074720 2.341805152028776e-38
1.800309 -0.276835 0.074701 2.341805152028776e-38
1.798947 -0.285552 0.074683 2.341805152028776e-38
1.798530 -0.294423 0.074704 2.341805152028776e-38
1.798069 -0.303298 0.074725 2.341805152028776e-38
1.796580 -0.312003 0.074705 2.341805152028776e-38
1.791114 -0.319999 0.074520 2.341805152028776e-38
1.788561 -0.328490 0.074458 2.341805152028776e-38
1.785968 -0.336964 0.074395 2.341805152028776e-38
1.787259 -0.346181 0.074495 2.341805152028776e-38
1.785562 -0.354834 0.074471 2.341805152028776e-38
1.785781 -0.363878 0.074529 2.341805152028776e-38
1.783999 -0.372523 0.074505 2.341805152028776e-38
1.775335 -0.379697 0.074194 2.341805152028776e-38
1.835911 0.147022 0.066828 2.341805152028776e-38
1.833611 0.137904 0.066728 2.341805152028776e-38
1.832263 0.128882 0.066663 2.341805152028776e-38
1.827880 0.119680 0.066489 2.341805152028776e-38
1.825445 0.110645 0.066387 2.341805152028776e-38
1.830948 0.102081 0.066575 2.341805152028776e-38
1.833417 0.093314 0.066653 2.341805152028776e-38
1.834846 0.084479 0.066694 2.341805152028776e-38
1.833236 0.075510 0.066626 2.341805152028776e-38
1.831583 0.066558 0.066558 2.341805152028776e-38
1.831884 0.057687 0.066562 2.341805152028776e-38
1.830143 0.048761 0.066492 2.341805152028776e-38
1.825363 0.039788 0.066313 2.341805152028776e-38
1.824535 0.030930 0.066279 2.341805152028776e-38
1.823664 0.022081 0.066244 2.341805152028776e-38
1.822750 0.013242 0.066209 2.341805152028776e-38
1.821793 0.004412 0.066173 2.341805152028776e-38
1.822793 -0.004414 0.066210 2.341805152028776e-38
1.821751 -0.013235 0.066173 2.341805152028776e-38
1.821665 -0.022057 0.066172 2.341805152028776e-38
1.817540 -0.030812 0.066025 2.341805152028776e-38
1.818369 -0.039636 0.066059 2.341805152028776e-38
1.816158 -0.048388 0.065984 2.341805152028776e-38
1.816901 -0.057215 0.066017 2.341805152028776e-38
1.815604 -0.065977 0.065977 2.341805152028776e-38
1.812268 -0.074646 0.065864 2.341805152028776e-38
1.809889 -0.083330 0.065787 2.341805152028776e-38
1.811460 -0.092196 0.065855 2.341805152028776e-38
1.812988 -0.101080 0.065921 2.341805152028776e-38
1.813475 -0.109919 0.065952 2.341805152028776e-38
1.809930 -0.118505 0.065836 2.341805152028776e-38
1.808338 -0.127199 0.065793 2.341805152028776e-38
1.806705 -0.135880 0.065749 2.341805152028776e-38
1.805030 -0.144549 0.065704 2.341805152028776e-38
1.807296 -0.153543 0.065804 2.341805152028776e-38
1.807527 -0.162384 0.065831 2.341805152028776e-38
1.809704 -0.171418 0.065930 2.341805152028776e-38
1.807859 -0.180082 0.065884 2.341805152028776e-38
1.805972 -0.188731 0.065837 2.341805152028776e-38
1.808017 -0.197802 0.065934 2.341805152028776e-38
1.807039 -0.206556 0.065922 2.341805152028776e-38
1.805025 -0.215187 0.065873 2.341805152028776e-38
1.805946 -0.224172 0.065933 2.341805152028776e-38
1.803848 -0.232788 0.065883 2.341805152028776e-38
1.802700 -0.241521 0.065869 2.341805152028776e-38
1.800520 -0.250112 0.065819 2.341805152028776e-38
1.802256 -0.259256 0.065912 2.341805152028776e-38
1.800980 -0.267981 0.065897 2.341805152028776e-38
1.800649 -0.276852 0.065917 2.341805152028776e-38
1.800275 -0.285726 0.065937 2.341805152028776e-38
1.798870 -0.294442 0.065920 2.341805152028776e-38
1.800380 -0.303649 0.066011 2.341805152028776e-38
1.797904 -0.312194 0.065956 2.341805152028776e-38
1.794405 -0.320546 0.065866 2.341805152028776e-38
1.789883 -0.328691 0.065738 2.341805152028776e-38
1.790235 -0.337727 0.065791 2.341805152028776e-38
1.787598 -0.346203 0.065735 2.341805152028776e-38
1.788842 -0.355441 0.065822 2.341805152028776e-38
1.786121 -0.363900 0.065765 2.341805152028776e-38
1.783360 -0.372342 0.065707 2.341805152028776e-38
1.774696 -0.379512 0.065433 2.341805152028776e-38
1.842451 0.156513 0.058133 2.341805152028776e-38
1.837209 0.147110 0.057952 2.341805152028776e-38
1.832916 0.137837 0.057802 2.341805152028776e-38
1.828577 0.128608 0.057652 2.341805152028776e-38
1.826186 0.119556 0.057564 2.341805152028776e-38
1.826743 0.110711 0.057570 2.341805152028776e-38
1.838235 0.102476 0.057921 2.341805152028776e-38
1.846695 0.093979 0.058178 2.341805152028776e-38
1.845132 0.084944 0.058119 2.341805152028776e-38
1.837532 0.075679 0.057872 2.341805152028776e-38
1.831884 0.066562 0.057687 2.341805152028776e-38
1.831185 0.057658 0.057658 2.341805152028776e-38
1.829445 0.048737 0.057598 2.341805152028776e-38
1.826661 0.039812 0.057506 2.341805152028776e-38
1.826833 0.030966 0.057508 2.341805152028776e-38
1.822963 0.022071 0.057383 2.341805152028776e-38
1.819051 0.013213 0.057258 2.341805152028776e-38
1.817095 0.004400 0.057196 2.341805152028776e-38
1.817095 -0.004400 0.057196 2.341805152028776e-38
1.817052 -0.013199 0.057196 2.341805152028776e-38
1.817966 -0.022010 0.057226 2.341805152028776e-38
1.818838 -0.030830 0.057256 2.341805152028776e-38
1.817668 -0.039616 0.057223 2.341805152028776e-38
1.816456 -0.048391 0.057189 2.341805152028776e-38
1.814202 -0.057124 0.057124 2.341805152028776e-38
1.813904 -0.065908 0.057121 2.341805152028776e-38
1.813564 -0.074691 0.057117 2.341805152028776e-38
1.811184 -0.083381 0.057050 2.341805152028776e-38
1.808763 -0.092049 0.056983 2.341805152028776e-38
1.808296 -0.100807 0.056978 2.341805152028776e-38
1.809783 -0.109683 0.057035 2.341805152028776e-38
1.808233 -0.118381 0.056998 2.341805152028776e-38
1.807639 -0.127136 0.056992 2.341805152028776e-38
1.807002 -0.135888 0.056985 2.341805152028776e-38
1.807319 -0.144717 0.057010 2.341805152028776e-38
1.807593 -0.153551 0.057033 2.341805152028776e-38
1.808820 -0.162482 0.057088 2.341805152028776e-38
1.809007 -0.171333 0.057111 2.341805152028776e-38
1.807162 -0.179993 0.057071 2.341805152028776e-38
1.806270 -0.188742 0.057061 2.341805152028776e-38
1.807322 -0.197704 0.057114 2.341805152028776e-38
1.805351 -0.206340 0.057073 2.341805152028776e-38
1.806315 -0.215317 0.057125 2.341805152028776e-38
1.805252 -0.224061 0.057114 2.341805152028776e-38
1.803155 -0.232673 0.057071 2.341805152028776e-38
1.802998 -0.241535 0.057090 2.341805152028776e-38
1.800818 -0.250125 0.057046 2.341805152028776e-38
1.798596 -0.258701 0.057002 2.341805152028776e-38
1.798311 -0.267555 0.057020 2.341805152028776e-38
1.799959 -0.276715 0.057100 2.341805152028776e-38
1.798598 -0.285429 0.057086 2.341805152028776e-38
1.798182 -0.294296 0.057102 2.341805152028776e-38
1.799693 -0.303499 0.057181 2.341805152028776e-38
1.796233 -0.311869 0.057103 2.341805152028776e-38
1.793718 -0.320388 0.057055 2.341805152028776e-38
1.792146 -0.329070 0.057039 2.341805152028776e-38
1.790532 -0.337745 0.057022 2.341805152028776e-38
1.786914 -0.346032 0.056942 2.341805152028776e-38
1.787178 -0.355071 0.056987 2.341805152028776e-38
1.788377 -0.364319 0.057062 2.341805152028776e-38
1.785614 -0.372771 0.057012 2.341805152028776e-38
1.774014 -0.379324 0.056681 2.341805152028776e-38
1.834742 0.155843 0.048979 2.341805152028776e-38
1.834478 0.146877 0.048959 2.341805152028776e-38
1.832177 0.137768 0.048885 2.341805152028776e-38
1.829831 0.128685 0.048811 2.341805152028776e-38
1.828438 0.119692 0.048764 2.341805152028776e-38
1.829994 0.110898 0.048795 2.341805152028776e-38
1.841488 0.102648 0.049092 2.341805152028776e-38
1.843960 0.093831 0.049150 2.341805152028776e-38
1.836404 0.084534 0.048941 2.341805152028776e-38
1.833795 0.075518 0.048864 2.341805152028776e-38
1.833140 0.066601 0.048841 2.341805152028776e-38
1.829445 0.057598 0.048737 2.341805152028776e-38
1.828703 0.048713 0.048713 2.341805152028776e-38
1.828917 0.039857 0.048715 2.341805152028776e-38
1.826090 0.030950 0.048636 2.341805152028776e-38
1.819222 0.022023 0.048451 2.341805152028776e-38
1.814309 0.013178 0.048319 2.341805152028776e-38
1.814351 0.004393 0.048319 2.341805152028776e-38
1.815351 -0.004395 0.048346 2.341805152028776e-38
1.818307 -0.013207 0.048425 2.341805152028776e-38
1.819222 -0.022023 0.048451 2.341805152028776e-38
1.819094 -0.030832 0.048450 2.341805152028776e-38
1.818923 -0.039640 0.048448 2.341805152028776e-38
1.815712 -0.048367 0.048367 2.341805152028776e-38
1.816456 -0.057189 0.048391 2.341805152028776e-38
1.815159 -0.065948 0.048362 2.341805152028776e-38
1.813819 -0.074695 0.048332 2.341805152028776e-38
1.810441 -0.083339 0.048249 2.341805152028776e-38
1.808019 -0.092003 0.048192 2.341805152028776e-38
1.812543 -0.101034 0.048321 2.341805152028776e-38
1.814029 -0.109930 0.048369 2.341805152028776e-38
1.810483 -0.118517 0.048285 2.341805152028776e-38
1.808890 -0.127212 0.048253 2.341805152028776e-38
1.808253 -0.135969 0.048247 2.341805152028776e-38
1.808571 -0.144803 0.048268 2.341805152028776e-38
1.806852 -0.153474 0.048235 2.341805152028776e-38
1.808079 -0.162400 0.048281 2.341805152028776e-38
1.808267 -0.171247 0.048301 2.341805152028776e-38
1.808412 -0.180100 0.048320 2.341805152028776e-38
1.806525 -0.188751 0.048285 2.341805152028776e-38
1.807577 -0.197713 0.048330 2.341805152028776e-38
1.807592 -0.206577 0.048348 2.341805152028776e-38
1.806571 -0.215327 0.048339 2.341805152028776e-38
1.805507 -0.224072 0.048329 2.341805152028776e-38
1.807376 -0.233195 0.048399 2.341805152028776e-38
1.803253 -0.241546 0.048309 2.341805152028776e-38
1.801072 -0.250137 0.048272 2.341805152028776e-38
1.799841 -0.258855 0.048261 2.341805152028776e-38
1.801533 -0.268008 0.048329 2.341805152028776e-38
1.801202 -0.276880 0.048344 2.341805152028776e-38
1.799841 -0.285599 0.048332 2.341805152028776e-38
1.798437 -0.294310 0.048320 2.341805152028776e-38
1.798963 -0.303347 0.048360 2.341805152028776e-38
1.796488 -0.311884 0.048320 2.341805152028776e-38
1.796925 -0.320930 0.048359 2.341805152028776e-38
1.794368 -0.329447 0.048319 2.341805152028776e-38
1.789805 -0.337576 0.048225 2.341805152028776e-38
1.789131 -0.346428 0.048237 2.341805152028776e-38
1.789394 -0.355477 0.048275 2.341805152028776e-38
1.788632 -0.364337 0.048286 2.341805152028776e-38
1.786847 -0.372993 0.048270 2.341805152028776e-38
1.776222 -0.379760 0.048016 2.341805152028776e-38
1.832965 0.155680 0.040032 2.341805152028776e-38
1.833697 0.146803 0.040037 2.341805152028776e-38
1.832393 0.137774 0.039999 2.341805152028776e-38
1.830046 0.128690 0.039938 2.341805152028776e-38
1.826657 0.119566 0.039855 2.341805152028776e-38
1.830208 0.110902 0.039925 2.341805152028776e-38
1.830724 0.102040 0.039929 2.341805152028776e-38
1.831196 0.093175 0.039932 2.341805152028776e-38
1.830627 0.084262 0.039913 2.341805152028776e-38
1.831014 0.075397 0.039916 2.341805152028776e-38
1.830358 0.066495 0.039897 2.341805152028776e-38
1.828660 0.057569 0.039855 2.341805152028776e-38
1.829917 0.048741 0.039879 2.341805152028776e-38
1.827133 0.039815 0.039815 2.341805152028776e-38
1.825305 0.030935 0.039773 2.341805152028776e-38
1.819435 0.022024 0.039643 2.341805152028776e-38
1.814522 0.013178 0.039535 2.341805152028776e-38
1.817563 0.004400 0.039601 2.341805152028776e-38
1.817563 -0.004400 0.039601 2.341805152028776e-38
1.818520 -0.013207 0.039622 2.341805152028776e-38
1.819435 -0.022024 0.039643 2.341805152028776e-38
1.820307 -0.030850 0.039664 2.341805152028776e-38
1.820136 -0.039663 0.039663 2.341805152028776e-38
1.820922 -0.048502 0.039683 2.341805152028776e-38
1.815670 -0.057160 0.039572 2.341805152028776e-38
1.817370 -0.066023 0.039614 2.341805152028776e-38
1.816030 -0.074780 0.039590 2.341805152028776e-38
1.814648 -0.083526 0.039565 2.341805152028776e-38
1.815221 -0.092362 0.039584 2.341805152028776e-38
1.821740 -0.101539 0.039733 2.341805152028776e-38
1.816237 -0.110056 0.039620 2.341805152028776e-38
1.813688 -0.118717 0.039572 2.341805152028776e-38
1.810100 -0.127287 0.039503 2.341805152028776e-38
1.810460 -0.136124 0.039520 2.341805152028776e-38
1.806790 -0.144649 0.039450 2.341805152028776e-38
1.808061 -0.153565 0.039488 2.341805152028776e-38
1.808292 -0.162406 0.039504 2.341805152028776e-38
1.806489 -0.171065 0.039477 2.341805152028776e-38
1.805640 -0.179810 0.039470 2.341805152028776e-38
1.804748 -0.188550 0.039464 2.341805152028776e-38
1.802821 -0.197177 0.039435 2.341805152028776e-38
1.806811 -0.206471 0.039537 2.341805152028776e-38
1.806783 -0.215335 0.039551 2.341805152028776e-38
1.808696 -0.224450 0.039609 2.341805152028776e-38
1.804614 -0.232821 0.039536 2.341805152028776e-38
1.804457 -0.241688 0.039549 2.341805152028776e-38
1.801285 -0.250147 0.039497 2.341805152028776e-38
1.803022 -0.259292 0.039553 2.341805152028776e-38
1.799767 -0.267725 0.039500 2.341805152028776e-38
1.802403 -0.277043 0.039578 2.341805152028776e-38
1.800053 -0.285610 0.039546 2.341805152028776e-38
1.798650 -0.294322 0.039536 2.341805152028776e-38
1.797204 -0.303027 0.039525 2.341805152028776e-38
1.795716 -0.311725 0.039514 2.341805152028776e-38
1.794186 -0.320416 0.039503 2.341805152028776e-38
1.794580 -0.329460 0.039535 2.341805152028776e-38
1.790999 -0.337774 0.039480 2.341805152028776e-38
1.792288 -0.347012 0.039533 2.341805152028776e-38
1.791568 -0.355880 0.039542 2.341805152028776e-38
1.791783 -0.364949 0.039573 2.341805152028776e-38
1.787059 -0.373008 0.039495 2.341805152028776e-38
1.777411 -0.379984 0.039309 2.341805152028776e-38
1.827160 0.155177 0.031035 2.341805152028776e-38
1.832873 0.146728 0.031124 2.341805152028776e-38
1.833562 0.137853 0.031128 2.341805152028776e-38
1.830218 0.128694 0.031064 2.341805152028776e-38
1.827826 0.119635 0.031017 2.341805152028776e-38
1.828384 0.110785 0.031020 2.341805152028776e-38
1.828899 0.101932 0.031023 2.341805152028776e-38
1.829371 0.093076 0.031025 2.341805152028776e-38
1.830799 0.084264 0.031045 2.341805152028776e-38
1.832184 0.075441 0.031064 2.341805152028776e-38
1.830530 0.066497 0.031032 2.341805152028776e-38
1.830830 0.057634 0.031034 2.341805152028776e-38
1.829089 0.048716 0.031001 2.341805152028776e-38
1.828304 0.039838 0.030985 2.341805152028776e-38
1.824476 0.030919 0.030919 2.341805152028776e-38
1.821605 0.022049 0.030869 2.341805152028776e-38
1.819691 0.013215 0.030835 2.341805152028776e-38
1.821733 0.004410 0.030869 2.341805152028776e-38
1.822733 -0.004412 0.030886 2.341805152028776e-38
1.822690 -0.013237 0.030886 2.341805152028776e-38
1.821605 -0.022049 0.030869 2.341805152028776e-38
1.822477 -0.030885 0.030885 2.341805152028776e-38
1.820307 -0.039664 0.030850 2.341805152028776e-38
1.819094 -0.048450 0.030832 2.341805152028776e-38
1.817839 -0.057225 0.030813 2.341805152028776e-38
1.819539 -0.066098 0.030846 2.341805152028776e-38
1.816200 -0.074783 0.030793 2.341805152028776e-38
1.816816 -0.083621 0.030808 2.341805152028776e-38
1.820384 -0.092619 0.030873 2.341805152028776e-38
1.820912 -0.101486 0.030887 2.341805152028776e-38
1.817406 -0.110120 0.030833 2.341805152028776e-38
1.815854 -0.118852 0.030813 2.341805152028776e-38
1.813262 -0.127501 0.030776 2.341805152028776e-38
1.813621 -0.136354 0.030790 2.341805152028776e-38
1.810946 -0.144973 0.030752 2.341805152028776e-38
1.811219 -0.153823 0.030765 2.341805152028776e-38
1.807466 -0.162322 0.030710 2.341805152028776e-38
1.807655 -0.171165 0.030722 2.341805152028776e-38
1.805810 -0.179816 0.030700 2.341805152028776e-38
1.802929 -0.188348 0.030661 2.341805152028776e-38
1.802990 -0.197184 0.030673 2.341805152028776e-38
1.805988 -0.206364 0.030735 2.341805152028776e-38
1.804968 -0.215105 0.030729 2.341805152028776e-38
1.806882 -0.224211 0.030774 2.341805152028776e-38
1.805776 -0.232956 0.030768 2.341805152028776e-38
1.804627 -0.241696 0.030761 2.341805152028776e-38
1.803436 -0.250430 0.030755 2.341805152028776e-38
1.801213 -0.259016 0.030731 2.341805152028776e-38
1.800926 -0.267880 0.030740 2.341805152028776e-38
1.800597 -0.276748 0.030750 2.341805152028776e-38
1.801211 -0.285775 0.030776 2.341805152028776e-38
1.808687 -0.295946 0.030920 2.341805152028776e-38
1.809205 -0.305031 0.030945 2.341805152028776e-38
1.802782 -0.312932 0.030852 2.341805152028776e-38
1.795340 -0.320601 0.030743 2.341805152028776e-38
1.794750 -0.329470 0.030751 2.341805152028776e-38
1.794117 -0.338341 0.030758 2.341805152028776e-38
1.794421 -0.347403 0.030783 2.341805152028776e-38
1.792719 -0.356086 0.030773 2.341805152028776e-38
1.790974 -0.364761 0.030763 2.341805152028776e-38
1.788208 -0.373224 0.030736 2.341805152028776e-38
1.784425 -0.381459 0.030692 2.341805152028776e-38
1.822307 0.154758 0.022108 2.341805152028776e-38
1.831009 0.146572 0.022208 2.341805152028776e-38
1.831697 0.137706 0.022211 2.341805152028776e-38
1.828352 0.128556 0.022165 2.341805152028776e-38
1.825960 0.119508 0.022131 2.341805152028776e-38
1.827515 0.110727 0.022145 2.341805152028776e-38
1.828029 0.101878 0.022147 2.341805152028776e-38
1.829500 0.093078 0.022161 2.341805152028776e-38
1.828930 0.084174 0.022151 2.341805152028776e-38
1.831314 0.075401 0.022177 2.341805152028776e-38
1.830659 0.066498 0.022166 2.341805152028776e-38
1.830959 0.057635 0.022167 2.341805152028776e-38
1.829217 0.048717 0.022144 2.341805152028776e-38
1.828432 0.039839 0.022133 2.341805152028776e-38
1.825604 0.030936 0.022097 2.341805152028776e-38
1.825733 0.022098 0.022098 2.341805152028776e-38
1.825818 0.013259 0.022098 2.341805152028776e-38
1.824861 0.004417 0.022086 2.341805152028776e-38
1.821861 -0.004410 0.022050 2.341805152028776e-38
1.821819 -0.013230 0.022050 2.341805152028776e-38
1.818734 -0.022013 0.022013 2.341805152028776e-38
1.819605 -0.030835 0.022025 2.341805152028776e-38
1.816436 -0.039578 0.021988 2.341805152028776e-38
1.819222 -0.048451 0.022023 2.341805152028776e-38
1.816967 -0.057195 0.021998 2.341805152028776e-38
1.815670 -0.065954 0.021985 2.341805152028776e-38
1.815329 -0.074743 0.021983 2.341805152028776e-38
1.814946 -0.083531 0.021982 2.341805152028776e-38
1.816517 -0.092418 0.022004 2.341805152028776e-38
1.818046 -0.101322 0.022027 2.341805152028776e-38
1.816536 -0.110062 0.022012 2.341805152028776e-38
1.814984 -0.118789 0.021998 2.341805152028776e-38
1.814387 -0.127575 0.021996 2.341805152028776e-38
1.812752 -0.136282 0.021981 2.341805152028776e-38
1.808084 -0.144737 0.021930 2.341805152028776e-38
1.808358 -0.153573 0.021939 2.341805152028776e-38
1.808589 -0.162415 0.021948 2.341805152028776e-38
1.808777 -0.171263 0.021957 2.341805152028776e-38
1.805937 -0.179820 0.021929 2.341805152028776e-38
1.802062 -0.188249 0.021889 2.341805152028776e-38
1.800135 -0.196862 0.021874 2.341805152028776e-38
1.805122 -0.206256 0.021942 2.341805152028776e-38
1.804103 -0.214992 0.021938 2.341805152028776e-38
1.804033 -0.223847 0.021946 2.341805152028776e-38
1.801937 -0.232450 0.021929 2.341805152028776e-38
1.802772 -0.241436 0.021949 2.341805152028776e-38
1.802573 -0.250298 0.021956 2.341805152028776e-38
1.804309 -0.259449 0.021987 2.341805152028776e-38
1.802043 -0.268034 0.021970 2.341805152028776e-38
1.801713 -0.276906 0.021977 2.341805152028776e-38
1.811215 -0.287349 0.022104 2.341805152028776e-38
1.820657 -0.297890 0.022231 2.341805152028776e-38
1.814264 -0.305869 0.022164 2.341805152028776e-38
1.803895 -0.313110 0.022050 2.341805152028776e-38
1.795468 -0.320609 0.021960 2.341805152028776e-38
1.792911 -0.329117 0.021941 2.341805152028776e-38
1.791297 -0.337793 0.021935 2.341805152028776e-38
1.790622 -0.346651 0.021940 2.341805152028776e-38
1.788923 -0.355315 0.021933 2.341805152028776e-38
1.789142 -0.364371 0.021950 2.341805152028776e-38
1.787357 -0.373028 0.021943 2.341805152028776e-38
1.785530 -0.381677 0.021935 2.341805152028776e-38
1.810035 -0.396088 0.022252 2.341805152028776e-38
1.819403 0.154506 0.013243 2.341805152028776e-38
1.829101 0.146415 0.013310 2.341805152028776e-38
1.828791 0.137483 0.013305 2.341805152028776e-38
1.827440 0.128488 0.013292 2.341805152028776e-38
1.825047 0.119444 0.013272 2.341805152028776e-38
1.828599 0.110789 0.013295 2.341805152028776e-38
1.826118 0.101769 0.013274 2.341805152028776e-38
1.829586 0.093080 0.013297 2.341805152028776e-38
1.828017 0.084130 0.013284 2.341805152028776e-38
1.828403 0.075279 0.013285 2.341805152028776e-38
1.831744 0.066536 0.013307 2.341805152028776e-38
1.831045 0.057636 0.013301 2.341805152028776e-38
1.831302 0.048771 0.013301 2.341805152028776e-38
1.832517 0.039927 0.013309 2.341805152028776e-38
1.831689 0.031038 0.013302 2.341805152028776e-38
1.827818 0.022122 0.013273 2.341805152028776e-38
1.824904 0.013252 0.013252 2.341805152028776e-38
1.823947 0.004415 0.013245 2.341805152028776e-38
1.821947 -0.004410 0.013230 2.341805152028776e-38
1.820904 -0.013223 0.013223 2.341805152028776e-38
1.817819 -0.022001 0.013201 2.341805152028776e-38
1.818691 -0.030818 0.013208 2.341805152028776e-38
1.817521 -0.039600 0.013200 2.341805152028776e-38
1.818307 -0.048425 0.013207 2.341805152028776e-38
1.817052 -0.057196 0.013199 2.341805152028776e-38
1.819752 -0.066100 0.013220 2.341805152028776e-38
1.817412 -0.074827 0.013205 2.341805152028776e-38
1.818028 -0.083670 0.013211 2.341805152028776e-38
1.817601 -0.092470 0.013210 2.341805152028776e-38
1.820128 -0.101435 0.013231 2.341805152028776e-38
1.815623 -0.110003 0.013200 2.341805152028776e-38
1.815069 -0.118791 0.013199 2.341805152028776e-38
1.812478 -0.127436 0.013183 2.341805152028776e-38
1.811839 -0.136209 0.013182 2.341805152028776e-38
1.809165 -0.144819 0.013165 2.341805152028776e-38
1.810436 -0.153745 0.013178 2.341805152028776e-38
1.811662 -0.162686 0.013191 2.341805152028776e-38
1.812845 -0.171643 0.013203 2.341805152028776e-38
1.807017 -0.179922 0.013165 2.341805152028776e-38
1.809109 -0.188979 0.013185 2.341805152028776e-38
1.808173 -0.197735 0.013182 2.341805152028776e-38
1.808188 -0.206599 0.013187 2.341805152028776e-38
1.805181 -0.215114 0.013170 2.341805152028776e-38
1.805110 -0.223973 0.013175 2.341805152028776e-38
1.804005 -0.232709 0.013172 2.341805152028776e-38
1.805831 -0.241838 0.013191 2.341805152028776e-38
1.804639 -0.250577 0.013188 2.341805152028776e-38
1.804394 -0.259453 0.013193 2.341805152028776e-38
1.804106 -0.268332 0.013197 2.341805152028776e-38
1.806740 -0.277670 0.013222 2.341805152028776e-38
1.811300 -0.287353 0.013262 2.341805152028776e-38
1.816796 -0.297249 0.013310 2.341805152028776e-38
1.811391 -0.305376 0.013277 2.341805152028776e-38
1.802995 -0.312944 0.013223 2.341805152028776e-38
1.794568 -0.320438 0.013169 2.341805152028776e-38
1.792996 -0.329122 0.013165 2.341805152028776e-38
1.789416 -0.337427 0.013147 2.341805152028776e-38
1.789725 -0.346466 0.013157 2.341805152028776e-38
1.789008 -0.355321 0.013160 2.341805152028776e-38
1.788247 -0.364177 0.013163 2.341805152028776e-38
1.789400 -0.373442 0.013180 2.341805152028776e-38
1.785615 -0.381683 0.013161 2.341805152028776e-38
1.825425 0.155015 0.004429 2.341805152028776e-38
1.828147 0.146336 0.004434 2.341805152028776e-38
1.828834 0.137484 0.004435 2.341805152028776e-38
1.830476 0.128700 0.004438 2.341805152028776e-38
1.827086 0.119576 0.004429 2.341805152028776e-38
1.830638 0.110911 0.004436 2.341805152028776e-38
1.829156 0.101936 0.004432 2.341805152028776e-38
1.830627 0.093131 0.004435 2.341805152028776e-38
1.832056 0.084314 0.004438 2.341805152028776e-38
1.834440 0.075526 0.004443 2.341805152028776e-38
1.832786 0.066573 0.004438 2.341805152028776e-38
1.834086 0.057731 0.004441 2.341805152028776e-38
1.833345 0.048825 0.004439 2.341805152028776e-38
1.835559 0.039993 0.004444 2.341805152028776e-38
1.831732 0.031039 0.004434 2.341805152028776e-38
1.827861 0.022123 0.004425 2.341805152028776e-38
1.824947 0.013252 0.004417 2.341805152028776e-38
1.825989 0.004420 0.004420 2.341805152028776e-38
1.822989 -0.004413 0.004413 2.341805152028776e-38
1.820947 -0.013223 0.004408 2.341805152028776e-38
1.816862 -0.021989 0.004398 2.341805152028776e-38
1.816734 -0.030785 0.004398 2.341805152028776e-38
1.818563 -0.039622 0.004402 2.341805152028776e-38
1.820349 -0.048479 0.004407 2.341805152028776e-38
1.819094 -0.057259 0.004405 2.341805152028776e-38
1.818795 -0.066064 0.004404 2.341805152028776e-38
1.815457 -0.074745 0.004397 2.341805152028776e-38
1.816072 -0.083579 0.004399 2.341805152028776e-38
1.817644 -0.092471 0.004403 2.341805152028776e-38
1.818174 -0.101324 0.004405 2.341805152028776e-38
1.815665 -0.110004 0.004400 2.341805152028776e-38
1.815112 -0.118792 0.004400 2.341805152028776e-38
1.813518 -0.127507 0.004397 2.341805152028776e-38
1.813876 -0.136360 0.004399 2.341805152028776e-38
1.811201 -0.144980 0.004393 2.341805152028776e-38
1.812471 -0.153915 0.004398 2.341805152028776e-38
1.810709 -0.162598 0.004395 2.341805152028776e-38
1.810896 -0.171456 0.004396 2.341805152028776e-38
1.809050 -0.180121 0.004393 2.341805152028776e-38
1.808157 -0.188877 0.004392 2.341805152028776e-38
1.808215 -0.197736 0.004394 2.341805152028776e-38
1.807237 -0.206487 0.004393 2.341805152028776e-38
1.804230 -0.214997 0.004388 2.341805152028776e-38
1.807138 -0.224221 0.004396 2.341805152028776e-38
1.808015 -0.233223 0.004400 2.341805152028776e-38
1.806864 -0.241973 0.004399 2.341805152028776e-38
1.804681 -0.250579 0.004396 2.341805152028776e-38
1.803447 -0.259312 0.004395 2.341805152028776e-38
1.803160 -0.268187 0.004397 2.341805152028776e-38
1.804806 -0.277368 0.004403 2.341805152028776e-38
1.805417 -0.286416 0.004406 2.341805152028776e-38
1.808944 -0.295959 0.004417 2.341805152028776e-38
1.805518 -0.304380 0.004411 2.341805152028776e-38
1.802052 -0.312775 0.004405 2.341805152028776e-38
1.798548 -0.321144 0.004399 2.341805152028776e-38
1.797956 -0.330027 0.004400 2.341805152028776e-38
1.795355 -0.338542 0.004397 2.341805152028776e-38
1.790750 -0.346659 0.004388 2.341805152028776e-38
1.791012 -0.355713 0.004392 2.341805152028776e-38
1.793189 -0.365178 0.004400 2.341805152028776e-38
1.794337 -0.374467 0.004405 2.341805152028776e-38
1.824428 0.154931 -0.004427 2.341805152028776e-38
1.831138 0.146576 -0.004442 2.341805152028776e-38
1.832823 0.137784 -0.004445 2.341805152028776e-38
1.832471 0.128840 -0.004443 2.341805152028776e-38
1.833073 0.119968 -0.004443 2.341805152028776e-38
1.834631 0.111153 -0.004446 2.341805152028776e-38
1.835147 0.102270 -0.004447 2.341805152028776e-38
1.835621 0.093385 -0.004447 2.341805152028776e-38
1.835052 0.084452 -0.004445 2.341805152028776e-38
1.838437 0.075691 -0.004452 2.341805152028776e-38
1.836783 0.066718 -0.004448 2.341805152028776e-38
1.836085 0.057794 -0.004446 2.341805152028776e-38
1.837343 0.048931 -0.004448 2.341805152028776e-38
1.835559 0.039993 -0.004444 2.341805152028776e-38
1.833731 0.031073 -0.004439 2.341805152028776e-38
1.830860 0.022159 -0.004432 2.341805152028776e-38
1.828946 0.013281 -0.004427 2.341805152028776e-38
1.825989 0.004420 -0.004420 2.341805152028776e-38
1.822989 -0.004413 -0.004413 2.341805152028776e-38
1.820947 -0.013223 -0.004408 2.341805152028776e-38
1.819861 -0.022026 -0.004405 2.341805152028776e-38
1.818734 -0.030818 -0.004403 2.341805152028776e-38
1.818563 -0.039622 -0.004402 2.341805152028776e-38
1.819350 -0.048452 -0.004405 2.341805152028776e-38
1.818094 -0.057227 -0.004402 2.341805152028776e-38
1.816797 -0.065992 -0.004399 2.341805152028776e-38
1.814458 -0.074704 -0.004394 2.341805152028776e-38
1.816072 -0.083579 -0.004399 2.341805152028776e-38
1.816645 -0.092420 -0.004401 2.341805152028776e-38
1.817175 -0.101269 -0.004403 2.341805152028776e-38
1.816664 -0.110064 -0.004403 2.341805152028776e-38
1.816109 -0.118857 -0.004402 2.341805152028776e-38
1.815513 -0.127648 -0.004402 2.341805152028776e-38
1.813876 -0.136360 -0.004399 2.341805152028776e-38
1.812198 -0.145059 -0.004396 2.341805152028776e-38
1.813468 -0.154000 -0.004400 2.341805152028776e-38
1.814693 -0.162956 -0.004404 2.341805152028776e-38
1.811892 -0.171550 -0.004399 2.341805152028776e-38
1.809050 -0.180121 -0.004393 2.341805152028776e-38
1.809151 -0.188981 -0.004395 2.341805152028776e-38
1.808215 -0.197736 -0.004394 2.341805152028776e-38
1.809224 -0.206714 -0.004398 2.341805152028776e-38
1.808202 -0.215470 -0.004397 2.341805152028776e-38
1.810115 -0.224591 -0.004404 2.341805152028776e-38
1.810990 -0.233607 -0.004408 2.341805152028776e-38
1.810829 -0.242503 -0.004409 2.341805152028776e-38
1.804681 -0.250579 -0.004396 2.341805152028776e-38
1.805427 -0.259597 -0.004400 2.341805152028776e-38
1.803160 -0.268187 -0.004397 2.341805152028776e-38
1.805794 -0.277520 -0.004405 2.341805152028776e-38
1.803442 -0.286102 -0.004402 2.341805152028776e-38
1.803023 -0.294991 -0.004403 2.341805152028776e-38
1.801573 -0.303716 -0.004402 2.341805152028776e-38
1.800082 -0.312433 -0.004400 2.341805152028776e-38
1.799533 -0.321319 -0.004402 2.341805152028776e-38
1.799923 -0.330388 -0.004405 2.341805152028776e-38
1.796338 -0.338727 -0.004399 2.341805152028776e-38
1.796640 -0.347799 -0.004403 2.341805152028776e-38
1.795916 -0.356687 -0.004404 2.341805152028776e-38
1.794169 -0.365377 -0.004402 2.341805152028776e-38
1.789442 -0.373445 -0.004393 2.341805152028776e-38
1.793481 -0.383358 -0.004406 2.341805152028776e-38
1.826378 0.155099 -0.013294 2.341805152028776e-38
1.835082 0.146894 -0.013354 2.341805152028776e-38
1.836769 0.138083 -0.013363 2.341805152028776e-38
1.836418 0.129120 -0.013357 2.341805152028776e-38
1.835026 0.120097 -0.013344 2.341805152028776e-38
1.838580 0.111394 -0.013367 2.341805152028776e-38
1.836102 0.102325 -0.013347 2.341805152028776e-38
1.835578 0.093384 -0.013341 2.341805152028776e-38
1.836008 0.084497 -0.013342 2.341805152028776e-38
1.837395 0.075649 -0.013350 2.341805152028776e-38
1.835741 0.066681 -0.013336 2.341805152028776e-38
1.839041 0.057888 -0.013359 2.341805152028776e-38
1.835301 0.048878 -0.013330 2.341805152028776e-38
1.836516 0.040014 -0.013338 2.341805152028776e-38
1.835688 0.031106 -0.013331 2.341805152028776e-38
1.835817 0.022219 -0.013332 2.341805152028776e-38
1.828904 0.013281 -0.013281 2.341805152028776e-38
1.825947 0.004420 -0.013259 2.341805152028776e-38
1.821947 -0.004410 -0.013230 2.341805152028776e-38
1.820904 -0.013223 -0.013223 2.341805152028776e-38
1.819819 -0.022026 -0.013215 2.341805152028776e-38
1.819691 -0.030835 -0.013215 2.341805152028776e-38
1.816521 -0.039579 -0.013193 2.341805152028776e-38
1.818307 -0.048425 -0.013207 2.341805152028776e-38
1.817052 -0.057196 -0.013199 2.341805152028776e-38
1.817753 -0.066028 -0.013206 2.341805152028776e-38
1.815414 -0.074744 -0.013190 2.341805152028776e-38
1.816030 -0.083578 -0.013197 2.341805152028776e-38
1.815604 -0.092368 -0.013195 2.341805152028776e-38
1.818131 -0.101324 -0.013216 2.341805152028776e-38
1.814625 -0.109943 -0.013193 2.341805152028776e-38
1.815069 -0.118791 -0.013199 2.341805152028776e-38
1.814473 -0.127577 -0.013198 2.341805152028776e-38
1.816825 -0.136584 -0.013218 2.341805152028776e-38
1.815146 -0.145298 -0.013209 2.341805152028776e-38
1.817411 -0.154337 -0.013229 2.341805152028776e-38
1.813654 -0.162865 -0.013205 2.341805152028776e-38
1.814836 -0.171832 -0.013218 2.341805152028776e-38
1.811992 -0.180417 -0.013201 2.341805152028776e-38
1.812092 -0.189291 -0.013206 2.341805152028776e-38
1.812149 -0.198170 -0.013211 2.341805152028776e-38
1.812162 -0.207053 -0.013216 2.341805152028776e-38
1.811138 -0.215824 -0.013214 2.341805152028776e-38
1.812057 -0.224835 -0.013226 2.341805152028776e-38
1.811939 -0.233733 -0.013230 2.341805152028776e-38
1.809795 -0.242369 -0.013220 2.341805152028776e-38
1.806620 -0.250852 -0.013203 2.341805152028776e-38
1.806374 -0.259737 -0.013207 2.341805152028776e-38
1.804106 -0.268332 -0.013197 2.341805152028776e-38
1.805751 -0.277518 -0.013215 2.341805152028776e-38
1.802412 -0.285943 -0.013197 2.341805152028776e-38
1.802980 -0.294988 -0.013208 2.341805152028776e-38
1.798573 -0.303214 -0.013183 2.341805152028776e-38
1.801025 -0.312602 -0.013209 2.341805152028776e-38
1.796537 -0.320790 -0.013183 2.341805152028776e-38
1.798897 -0.330205 -0.013208 2.341805152028776e-38
1.795312 -0.338539 -0.013190 2.341805152028776e-38
1.796598 -0.347796 -0.013207 2.341805152028776e-38
1.794893 -0.356490 -0.013203 2.341805152028776e-38
1.792166 -0.364975 -0.013192 2.341805152028776e-38
1.790378 -0.373647 -0.013188 2.341805152028776e-38
1.801261 -0.385027 -0.013277 2.341805152028776e-38
1.828285 0.155265 -0.022181 2.341805152028776e-38
1.839979 0.147290 -0.022317 2.341805152028776e-38
1.835685 0.138006 -0.022259 2.341805152028776e-38
1.836332 0.129118 -0.022262 2.341805152028776e-38
1.836935 0.120226 -0.022264 2.341805152028776e-38
1.836498 0.111271 -0.022254 2.341805152028776e-38
1.836016 0.102323 -0.022244 2.341805152028776e-38
1.835492 0.093383 -0.022234 2.341805152028776e-38
1.834923 0.084450 -0.022224 2.341805152028776e-38
1.839307 0.075730 -0.022274 2.341805152028776e-38
1.838653 0.066789 -0.022263 2.341805152028776e-38
1.838954 0.057887 -0.022264 2.341805152028776e-38
1.835215 0.048877 -0.022217 2.341805152028776e-38
