VERSION .7
FIELDS x y z rgb
SIZE 4 4 4 4
TYPE F F F F
COUNT 1 1 1 1
WIDTH 957
HEIGHT 1
VIEWPOINT 0 0 0 1 0 0 0
POINTS 957
DATA ascii
0.879450 0.582304 -0.022687 2.341805152028776e-38
0.886093 0.579484 -0.022774 2.341805152028776e-38
0.890189 0.575016 -0.022798 2.341805152028776e-38
0.895949 0.571596 -0.022864 2.341805152028776e-38
0.900852 0.567596 -0.022907 2.341805152028776e-38
0.907437 0.564616 -0.022993 2.341805152028776e-38
0.911445 0.560035 -0.023015 2.341805152028776e-38
0.917116 0.556502 -0.023081 2.341805152028776e-38
0.919346 0.550867 -0.023060 2.341805152028776e-38
0.922403 0.545734 -0.023059 2.341805152028776e-38
0.925430 0.540584 -0.023058 2.341805152028776e-38
0.933610 0.538441 -0.023186 2.341805152028776e-38
0.940904 0.535767 -0.023294 2.341805152028776e-38
0.946453 0.532050 -0.023358 2.341805152028776e-38
0.948493 0.526347 -0.023336 2.341805152028776e-38
0.954006 0.522560 -0.023398 2.341805152028776e-38
0.959492 0.518754 -0.023461 2.341805152028776e-38
0.963179 0.514003 -0.023482 2.341805152028776e-38
0.967727 0.509693 -0.023524 2.341805152028776e-38
0.973144 0.505810 -0.023587 2.341805152028776e-38
0.979437 0.502339 -0.023670 2.341805152028776e-38
0.983922 0.497939 -0.023711 2.341805152028776e-38
0.984791 0.491760 -0.023668 2.341805152028776e-38
0.994589 0.490005 -0.023838 2.341805152028776e-38
0.999901 0.485974 -0.023900 2.341805152028776e-38
1.007001 0.482764 -0.024005 2.341805152028776e-38
1.012275 0.478664 -0.024067 2.341805152028776e-38
1.015702 0.473721 -0.024087 2.341805152028776e-38
1.021829 0.470007 -0.024172 2.341805152028776e-38
1.027034 0.465830 -0.024234 2.341805152028776e-38
1.027661 0.459569 -0.024188 2.341805152028776e-38
1.030983 0.454552 -0.024207 2.341805152028776e-38
1.035177 0.449956 -0.024249 2.341805152028776e-38
1.040271 0.445723 -0.024312 2.341805152028776e-38
1.042586 0.440282 -0.024310 2.341805152028776e-38
1.049487 0.436749 -0.024415 2.341805152028776e-38
1.052669 0.431666 -0.024434 2.341805152028776e-38
1.056734 0.426983 -0.024477 2.341805152028776e-38
1.060779 0.422270 -0.024519 2.341805152028776e-38
1.066664 0.418255 -0.024603 2.341805152028776e-38
1.069739 0.413111 -0.024623 2.341805152028776e-38
1.078385 0.410106 -0.024772 2.341805152028776e-38
1.086075 0.406721 -0.024901 2.341805152028776e-38
1.089067 0.401538 -0.024923 2.341805152028776e-38
1.091095 0.395995 -0.024923 2.341805152028776e-38
1.094977 0.391114 -0.024965 2.341805152028776e-38
1.098829 0.386231 -0.025008 2.341805152028776e-38
1.100752 0.380715 -0.025010 2.341805152028776e-38
1.103594 0.375511 -0.025034 2.341805152028776e-38
1.109256 0.371241 -0.025122 2.341805152028776e-38
1.119651 0.368485 -0.025316 2.341805152028776e-38
2.680030 0.794633 -0.060098 2.341805152028776e-38
2.754905 0.802239 -0.061711 2.341805152028776e-38
2.800118 0.800614 -0.062657 2.341805152028776e-38
0.765102 0.738882 -0.027740 2.341805152028776e-38
0.755875 0.721065 -0.027257 2.341805152028776e-38
0.748623 0.705467 -0.026852 2.341805152028776e-38
0.744106 0.692741 -0.026551 2.341805152028776e-38
0.749028 0.688893 -0.026589 2.341805152028776e-38
0.753191 0.684339 -0.026600 2.341805152028776e-38
0.758070 0.680428 -0.026636 2.341805152028776e-38
0.761414 0.675177 -0.026620 2.341805152028776e-38
0.765447 0.670601 -0.026630 2.341805152028776e-38
0.767940 0.664693 -0.026588 2.341805152028776e-38
0.774189 0.662028 -0.026675 2.341805152028776e-38
0.778143 0.657376 -0.026683 2.341805152028776e-38
0.785120 0.655284 -0.026796 2.341805152028776e-38
0.789759 0.651258 -0.026831 2.341805152028776e-38
0.792053 0.645305 -0.026786 2.341805152028776e-38
0.787295 0.633707 -0.026505 2.341805152028776e-38
0.794164 0.631522 -0.026616 2.341805152028776e-38
0.808879 0.635474 -0.026989 2.341805152028776e-38
0.820482 0.636858 -0.027258 2.341805152028776e-38
0.822609 0.630827 -0.027212 2.341805152028776e-38
0.825490 0.625398 -0.027191 2.341805152028776e-38
0.829137 0.620555 -0.027196 2.341805152028776e-38
0.838365 0.619873 -0.027384 2.341805152028776e-38
0.840322 0.613835 -0.027337 2.341805152028776e-38
0.845479 0.610134 -0.027394 2.341805152028776e-38
0.848993 0.605234 -0.027397 2.341805152028776e-38
0.856566 0.603192 -0.027532 2.341805152028776e-38
0.863307 0.600533 -0.027640 2.341805152028776e-38
0.867548 0.596157 -0.027670 2.341805152028776e-38
0.870113 0.590629 -0.027646 2.341805152028776e-38
0.875965 0.587318 -0.027727 2.341805152028776e-38
0.877639 0.581199 -0.027676 2.341805152028776e-38
0.883440 0.577840 -0.027756 2.341805152028776e-38
0.890046 0.575014 -0.027864 2.341805152028776e-38
0.895805 0.571595 -0.027945 2.341805152028776e-38
0.902400 0.568662 -0.028051 2.341805152028776e-38
0.905595 0.563560 -0.028050 2.341805152028776e-38
0.909599 0.558986 -0.028077 2.341805152028776e-38
0.915264 0.555463 -0.028157 2.341805152028776e-38
0.917489 0.549839 -0.028131 2.341805152028776e-38
0.922260 0.545735 -0.028183 2.341805152028776e-38
0.926151 0.541090 -0.028208 2.341805152028776e-38
0.934334 0.538939 -0.028365 2.341805152028776e-38
0.941630 0.536262 -0.028497 2.341805152028776e-38
0.946310 0.532051 -0.028549 2.341805152028776e-38
0.948350 0.526349 -0.028521 2.341805152028776e-38
0.952986 0.522082 -0.028572 2.341805152028776e-38
0.956712 0.517328 -0.028596 2.341805152028776e-38
0.962155 0.513533 -0.028674 2.341805152028776e-38
0.968470 0.510160 -0.028778 2.341805152028776e-38
0.973001 0.505812 -0.028829 2.341805152028776e-38
0.975736 0.500517 -0.028826 2.341805152028776e-38
0.979322 0.495682 -0.028849 2.341805152028776e-38
0.983755 0.491315 -0.028901 2.341805152028776e-38
0.993550 0.489565 -0.029109 2.341805152028776e-38
0.999759 0.485977 -0.029212 2.341805152028776e-38
1.005957 0.482335 -0.029313 2.341805152028776e-38
1.010326 0.477810 -0.029363 2.341805152028776e-38
1.014654 0.473299 -0.029414 2.341805152028776e-38
1.018962 0.468756 -0.029465 2.341805152028776e-38
1.023250 0.464181 -0.029514 2.341805152028776e-38
1.024781 0.458348 -0.029484 2.341805152028776e-38
1.029927 0.454149 -0.029560 2.341805152028776e-38
1.035037 0.449958 -0.029638 2.341805152028776e-38
1.039211 0.445331 -0.029689 2.341805152028776e-38
1.042445 0.440284 -0.029712 2.341805152028776e-38
1.048422 0.436368 -0.029814 2.341805152028776e-38
1.051604 0.431287 -0.029837 2.341805152028776e-38
1.054740 0.426235 -0.029864 2.341805152028776e-38
1.058781 0.421531 -0.029915 2.341805152028776e-38
1.064662 0.417528 -0.030018 2.341805152028776e-38
1.068666 0.412754 -0.030068 2.341805152028776e-38
1.077311 0.409750 -0.030250 2.341805152028776e-38
1.084062 0.406019 -0.030382 2.341805152028776e-38
1.087050 0.400847 -0.030409 2.341805152028776e-38
1.090014 0.395655 -0.030435 2.341805152028776e-38
1.094836 0.391116 -0.030513 2.341805152028776e-38
1.095860 0.385233 -0.030486 2.341805152028776e-38
1.099668 0.380385 -0.030542 2.341805152028776e-38
1.103455 0.375509 -0.030597 2.341805152028776e-38
1.109116 0.371239 -0.030704 2.341805152028776e-38
1.117611 0.367859 -0.030889 2.341805152028776e-38
2.765129 0.805290 -0.075711 2.341805152028776e-38
2.791128 0.798117 -0.076342 2.341805152028776e-38
0.776419 0.749978 -0.033275 2.341805152028776e-38
0.762924 0.727952 -0.032520 2.341805152028776e-38
0.751355 0.708195 -0.031857 2.341805152028776e-38
0.746125 0.694771 -0.031470 2.341805152028776e-38
0.750323 0.690235 -0.031484 2.341805152028776e-38
0.752275 0.683656 -0.031405 2.341805152028776e-38
0.757150 0.679749 -0.031447 2.341805152028776e-38
0.759745 0.673838 -0.031397 2.341805152028776e-38
0.763018 0.668614 -0.031379 2.341805152028776e-38
0.764744 0.662066 -0.031298 2.341805152028776e-38
0.770976 0.659420 -0.031401 2.341805152028776e-38
0.774914 0.654787 -0.031410 2.341805152028776e-38
0.783413 0.653993 -0.031606 2.341805152028776e-38
0.788815 0.650613 -0.031678 2.341805152028776e-38
0.789555 0.643403 -0.031563 2.341805152028776e-38
0.792574 0.638088 -0.031540 2.341805152028776e-38
0.805726 0.640848 -0.031920 2.341805152028776e-38
0.814208 0.639789 -0.032113 2.341805152028776e-38
0.819518 0.636237 -0.032183 2.341805152028776e-38
0.823228 0.631429 -0.032191 2.341805152028776e-38
0.827707 0.627203 -0.032228 2.341805152028776e-38
0.832164 0.622947 -0.032264 2.341805152028776e-38
0.837389 0.619273 -0.032332 2.341805152028776e-38
0.840956 0.614419 -0.032338 2.341805152028776e-38
0.846117 0.610715 -0.032405 2.341805152028776e-38
0.850448 0.606391 -0.032441 2.341805152028776e-38
0.858844 0.604916 -0.032630 2.341805152028776e-38
0.863956 0.601100 -0.032696 2.341805152028776e-38
0.869847 0.597852 -0.032794 2.341805152028776e-38
0.874903 0.593995 -0.032859 2.341805152028776e-38
0.882433 0.591770 -0.033017 2.341805152028776e-38
0.885800 0.586718 -0.033019 2.341805152028776e-38
0.885779 0.579478 -0.032896 2.341805152028776e-38
0.889875 0.575012 -0.032930 2.341805152028776e-38
0.896476 0.572131 -0.033056 2.341805152028776e-38
0.899691 0.567063 -0.033057 2.341805152028776e-38
0.902877 0.561976 -0.033057 2.341805152028776e-38
0.906022 0.556891 -0.033057 2.341805152028776e-38
0.912530 0.553907 -0.033183 2.341805152028776e-38
0.915603 0.548811 -0.033184 2.341805152028776e-38
0.921228 0.545227 -0.033277 2.341805152028776e-38
0.925116 0.540588 -0.033306 2.341805152028776e-38
0.933298 0.538439 -0.033491 2.341805152028776e-38
0.941459 0.536262 -0.033678 2.341805152028776e-38
0.945267 0.531562 -0.033709 2.341805152028776e-38
0.947305 0.525866 -0.033676 2.341805152028776e-38
0.952815 0.522085 -0.033767 2.341805152028776e-38
0.959180 0.518754 -0.033888 2.341805152028776e-38
0.966394 0.515887 -0.034043 2.341805152028776e-38
0.969183 0.510628 -0.034042 2.341805152028776e-38
0.971057 0.504893 -0.034008 2.341805152028776e-38
0.973786 0.499609 -0.034005 2.341805152028776e-38
0.978261 0.495231 -0.034064 2.341805152028776e-38
0.982692 0.490870 -0.034125 2.341805152028776e-38
0.991587 0.488684 -0.034340 2.341805152028776e-38
0.998689 0.485543 -0.034492 2.341805152028776e-38
1.004884 0.481908 -0.034612 2.341805152028776e-38
1.009253 0.477384 -0.034670 2.341805152028776e-38
1.012672 0.472456 -0.034700 2.341805152028776e-38
1.015160 0.467088 -0.034698 2.341805152028776e-38
1.019439 0.462532 -0.034757 2.341805152028776e-38
1.025523 0.458761 -0.034877 2.341805152028776e-38
1.033417 0.455763 -0.035059 2.341805152028776e-38
1.035784 0.450357 -0.035058 2.341805152028776e-38
1.037205 0.444546 -0.035025 2.341805152028776e-38
1.040434 0.439510 -0.035053 2.341805152028776e-38
1.045484 0.435220 -0.035142 2.341805152028776e-38
1.049586 0.430528 -0.035200 2.341805152028776e-38
1.053645 0.425861 -0.035262 2.341805152028776e-38
1.057684 0.421163 -0.035323 2.341805152028776e-38
1.062632 0.416800 -0.035414 2.341805152028776e-38
1.068496 0.412757 -0.035535 2.341805152028776e-38
1.075275 0.409037 -0.035688 2.341805152028776e-38
1.080149 0.404615 -0.035782 2.341805152028776e-38
1.085944 0.400501 -0.035907 2.341805152028776e-38
1.089845 0.395655 -0.035969 2.341805152028776e-38
1.092785 0.390445 -0.035998 2.341805152028776e-38
1.095694 0.385229 -0.036029 2.341805152028776e-38
1.099501 0.380382 -0.036095 2.341805152028776e-38
1.103287 0.375507 -0.036160 2.341805152028776e-38
1.108948 0.371237 -0.036286 2.341805152028776e-38
1.114594 0.366921 -0.036412 2.341805152028776e-38
2.781040 0.810013 -0.090001 2.341805152028776e-38
2.798410 0.800287 -0.090467 2.341805152028776e-38
0.786261 0.759683 -0.038892 2.341805152028776e-38
0.770662 0.735526 -0.037914 2.341805152028776e-38
0.756237 0.712977 -0.037006 2.341805152028776e-38
0.748845 0.697480 -0.036454 2.341805152028776e-38
0.748647 0.688867 -0.036256 2.341805152028776e-38
0.750591 0.682298 -0.036164 2.341805152028776e-38
0.755457 0.678402 -0.036214 2.341805152028776e-38
0.757299 0.671835 -0.036120 2.341805152028776e-38
0.760561 0.666625 -0.036099 2.341805152028776e-38
0.764542 0.662054 -0.036112 2.341805152028776e-38
0.769255 0.658109 -0.036160 2.341805152028776e-38
0.774712 0.654777 -0.036242 2.341805152028776e-38
0.782444 0.653341 -0.036432 2.341805152028776e-38
0.790154 0.651874 -0.036622 2.341805152028776e-38
0.800973 0.652864 -0.036955 2.341805152028776e-38
0.807161 0.649989 -0.037072 2.341805152028776e-38
0.812561 0.646440 -0.037152 2.341805152028776e-38
0.817935 0.642867 -0.037232 2.341805152028776e-38
0.821683 0.638068 -0.037241 2.341805152028776e-38
0.823818 0.632030 -0.037178 2.341805152028776e-38
0.828300 0.627801 -0.037221 2.341805152028776e-38
0.832760 0.623540 -0.037263 2.341805152028776e-38
0.837991 0.619860 -0.037341 2.341805152028776e-38
0.843176 0.616182 -0.037420 2.341805152028776e-38
0.846725 0.611295 -0.037426 2.341805152028776e-38
0.851060 0.606967 -0.037467 2.341805152028776e-38
0.857824 0.604337 -0.037614 2.341805152028776e-38
0.863754 0.601094 -0.037726 2.341805152028776e-38
0.865528 0.595017 -0.037659 2.341805152028776e-38
0.879661 0.597360 -0.038129 2.341805152028776e-38
0.895509 0.600674 -0.038670 2.341805152028776e-38
0.896427 0.593892 -0.038564 2.341805152028776e-38
0.887251 0.580569 -0.038029 2.341805152028776e-38
0.889674 0.575009 -0.037996 2.341805152028776e-38
0.897117 0.572667 -0.038178 2.341805152028776e-38
0.897799 0.565996 -0.038071 2.341805152028776e-38
0.900979 0.560920 -0.038072 2.341805152028776e-38
0.904121 0.555842 -0.038071 2.341805152028776e-38
0.909768 0.552349 -0.038181 2.341805152028776e-38
0.915404 0.548811 -0.038289 2.341805152028776e-38
0.918449 0.543700 -0.038289 2.341805152028776e-38
0.924053 0.540085 -0.038395 2.341805152028776e-38
0.933100 0.538438 -0.038644 2.341805152028776e-38
0.942996 0.537252 -0.038931 2.341805152028776e-38
0.942455 0.530093 -0.038787 2.341805152028776e-38
0.943611 0.523928 -0.038714 2.341805152028776e-38
0.948233 0.519687 -0.038783 2.341805152028776e-38
0.952829 0.515426 -0.038851 2.341805152028776e-38
0.959142 0.512123 -0.038994 2.341805152028776e-38
0.966332 0.509233 -0.039172 2.341805152028776e-38
0.970858 0.504896 -0.039241 2.341805152028776e-38
0.973587 0.499613 -0.039237 2.341805152028776e-38
0.977173 0.494780 -0.039268 2.341805152028776e-38
0.983389 0.491318 -0.039411 2.341805152028776e-38
0.991389 0.488687 -0.039623 2.341805152028776e-38
0.997591 0.485110 -0.039763 2.341805152028776e-38
1.002882 0.481048 -0.039866 2.341805152028776e-38
1.007249 0.476530 -0.039933 2.341805152028776e-38
1.010663 0.471613 -0.039967 2.341805152028776e-38
1.014054 0.466673 -0.040001 2.341805152028776e-38
1.015601 0.460884 -0.039961 2.341805152028776e-38
1.027149 0.459583 -0.040314 2.341805152028776e-38
1.044192 0.460604 -0.040882 2.341805152028776e-38
1.042919 0.453547 -0.040738 2.341805152028776e-38
1.031496 0.442186 -0.040199 2.341805152028776e-38
1.034713 0.437180 -0.040231 2.341805152028776e-38
1.045287 0.435225 -0.040549 2.341805152028776e-38
1.050316 0.430907 -0.040652 2.341805152028776e-38
1.053450 0.425861 -0.040687 2.341805152028776e-38
1.058416 0.421534 -0.040794 2.341805152028776e-38
1.063366 0.417168 -0.040899 2.341805152028776e-38
1.066435 0.412041 -0.040931 2.341805152028776e-38
1.068541 0.406547 -0.040928 2.341805152028776e-38
1.071531 0.401459 -0.040965 2.341805152028776e-38
1.078246 0.397734 -0.041145 2.341805152028776e-38
1.087770 0.394974 -0.041431 2.341805152028776e-38
1.090705 0.389774 -0.041465 2.341805152028776e-38
1.093614 0.384561 -0.041499 2.341805152028776e-38
1.094584 0.378744 -0.041468 2.341805152028776e-38
1.099308 0.374215 -0.041579 2.341805152028776e-38
1.105909 0.370283 -0.041761 2.341805152028776e-38
1.111549 0.365982 -0.041906 2.341805152028776e-38
1.119074 0.362254 -0.042123 2.341805152028776e-38
2.653948 0.787158 -0.099222 2.341805152028776e-38
2.758499 0.803551 -0.103019 2.341805152028776e-38
2.803700 0.801903 -0.104596 2.341805152028776e-38
0.786725 0.760357 -0.044116 2.341805152028776e-38
0.774028 0.738958 -0.043169 2.341805152028776e-38
0.756724 0.713644 -0.041979 2.341805152028776e-38
0.744222 0.693376 -0.041071 2.341805152028776e-38
0.744736 0.685467 -0.040887 2.341805152028776e-38
0.748139 0.680266 -0.040864 2.341805152028776e-38
0.755223 0.678388 -0.041041 2.341805152028776e-38
0.757069 0.671819 -0.040935 2.341805152028776e-38
0.760330 0.666610 -0.040911 2.341805152028776e-38
0.764311 0.662041 -0.040926 2.341805152028776e-38
0.769783 0.658747 -0.041021 2.341805152028776e-38
0.775243 0.655411 -0.041114 2.341805152028776e-38
0.782981 0.653968 -0.041329 2.341805152028776e-38
0.791464 0.653134 -0.041585 2.341805152028776e-38
0.799191 0.651591 -0.041800 2.341805152028776e-38
0.802258 0.646218 -0.041771 2.341805152028776e-38
0.807635 0.642699 -0.041862 2.341805152028776e-38
0.814560 0.640386 -0.042033 2.341805152028776e-38
0.819084 0.636219 -0.042085 2.341805152028776e-38
0.823586 0.632022 -0.042135 2.341805152028776e-38
0.828864 0.628397 -0.042224 2.341805152028776e-38
0.831728 0.622935 -0.042191 2.341805152028776e-38
0.836154 0.618662 -0.042238 2.341805152028776e-38
0.841331 0.614995 -0.042328 2.341805152028776e-38
0.845684 0.610703 -0.042375 2.341805152028776e-38
0.851642 0.607543 -0.042503 2.341805152028776e-38
0.857592 0.604334 -0.042629 2.341805152028776e-38
0.862704 0.600517 -0.042715 2.341805152028776e-38
0.860358 0.591615 -0.042436 2.341805152028776e-38
0.878602 0.596794 -0.043172 2.341805152028776e-38
0.891124 0.597888 -0.043623 2.341805152028776e-38
0.881200 0.583956 -0.042975 2.341805152028776e-38
0.882006 0.577281 -0.042855 2.341805152028776e-38
0.887768 0.573921 -0.042981 2.341805152028776e-38
0.894361 0.571052 -0.043146 2.341805152028776e-38
0.897570 0.565995 -0.043148 2.341805152028776e-38
0.900750 0.560921 -0.043148 2.341805152028776e-38
0.903894 0.555839 -0.043147 2.341805152028776e-38
0.911249 0.553385 -0.043353 2.341805152028776e-38
0.914319 0.548297 -0.043354 2.341805152028776e-38
0.918221 0.543701 -0.043394 2.341805152028776e-38
0.922962 0.539584 -0.043474 2.341805152028776e-38
0.932873 0.538437 -0.043796 2.341805152028776e-38
0.938427 0.534778 -0.043919 2.341805152028776e-38
0.937002 0.527155 -0.043715 2.341805152028776e-38
0.946004 0.525386 -0.043998 2.341805152028776e-38
0.962024 0.527376 -0.044604 2.341805152028776e-38
0.970179 0.524935 -0.044844 2.341805152028776e-38
0.962442 0.514007 -0.044356 2.341805152028776e-38
0.965221 0.508769 -0.044354 2.341805152028776e-38
0.970630 0.504900 -0.044473 2.341805152028776e-38
0.974249 0.500074 -0.044509 2.341805152028776e-38
0.978731 0.495684 -0.044585 2.341805152028776e-38
0.981376 0.490426 -0.044584 2.341805152028776e-38
0.987577 0.486922 -0.044744 2.341805152028776e-38
0.995566 0.484240 -0.044984 2.341805152028776e-38
1.002654 0.481054 -0.045182 2.341805152028776e-38
1.007926 0.476958 -0.045298 2.341805152028776e-38
1.010438 0.471614 -0.045296 2.341805152028776e-38
1.013828 0.466676 -0.045334 2.341805152028776e-38
1.011736 0.459237 -0.045127 2.341805152028776e-38
1.033305 0.462446 -0.045974 2.341805152028776e-38
1.046707 0.461814 -0.046455 2.341805152028776e-38
1.030780 0.448368 -0.045642 2.341805152028776e-38
1.026681 0.440220 -0.045356 2.341805152028776e-38
1.033569 0.436795 -0.045555 2.341805152028776e-38
1.045061 0.435230 -0.045956 2.341805152028776e-38
1.050092 0.430906 -0.046072 2.341805152028776e-38
1.054152 0.426236 -0.046153 2.341805152028776e-38
1.056335 0.420796 -0.046152 2.341805152028776e-38
1.061281 0.416441 -0.046271 2.341805152028776e-38
1.064346 0.411325 -0.046308 2.341805152028776e-38
1.060848 0.403702 -0.046060 2.341805152028776e-38
1.069437 0.400756 -0.046346 2.341805152028776e-38
1.086460 0.400846 -0.046996 2.341805152028776e-38
1.099754 0.399409 -0.047482 2.341805152028776e-38
1.093303 0.390785 -0.047116 2.341805152028776e-38
1.088678 0.382900 -0.046829 2.341805152028776e-38
1.091529 0.377759 -0.046875 2.341805152028776e-38
1.095302 0.372924 -0.046961 2.341805152028776e-38
1.102844 0.369329 -0.047207 2.341805152028776e-38
1.108478 0.365043 -0.047372 2.341805152028776e-38
1.114097 0.360709 -0.047535 2.341805152028776e-38
2.752208 0.801835 -0.116506 2.341805152028776e-38
2.802196 0.801591 -0.118496 2.341805152028776e-38
0.789311 0.763112 -0.049485 2.341805152028776e-38
0.775192 0.740317 -0.048337 2.341805152028776e-38
0.753548 0.710880 -0.046736 2.341805152028776e-38
0.741766 0.691313 -0.045766 2.341805152028776e-38
0.744474 0.685448 -0.045697 2.341805152028776e-38
0.748616 0.680921 -0.045716 2.341805152028776e-38
0.753473 0.677036 -0.045778 2.341805152028776e-38
0.754568 0.669811 -0.045614 2.341805152028776e-38
0.757817 0.664617 -0.045587 2.341805152028776e-38
0.762541 0.660717 -0.045650 2.341805152028776e-38
0.769523 0.658733 -0.045846 2.341805152028776e-38
0.773457 0.654108 -0.045860 2.341805152028776e-38
0.781188 0.652672 -0.046100 2.341805152028776e-38
0.788122 0.650576 -0.046296 2.341805152028776e-38
0.793510 0.647159 -0.046400 2.341805152028776e-38
0.797329 0.642446 -0.046412 2.341805152028776e-38
0.807373 0.642689 -0.046786 2.341805152028776e-38
0.815085 0.640991 -0.047023 2.341805152028776e-38
0.818823 0.636208 -0.047035 2.341805152028776e-38
0.823325 0.632012 -0.047091 2.341805152028776e-38
0.825418 0.625974 -0.047010 2.341805152028776e-38
0.829068 0.621132 -0.047018 2.341805152028776e-38
0.834289 0.617464 -0.047116 2.341805152028776e-38
0.841072 0.614987 -0.047307 2.341805152028776e-38
0.846234 0.611281 -0.047405 2.341805152028776e-38
0.849756 0.606377 -0.047412 2.341805152028776e-38
0.854065 0.602027 -0.047463 2.341805152028776e-38
0.857527 0.597085 -0.047467 2.341805152028776e-38
0.860925 0.592175 -0.047474 2.341805152028776e-38
0.870904 0.591737 -0.047843 2.341805152028776e-38
0.880077 0.590648 -0.048164 2.341805152028776e-38
0.876777 0.581194 -0.047804 2.341805152028776e-38
0.882586 0.577823 -0.047942 2.341805152028776e-38
0.889188 0.575002 -0.048128 2.341805152028776e-38
0.894945 0.571588 -0.048267 2.341805152028776e-38
0.897312 0.565995 -0.048224 2.341805152028776e-38
0.901340 0.561449 -0.048269 2.341805152028776e-38
0.904491 0.556359 -0.048269 2.341805152028776e-38
0.910139 0.552865 -0.048408 2.341805152028776e-38
0.910637 0.546241 -0.048272 2.341805152028776e-38
0.915386 0.542175 -0.048363 2.341805152028776e-38
0.919257 0.537569 -0.048407 2.341805152028776e-38
0.929157 0.536437 -0.048767 2.341805152028776e-38
0.935567 0.533294 -0.048950 2.341805152028776e-38
0.935877 0.526666 -0.048813 2.341805152028776e-38
0.957973 0.532180 -0.049810 2.341805152028776e-38
0.975778 0.535065 -0.050578 2.341805152028776e-38
0.967286 0.523508 -0.049983 2.341805152028776e-38
0.965711 0.515890 -0.049756 2.341805152028776e-38
0.964082 0.508305 -0.049527 2.341805152028776e-38
0.970375 0.504903 -0.049706 2.341805152028776e-38
0.972215 0.499167 -0.049655 2.341805152028776e-38
0.976695 0.494781 -0.049740 2.341805152028776e-38
0.979335 0.489535 -0.049739 2.341805152028776e-38
0.987323 0.486925 -0.050009 2.341805152028776e-38
0.993514 0.483371 -0.050186 2.341805152028776e-38
1.000596 0.480196 -0.050407 2.341805152028776e-38
1.004964 0.475676 -0.050491 2.341805152028776e-38
1.008373 0.470771 -0.050535 2.341805152028776e-38
1.010852 0.465426 -0.050532 2.341805152028776e-38
1.012392 0.459655 -0.050482 2.341805152028776e-38
1.025753 0.459187 -0.051021 2.341805152028776e-38
1.032740 0.455767 -0.051240 2.341805152028776e-38
1.022284 0.444783 -0.050604 2.341805152028776e-38
1.031020 0.442192 -0.050919 2.341805152028776e-38
1.036997 0.438355 -0.051097 2.341805152028776e-38
1.045728 0.435620 -0.051409 2.341805152028776e-38
1.047066 0.429772 -0.051356 2.341805152028776e-38
1.052048 0.425488 -0.051492 2.341805152028776e-38
1.056083 0.420798 -0.051582 2.341805152028776e-38
1.061028 0.416444 -0.051715 2.341805152028776e-38
1.065025 0.411689 -0.051802 2.341805152028776e-38
1.063398 0.404773 -0.051615 2.341805152028776e-38
1.082283 0.405663 -0.052433 2.341805152028776e-38
1.097453 0.404996 -0.053068 2.341805152028776e-38
1.095743 0.398045 -0.052887 2.341805152028776e-38
1.093049 0.390787 -0.052659 2.341805152028776e-38
1.088426 0.382903 -0.052339 2.341805152028776e-38
1.092225 0.378081 -0.052435 2.341805152028776e-38
1.095053 0.372919 -0.052485 2.341805152028776e-38
1.100698 0.368691 -0.052670 2.341805152028776e-38
1.105380 0.364103 -0.052809 2.341805152028776e-38
1.109093 0.359170 -0.052901 2.341805152028776e-38
2.747770 0.800674 -0.130024 2.341805152028776e-38
2.804465 0.802373 -0.132566 2.341805152028776e-38
0.795453 0.769336 -0.055140 2.341805152028776e-38
0.781380 0.746504 -0.053871 2.341805152028776e-38
0.753976 0.711541 -0.051704 2.341805152028776e-38
0.742205 0.691971 -0.050632 2.341805152028776e-38
0.744182 0.685427 -0.050505 2.341805152028776e-38
0.749063 0.681574 -0.050576 2.341805152028776e-38
0.751696 0.675683 -0.050496 2.341805152028776e-38
0.753533 0.669128 -0.050364 2.341805152028776e-38
0.757529 0.664599 -0.050385 2.341805152028776e-38
0.761499 0.660046 -0.050403 2.341805152028776e-38
0.767716 0.657418 -0.050571 2.341805152028776e-38
0.773167 0.654094 -0.050686 2.341805152028776e-38
0.780135 0.652015 -0.050901 2.341805152028776e-38
0.787063 0.649925 -0.051118 2.341805152028776e-38
0.793994 0.647776 -0.051333 2.341805152028776e-38
0.799372 0.644314 -0.051447 2.341805152028776e-38
0.807081 0.642678 -0.051710 2.341805152028776e-38
0.814010 0.640360 -0.051921 2.341805152028776e-38
0.818533 0.636196 -0.051985 2.341805152028776e-38
0.820658 0.630176 -0.051897 2.341805152028776e-38
0.823537 0.624758 -0.051857 2.341805152028776e-38
0.827979 0.620525 -0.051916 2.341805152028776e-38
0.833200 0.616859 -0.052024 2.341805152028776e-38
0.839978 0.614388 -0.052235 2.341805152028776e-38
0.844327 0.610104 -0.052295 2.341805152028776e-38
0.847841 0.605210 -0.052302 2.341805152028776e-38
0.852143 0.600871 -0.052358 2.341805152028776e-38
0.856422 0.596506 -0.052413 2.341805152028776e-38
0.863107 0.593867 -0.052621 2.341805152028776e-38
0.870616 0.591732 -0.052878 2.341805152028776e-38
0.877300 0.588974 -0.053084 2.341805152028776e-38
0.879818 0.583400 -0.053036 2.341805152028776e-38
0.883972 0.578912 -0.053088 2.341805152028776e-38
0.889741 0.575541 -0.053244 2.341805152028776e-38
0.893817 0.571047 -0.053298 2.341805152028776e-38
0.898715 0.567059 -0.053400 2.341805152028776e-38
0.901901 0.561978 -0.053401 2.341805152028776e-38
0.904207 0.556356 -0.053349 2.341805152028776e-38
0.908148 0.551825 -0.053402 2.341805152028776e-38
0.909497 0.545727 -0.053304 2.341805152028776e-38
0.912525 0.540649 -0.053303 2.341805152028776e-38
0.918110 0.537067 -0.053452 2.341805152028776e-38
0.926279 0.534939 -0.053750 2.341805152028776e-38
0.933548 0.532304 -0.054002 2.341805152028776e-38
0.939945 0.529117 -0.054202 2.341805152028776e-38
0.954192 0.530242 -0.054853 2.341805152028776e-38
0.964102 0.528825 -0.055250 2.341805152028776e-38
0.959093 0.519232 -0.054793 2.341805152028776e-38
0.961903 0.514009 -0.054793 2.341805152028776e-38
0.964682 0.508774 -0.054791 2.341805152028776e-38
0.967432 0.503524 -0.054788 2.341805152028776e-38
0.971043 0.498716 -0.054833 2.341805152028776e-38
0.975521 0.494336 -0.054926 2.341805152028776e-38
0.979055 0.489537 -0.054975 2.341805152028776e-38
0.986145 0.486487 -0.055223 2.341805152028776e-38
0.992333 0.482938 -0.055419 2.341805152028776e-38
0.999411 0.479770 -0.055664 2.341805152028776e-38
1.003776 0.475257 -0.055756 2.341805152028776e-38
1.006282 0.469928 -0.055754 2.341805152028776e-38
1.009663 0.465012 -0.055801 2.341805152028776e-38
1.013930 0.460486 -0.055897 2.341805152028776e-38
1.020000 0.456744 -0.056091 2.341805152028776e-38
1.025145 0.452548 -0.056234 2.341805152028776e-38
1.027500 0.447175 -0.056232 2.341805152028776e-38
1.032576 0.442982 -0.056380 2.341805152028776e-38
1.037636 0.438749 -0.056526 2.341805152028776e-38
1.042680 0.434474 -0.056671 2.341805152028776e-38
1.044936 0.429021 -0.056663 2.341805152028776e-38
1.048991 0.424364 -0.056762 2.341805152028776e-38
1.054876 0.420430 -0.056962 2.341805152028776e-38
1.062607 0.417177 -0.057260 2.341805152028776e-38
1.066607 0.412414 -0.057356 2.341805152028776e-38
1.070585 0.407622 -0.057450 2.341805152028776e-38
1.082003 0.405661 -0.057952 2.341805152028776e-38
1.088736 0.401882 -0.058204 2.341805152028776e-38
1.090766 0.396340 -0.058204 2.341805152028776e-38
1.089946 0.389780 -0.058052 2.341805152028776e-38
1.090972 0.383901 -0.057999 2.341805152028776e-38
1.092892 0.378402 -0.058003 2.341805152028776e-38
1.094776 0.372915 -0.058009 2.341805152028776e-38
1.098526 0.368053 -0.058114 2.341805152028776e-38
1.104153 0.363788 -0.058317 2.341805152028776e-38
1.111664 0.360092 -0.058620 2.341805152028776e-38
2.747103 0.800626 -0.143702 2.341805152028776e-38
2.803785 0.802325 -0.146512 2.341805152028776e-38
0.801557 0.775557 -0.060880 2.341805152028776e-38
0.780312 0.745788 -0.058945 2.341805152028776e-38
0.752922 0.710829 -0.056571 2.341805152028776e-38
0.740423 0.690585 -0.055343 2.341805152028776e-38
0.743862 0.685404 -0.055313 2.341805152028776e-38
0.748742 0.681552 -0.055391 2.341805152028776e-38
0.749890 0.674328 -0.055194 2.341805152028776e-38
0.752470 0.668443 -0.055105 2.341805152028776e-38
0.756463 0.663920 -0.055127 2.341805152028776e-38
0.758919 0.658064 -0.055038 2.341805152028776e-38
0.766641 0.656751 -0.055331 2.341805152028776e-38
0.771325 0.652788 -0.055403 2.341805152028776e-38
0.777521 0.650075 -0.055583 2.341805152028776e-38
0.784437 0.648000 -0.055820 2.341805152028776e-38
0.791355 0.645867 -0.056056 2.341805152028776e-38
0.795167 0.641167 -0.056072 2.341805152028776e-38
0.803636 0.640177 -0.056414 2.341805152028776e-38
0.810553 0.637875 -0.056645 2.341805152028776e-38
0.814273 0.633118 -0.056660 2.341805152028776e-38
0.817965 0.628340 -0.056674 2.341805152028776e-38
0.822424 0.624144 -0.056740 2.341805152028776e-38
0.825264 0.618719 -0.056695 2.341805152028776e-38
0.831279 0.615660 -0.056868 2.341805152028776e-38
0.837244 0.612608 -0.057045 2.341805152028776e-38
0.842391 0.608925 -0.057164 2.341805152028776e-38
0.847524 0.605203 -0.057283 2.341805152028776e-38
0.852642 0.601442 -0.057399 2.341805152028776e-38
0.856925 0.597071 -0.057459 2.341805152028776e-38
0.861970 0.593293 -0.057577 2.341805152028776e-38
0.867823 0.590042 -0.057749 2.341805152028776e-38
0.872009 0.585630 -0.057809 2.341805152028776e-38
0.876173 0.581190 -0.057867 2.341805152028776e-38
0.881150 0.577268 -0.057979 2.341805152028776e-38
0.887750 0.574451 -0.058204 2.341805152028776e-38
0.892660 0.570506 -0.058318 2.341805152028776e-38
0.897555 0.566525 -0.058431 2.341805152028776e-38
0.900738 0.561450 -0.058431 2.341805152028776e-38
0.903892 0.556358 -0.058430 2.341805152028776e-38
0.906983 0.551304 -0.058433 2.341805152028776e-38
0.908330 0.545212 -0.058325 2.341805152028776e-38
0.914790 0.542177 -0.058545 2.341805152028776e-38
0.916936 0.536566 -0.058488 2.341805152028776e-38
0.925965 0.534943 -0.058869 2.341805152028776e-38
0.934104 0.532798 -0.059200 2.341805152028776e-38
0.939633 0.529118 -0.059364 2.341805152028776e-38
0.944276 0.524909 -0.059472 2.341805152028776e-38
0.948902 0.520664 -0.059579 2.341805152028776e-38
0.955265 0.517336 -0.059793 2.341805152028776e-38
0.958949 0.512597 -0.059846 2.341805152028776e-38
0.961721 0.507379 -0.059845 2.341805152028776e-38
0.964464 0.502145 -0.059841 2.341805152028776e-38
0.968955 0.497810 -0.059946 2.341805152028776e-38
0.974317 0.493892 -0.060103 2.341805152028776e-38
0.976066 0.488198 -0.060046 2.341805152028776e-38
0.982253 0.484723 -0.060263 2.341805152028776e-38
0.992021 0.482944 -0.060698 2.341805152028776e-38
0.996398 0.478480 -0.060801 2.341805152028776e-38
1.000755 0.473984 -0.060903 2.341805152028776e-38
1.005068 0.469508 -0.061009 2.341805152028776e-38
1.009353 0.465016 -0.061116 2.341805152028776e-38
1.014529 0.460904 -0.061276 2.341805152028776e-38
1.016955 0.455527 -0.061270 2.341805152028776e-38
1.022093 0.451348 -0.061426 2.341805152028776e-38
1.027192 0.447177 -0.061587 2.341805152028776e-38
1.032267 0.442986 -0.061750 2.341805152028776e-38
1.036407 0.438365 -0.061855 2.341805152028776e-38
1.040527 0.433713 -0.061959 2.341805152028776e-38
1.043702 0.428651 -0.062006 2.341805152028776e-38
1.048684 0.424364 -0.062168 2.341805152028776e-38
1.056423 0.421171 -0.062496 2.341805152028776e-38
1.061368 0.416815 -0.062658 2.341805152028776e-38
1.065366 0.412059 -0.062764 2.341805152028776e-38
1.070275 0.407629 -0.062923 2.341805152028776e-38
1.075150 0.403204 -0.063086 2.341805152028776e-38
1.080933 0.399114 -0.063308 2.341805152028776e-38
1.086702 0.394977 -0.063528 2.341805152028776e-38
1.088697 0.389445 -0.063527 2.341805152028776e-38
1.089721 0.383573 -0.063469 2.341805152028776e-38
1.090700 0.377741 -0.063416 2.341805152028776e-38
1.092581 0.372265 -0.063423 2.341805152028776e-38
1.098221 0.368049 -0.063648 2.341805152028776e-38
1.105743 0.364411 -0.063980 2.341805152028776e-38
1.109456 0.359475 -0.064093 2.341805152028776e-38
2.732948 0.796661 -0.156608 2.341805152028776e-38
2.795357 0.800075 -0.160015 2.341805152028776e-38
0.793995 0.768583 -0.065579 2.341805152028776e-38
0.779213 0.745070 -0.064009 2.341805152028776e-38
0.753288 0.711487 -0.061547 2.341805152028776e-38
0.738613 0.689196 -0.060034 2.341805152028776e-38
0.743512 0.685379 -0.060121 2.341805152028776e-38
0.746915 0.680185 -0.060087 2.341805152028776e-38
0.749541 0.674307 -0.059992 2.341805152028776e-38
0.752123 0.668422 -0.059894 2.341805152028776e-38
0.756118 0.663897 -0.059919 2.341805152028776e-38
0.759329 0.658698 -0.059882 2.341805152028776e-38
0.765537 0.656082 -0.060081 2.341805152028776e-38
0.769455 0.651481 -0.060100 2.341805152028776e-38
0.776408 0.649418 -0.060355 2.341805152028776e-38
0.782553 0.646710 -0.060553 2.341805152028776e-38
0.788689 0.643956 -0.060751 2.341805152028776e-38
0.794043 0.640525 -0.060886 2.341805152028776e-38
0.801726 0.638920 -0.061199 2.341805152028776e-38
0.805497 0.634159 -0.061212 2.341805152028776e-38
0.812351 0.631877 -0.061467 2.341805152028776e-38
0.816036 0.627110 -0.061481 2.341805152028776e-38
0.818897 0.621718 -0.061435 2.341805152028776e-38
0.824918 0.618710 -0.061624 2.341805152028776e-38
0.830931 0.615653 -0.061813 2.341805152028776e-38
0.836094 0.612007 -0.061944 2.341805152028776e-38
0.841238 0.608330 -0.062075 2.341805152028776e-38
0.845554 0.604034 -0.062143 2.341805152028776e-38
0.849849 0.599709 -0.062210 2.341805152028776e-38
0.854122 0.595354 -0.062276 2.341805152028776e-38
0.859160 0.591586 -0.062404 2.341805152028776e-38
0.864177 0.587790 -0.062531 2.341805152028776e-38
0.869178 0.583955 -0.062656 2.341805152028776e-38
0.873333 0.579531 -0.062720 2.341805152028776e-38
0.879969 0.576720 -0.062961 2.341805152028776e-38
0.885731 0.573361 -0.063145 2.341805152028776e-38
0.891476 0.569965 -0.063329 2.341805152028776e-38
0.896366 0.565990 -0.063452 2.341805152028776e-38
0.900394 0.561450 -0.063512 2.341805152028776e-38
0.903548 0.556360 -0.063511 2.341805152028776e-38
0.907496 0.551820 -0.063574 2.341805152028776e-38
0.909702 0.546239 -0.063516 2.341805152028776e-38
0.913591 0.541669 -0.063576 2.341805152028776e-38
0.917458 0.537073 -0.063634 2.341805152028776e-38
0.925623 0.534948 -0.063989 2.341805152028776e-38
0.931163 0.531313 -0.064168 2.341805152028776e-38
0.937552 0.528139 -0.064407 2.341805152028776e-38
0.940445 0.522971 -0.064405 2.341805152028776e-38
0.945935 0.519228 -0.064581 2.341805152028776e-38
0.952289 0.515917 -0.064814 2.341805152028776e-38
0.955969 0.511186 -0.064871 2.341805152028776e-38
0.958733 0.505984 -0.064870 2.341805152028776e-38
0.962354 0.501228 -0.064926 2.341805152028776e-38
0.968615 0.497816 -0.065159 2.341805152028776e-38
0.971306 0.492546 -0.065152 2.341805152028776e-38
0.975730 0.488200 -0.065267 2.341805152028776e-38
0.982811 0.485169 -0.065563 2.341805152028776e-38
0.988989 0.481638 -0.065798 2.341805152028776e-38
0.995158 0.478056 -0.066030 2.341805152028776e-38
0.999512 0.473566 -0.066141 2.341805152028776e-38
1.005635 0.469932 -0.066375 2.341805152028776e-38
1.009922 0.465437 -0.066491 2.341805152028776e-38
1.013281 0.460497 -0.066546 2.341805152028776e-38
1.016616 0.455535 -0.066599 2.341805152028776e-38
1.022666 0.451761 -0.066828 2.341805152028776e-38
1.026856 0.447179 -0.066943 2.341805152028776e-38
1.031013 0.442595 -0.067060 2.341805152028776e-38
1.035150 0.437981 -0.067175 2.341805152028776e-38
1.039267 0.433335 -0.067288 2.341805152028776e-38
1.044287 0.429039 -0.067459 2.341805152028776e-38
1.049275 0.424739 -0.067634 2.341805152028776e-38
1.055160 0.420803 -0.067871 2.341805152028776e-38
1.060102 0.416454 -0.068048 2.341805152028776e-38
1.063166 0.411344 -0.068103 2.341805152028776e-38
1.064340 0.405503 -0.068037 2.341805152028776e-38
1.069207 0.401097 -0.068214 2.341805152028776e-38
1.077788 0.398075 -0.068634 2.341805152028776e-38
1.083551 0.393954 -0.068873 2.341805152028776e-38
1.085540 0.388438 -0.068872 2.341805152028776e-38
1.085618 0.382251 -0.068750 2.341805152028776e-38
1.088481 0.377080 -0.068810 2.341805152028776e-38
1.091304 0.371937 -0.068877 2.341805152028776e-38
1.098834 0.368361 -0.069241 2.341805152028776e-38
1.102564 0.363470 -0.069364 2.341805152028776e-38
1.108171 0.359166 -0.069606 2.341805152028776e-38
2.689028 0.784029 -0.167528 2.341805152028776e-38
2.747519 0.786556 -0.170990 2.341805152028776e-38
0.800745 0.775493 -0.071462 2.341805152028776e-38
0.778805 0.745040 -0.069127 2.341805152028776e-38
0.749268 0.708033 -0.066148 2.341805152028776e-38
0.734587 0.685761 -0.064514 2.341805152028776e-38
0.740198 0.682646 -0.064672 2.341805152028776e-38
0.744323 0.678143 -0.064699 2.341805152028776e-38
0.749163 0.674283 -0.064789 2.341805152028776e-38
0.751745 0.668400 -0.064684 2.341805152028776e-38
0.754995 0.663214 -0.064645 2.341805152028776e-38
0.758956 0.658675 -0.064670 2.341805152028776e-38
0.763647 0.654762 -0.064757 2.341805152028776e-38
0.769080 0.651462 -0.064906 2.341805152028776e-38
0.773736 0.647480 -0.064989 2.341805152028776e-38
0.779103 0.644146 -0.065138 2.341805152028776e-38
0.785996 0.642043 -0.065416 2.341805152028776e-38
0.791339 0.638628 -0.065563 2.341805152028776e-38
0.799789 0.637661 -0.065965 2.341805152028776e-38
0.805904 0.634763 -0.066172 2.341805152028776e-38
0.810402 0.630635 -0.066253 2.341805152028776e-38
0.814870 0.626487 -0.066334 2.341805152028776e-38
0.818523 0.621705 -0.066348 2.341805152028776e-38
0.822148 0.616903 -0.066360 2.341805152028776e-38
0.829753 0.615050 -0.066692 2.341805152028776e-38
0.835722 0.611995 -0.066898 2.341805152028776e-38
0.840056 0.607735 -0.066975 2.341805152028776e-38
0.843556 0.602865 -0.066985 2.341805152028776e-38
0.847029 0.597976 -0.066993 2.341805152028776e-38
0.851292 0.593637 -0.067064 2.341805152028776e-38
0.857146 0.590445 -0.067266 2.341805152028776e-38
0.861330 0.586098 -0.067339 2.341805152028776e-38
0.865493 0.581724 -0.067410 2.341805152028776e-38
0.870466 0.577872 -0.067544 2.341805152028776e-38
0.876257 0.574531 -0.067739 2.341805152028776e-38
0.882010 0.571185 -0.067938 2.341805152028776e-38
0.889423 0.568886 -0.068266 2.341805152028776e-38
0.894307 0.564922 -0.068399 2.341805152028776e-38
0.898327 0.560394 -0.068464 2.341805152028776e-38
0.901476 0.555315 -0.068464 2.341805152028776e-38
0.903717 0.549742 -0.068401 2.341805152028776e-38
0.906767 0.544696 -0.068404 2.341805152028776e-38
0.911506 0.540651 -0.068533 2.341805152028776e-38
0.917950 0.537580 -0.068790 2.341805152028776e-38
0.925252 0.534953 -0.069109 2.341805152028776e-38
0.930796 0.531312 -0.069302 2.341805152028776e-38
0.935445 0.527160 -0.069431 2.341805152028776e-38
0.938332 0.522004 -0.069429 2.341805152028776e-38
0.942941 0.517792 -0.069554 2.341805152028776e-38
0.949286 0.514497 -0.069806 2.341805152028776e-38
0.952963 0.509774 -0.069868 2.341805152028776e-38
0.956601 0.505054 -0.069931 2.341805152028776e-38
0.961102 0.500771 -0.070056 2.341805152028776e-38
0.965584 0.496454 -0.070179 2.341805152028776e-38
0.970937 0.492555 -0.070365 2.341805152028776e-38
0.973581 0.487309 -0.070360 2.341805152028776e-38
0.980655 0.484288 -0.070680 2.341805152028776e-38
0.987725 0.481207 -0.070998 2.341805152028776e-38
0.994789 0.478063 -0.071313 2.341805152028776e-38
1.000947 0.474431 -0.071562 2.341805152028776e-38
1.005270 0.469934 -0.071685 2.341805152028776e-38
1.009556 0.465441 -0.071811 2.341805152028776e-38
1.011098 0.459677 -0.071742 2.341805152028776e-38
1.013518 0.454318 -0.071734 2.341805152028776e-38
1.017734 0.449754 -0.071854 2.341805152028776e-38
1.023748 0.445984 -0.072105 2.341805152028776e-38
1.026981 0.441023 -0.072167 2.341805152028776e-38
1.031109 0.436430 -0.072292 2.341805152028776e-38
1.037060 0.432574 -0.072544 2.341805152028776e-38
1.042998 0.428669 -0.072793 2.341805152028776e-38
1.047988 0.424364 -0.072980 2.341805152028776e-38
1.053869 0.420435 -0.073237 2.341805152028776e-38
1.056951 0.415362 -0.073299 2.341805152028776e-38
1.058148 0.409548 -0.073230 2.341805152028776e-38
1.063042 0.405155 -0.073417 2.341805152028776e-38
1.069781 0.401444 -0.073735 2.341805152028776e-38
1.075553 0.397382 -0.073995 2.341805152028776e-38
1.080373 0.392930 -0.074190 2.341805152028776e-38
1.082357 0.387431 -0.074189 2.341805152028776e-38
1.082431 0.381260 -0.074058 2.341805152028776e-38
1.087180 0.376745 -0.074249 2.341805152028776e-38
1.090945 0.371930 -0.074386 2.341805152028776e-38
1.096581 0.367721 -0.074650 2.341805152028776e-38
1.099359 0.362528 -0.074720 2.341805152028776e-38
1.106859 0.358856 -0.075109 2.341805152028776e-38
2.648897 0.772519 -0.178274 2.341805152028776e-38
2.733221 0.782649 -0.183752 2.341805152028776e-38
0.802440 0.777539 -0.076958 2.341805152028776e-38
0.781248 0.747766 -0.074520 2.341805152028776e-38
0.751023 0.710059 -0.071252 2.341805152028776e-38
0.734181 0.685730 -0.069290 2.341805152028776e-38
0.739058 0.681940 -0.069390 2.341805152028776e-38
0.743917 0.678115 -0.069489 2.341805152028776e-38
0.747273 0.672922 -0.069448 2.341805152028776e-38
0.750593 0.667714 -0.069404 2.341805152028776e-38
0.754593 0.663188 -0.069431 2.341805152028776e-38
0.759307 0.659305 -0.069527 2.341805152028776e-38
0.763245 0.654740 -0.069551 2.341805152028776e-38
0.767916 0.650797 -0.069642 2.341805152028776e-38
0.773332 0.647462 -0.069801 2.341805152028776e-38
0.777934 0.643488 -0.069892 2.341805152028776e-38
0.784822 0.641392 -0.070190 2.341805152028776e-38
0.791712 0.639237 -0.070486 2.341805152028776e-38
0.800164 0.638267 -0.070919 2.341805152028776e-38
0.805497 0.634750 -0.071072 2.341805152028776e-38
0.810000 0.630617 -0.071159 2.341805152028776e-38
0.812886 0.625255 -0.071107 2.341805152028776e-38
0.816532 0.620485 -0.071123 2.341805152028776e-38
0.821745 0.616891 -0.071274 2.341805152028776e-38
0.829349 0.615041 -0.071631 2.341805152028776e-38
0.833711 0.610802 -0.071714 2.341805152028776e-38
0.838846 0.607138 -0.071865 2.341805152028776e-38
0.842343 0.602275 -0.071876 2.341805152028776e-38
0.844997 0.596817 -0.071816 2.341805152028776e-38
0.850890 0.593632 -0.072031 2.341805152028776e-38
0.854283 0.588737 -0.072040 2.341805152028776e-38
0.859282 0.584968 -0.072188 2.341805152028776e-38
0.865094 0.581718 -0.072403 2.341805152028776e-38
0.870065 0.577869 -0.072546 2.341805152028776e-38
0.875021 0.573982 -0.072688 2.341805152028776e-38
0.882450 0.571720 -0.073039 2.341805152028776e-38
0.888183 0.568343 -0.073253 2.341805152028776e-38
0.893063 0.564387 -0.073396 2.341805152028776e-38
0.897080 0.559866 -0.073467 2.341805152028776e-38
0.901924 0.555841 -0.073604 2.341805152028776e-38
0.902470 0.549220 -0.073398 2.341805152028776e-38
0.906372 0.544694 -0.073470 2.341805152028776e-38
0.911110 0.540652 -0.073610 2.341805152028776e-38
0.918413 0.538086 -0.073955 2.341805152028776e-38
0.923989 0.534458 -0.074159 2.341805152028776e-38
0.930400 0.531310 -0.074435 2.341805152028776e-38
0.934180 0.526671 -0.074505 2.341805152028776e-38
0.936193 0.521036 -0.074434 2.341805152028776e-38
0.941669 0.517317 -0.074638 2.341805152028776e-38
0.948010 0.514029 -0.074909 2.341805152028776e-38
0.952569 0.509775 -0.075043 2.341805152028776e-38
0.956207 0.505057 -0.075111 2.341805152028776e-38
0.961591 0.501237 -0.075315 2.341805152028776e-38
0.964301 0.496005 -0.075310 2.341805152028776e-38
0.966982 0.490758 -0.075302 2.341805152028776e-38
0.971406 0.486417 -0.075434 2.341805152028776e-38
0.980262 0.484292 -0.075916 2.341805152028776e-38
0.990020 0.482524 -0.076465 2.341805152028776e-38
0.996191 0.478936 -0.076736 2.341805152028776e-38
1.000548 0.474441 -0.076865 2.341805152028776e-38
1.003972 0.469514 -0.076926 2.341805152028776e-38
1.008256 0.465027 -0.077062 2.341805152028776e-38
1.008888 0.458857 -0.076918 2.341805152028776e-38
1.011303 0.453510 -0.076911 2.341805152028776e-38
1.017340 0.449764 -0.077179 2.341805152028776e-38
1.022443 0.445587 -0.077377 2.341805152028776e-38
1.026590 0.441026 -0.077514 2.341805152028776e-38
1.030718 0.436435 -0.077648 2.341805152028776e-38
1.036667 0.432582 -0.077918 2.341805152028776e-38
1.044449 0.429437 -0.078325 2.341805152028776e-38
1.048522 0.424738 -0.078455 2.341805152028776e-38
1.051624 0.419697 -0.078524 2.341805152028776e-38
1.054702 0.414635 -0.078591 2.341805152028776e-38
1.058686 0.409914 -0.078725 2.341805152028776e-38
1.064514 0.405874 -0.078996 2.341805152028776e-38
1.068458 0.401089 -0.079126 2.341805152028776e-38
1.074227 0.397034 -0.079407 2.341805152028776e-38
1.079982 0.392930 -0.079685 2.341805152028776e-38
1.082905 0.387769 -0.079754 2.341805152028776e-38
1.083922 0.381926 -0.079682 2.341805152028776e-38
1.085850 0.376410 -0.079678 2.341805152028776e-38
1.090558 0.371922 -0.079894 2.341805152028776e-38
1.097138 0.368032 -0.080248 2.341805152028776e-38
1.099918 0.362836 -0.080323 2.341805152028776e-38
1.105520 0.358545 -0.080603 2.341805152028776e-38
2.645110 0.771657 -0.191265 2.341805152028776e-38
2.749555 0.787527 -0.198594 2.341805152028776e-38
0.809112 0.784442 -0.082996 2.341805152028776e-38
0.780055 0.747041 -0.079582 2.341805152028776e-38
0.746224 0.705916 -0.075721 2.341805152028776e-38
0.731561 0.683653 -0.073844 2.341805152028776e-38
0.736425 0.679878 -0.073952 2.341805152028776e-38
0.741270 0.676070 -0.074057 2.341805152028776e-38
0.745355 0.671560 -0.074087 2.341805152028776e-38
0.750158 0.667689 -0.074188 2.341805152028776e-38
0.751916 0.661183 -0.073995 2.341805152028776e-38
0.756617 0.657316 -0.074097 2.341805152028776e-38
0.760543 0.652767 -0.074124 2.341805152028776e-38
0.763681 0.647550 -0.074074 2.341805152028776e-38
0.771370 0.646161 -0.074465 2.341805152028776e-38
0.778275 0.644100 -0.074783 2.341805152028776e-38
0.784392 0.641370 -0.075028 2.341805152028776e-38
0.790504 0.638591 -0.075271 2.341805152028776e-38
0.796611 0.635761 -0.075512 2.341805152028776e-38
0.803495 0.633500 -0.075824 2.341805152028776e-38
0.807208 0.628759 -0.075843 2.341805152028776e-38
0.811665 0.624630 -0.075935 2.341805152028776e-38
0.815307 0.619866 -0.075952 2.341805152028776e-38
0.819719 0.615681 -0.076040 2.341805152028776e-38
0.825711 0.612653 -0.076274 2.341805152028776e-38
0.832478 0.610197 -0.076583 2.341805152028776e-38
0.836801 0.605956 -0.076672 2.341805152028776e-38
0.841102 0.601685 -0.076758 2.341805152028776e-38
0.845382 0.597384 -0.076842 2.341805152028776e-38
0.848823 0.592484 -0.076849 2.341805152028776e-38
0.852215 0.587594 -0.076858 2.341805152028776e-38
0.858855 0.584959 -0.077165 2.341805152028776e-38
0.863838 0.581155 -0.077321 2.341805152028776e-38
0.868806 0.577312 -0.077475 2.341805152028776e-38
0.874592 0.573980 -0.077700 2.341805152028776e-38
0.881186 0.571170 -0.078001 2.341805152028776e-38
0.887755 0.568338 -0.078304 2.341805152028776e-38
0.892635 0.564384 -0.078457 2.341805152028776e-38
0.894960 0.558809 -0.078385 2.341805152028776e-38
0.899797 0.554796 -0.078533 2.341805152028776e-38
0.902047 0.549215 -0.078459 2.341805152028776e-38
0.905948 0.544692 -0.078537 2.341805152028776e-38
0.910685 0.540652 -0.078686 2.341805152028776e-38
0.917126 0.537585 -0.078982 2.341805152028776e-38
0.921835 0.533464 -0.079126 2.341805152028776e-38
0.928245 0.530319 -0.079420 2.341805152028776e-38
0.930281 0.524712 -0.079347 2.341805152028776e-38
0.933155 0.519584 -0.079345 2.341805152028776e-38
0.939497 0.516361 -0.079638 2.341805152028776e-38
0.945831 0.513085 -0.079928 2.341805152028776e-38
0.950389 0.508833 -0.080070 2.341805152028776e-38
0.956667 0.505525 -0.080366 2.341805152028776e-38
0.959400 0.500319 -0.080362 2.341805152028776e-38
0.962991 0.495555 -0.080430 2.341805152028776e-38
0.964781 0.489865 -0.080348 2.341805152028776e-38
0.970096 0.485971 -0.080562 2.341805152028776e-38
