VERSION .7
FIELDS x y z rgb
SIZE 4 4 4 4
TYPE F F F F
COUNT 1 1 1 1
WIDTH 941
HEIGHT 1
VIEWPOINT 0 0 0 1 0 0 0
POINTS 941
DATA ascii
2.472905 0.114588 -0.355825 2.341805152028776e-38
2.367610 0.098146 -0.340625 2.341805152028776e-38
2.329480 0.085194 -0.335097 2.341805152028776e-38
2.305132 0.073055 -0.331558 2.341805152028776e-38
2.396489 0.064260 -0.344666 2.341805152028776e-38
2.332449 0.051167 -0.335429 2.341805152028776e-38
2.284175 0.038971 -0.328466 2.341805152028776e-38
2.253654 0.027463 -0.324062 2.341805152028776e-38
2.305230 0.016854 -0.331468 2.341805152028776e-38
2.173639 0.005297 -0.312541 2.341805152028776e-38
2.056840 -0.005013 -0.295747 2.341805152028776e-38
2.086486 -0.015255 -0.300014 2.341805152028776e-38
2.170516 -0.026450 -0.312107 2.341805152028776e-38
2.083271 -0.035543 -0.299576 2.341805152028776e-38
1.963334 -0.043070 -0.282347 2.341805152028776e-38
1.992787 -0.053435 -0.286605 2.341805152028776e-38
2.099352 -0.066534 -0.301960 2.341805152028776e-38
2.052514 -0.075065 -0.295256 2.341805152028776e-38
1.959163 -0.081215 -0.281862 2.341805152028776e-38
1.899420 -0.088014 -0.273306 2.341805152028776e-38
1.906880 -0.097676 -0.274423 2.341805152028776e-38
1.881678 -0.105583 -0.270843 2.341805152028776e-38
1.848541 -0.112764 -0.266124 2.341805152028776e-38
1.958595 -0.129063 -0.282026 2.341805152028776e-38
2.031999 -0.143850 -0.292660 2.341805152028776e-38
2.011539 -0.152258 -0.289782 2.341805152028776e-38
1.959472 -0.157926 -0.282353 2.341805152028776e-38
2.034626 -0.173968 -0.293261 2.341805152028776e-38
2.122484 -0.191906 -0.306012 2.341805152028776e-38
2.087041 -0.198961 -0.300992 2.341805152028776e-38
1.929452 -0.193432 -0.278353 2.341805152028776e-38
1.958026 -0.205940 -0.282569 2.341805152028776e-38
1.977668 -0.217757 -0.285503 2.341805152028776e-38
1.959873 -0.225471 -0.283038 2.341805152028776e-38
1.901755 -0.228182 -0.274749 2.341805152028776e-38
1.945811 -0.243093 -0.281226 2.341805152028776e-38
1.950501 -0.253340 -0.282020 2.341805152028776e-38
1.929631 -0.260199 -0.279122 2.341805152028776e-38
1.864626 -0.260692 -0.269839 2.341805152028776e-38
1.921143 -0.278147 -0.278147 2.341805152028776e-38
2.030398 -0.304075 -0.294105 2.341805152028776e-38
2.019120 -0.312455 -0.292616 2.341805152028776e-38
1.938405 -0.309645 -0.281062 2.341805152028776e-38
1.959348 -0.322791 -0.284249 2.341805152028776e-38
2.045598 -0.347248 -0.296923 2.341805152028776e-38
2.019515 -0.352955 -0.293301 2.341805152028776e-38
1.954452 -0.351408 -0.284015 2.341805152028776e-38
2.016002 -0.372626 -0.293133 2.341805152028776e-38
2.079336 -0.394822 -0.302526 2.341805152028776e-38
2.041449 -0.397945 -0.297199 2.341805152028776e-38
1.957957 -0.391584 -0.285228 2.341805152028776e-38
1.997739 -0.409675 -0.291215 2.341805152028776e-38
2.049985 -0.430810 -0.299033 2.341805152028776e-38
1.998517 -0.430174 -0.291727 2.341805152028776e-38
1.922935 -0.423720 -0.280893 2.341805152028776e-38
1.956594 -0.441146 -0.286018 2.341805152028776e-38
2.029679 -0.468033 -0.296924 2.341805152028776e-38
1.999429 -0.471385 -0.292755 2.341805152028776e-38
1.934547 -0.466105 -0.283507 2.341805152028776e-38
1.971665 -0.485281 -0.289208 2.341805152028776e-38
2.055689 -0.516657 -0.301810 2.341805152028776e-38
2.032048 -0.521315 -0.298617 2.341805152028776e-38
1.977754 -0.517758 -0.290931 2.341805152028776e-38
2.023951 -0.540583 -0.298078 2.341805152028776e-38
2.052775 -0.559196 -0.302684 2.341805152028776e-38
2.005149 -0.556914 -0.296018 2.341805152028776e-38
1.955693 -0.553637 -0.289067 2.341805152028776e-38
2.006201 -0.578697 -0.296897 2.341805152028776e-38
2.031787 -0.597081 -0.301092 2.341805152028776e-38
1.997468 -0.597900 -0.296438 2.341805152028776e-38
1.961298 -0.597815 -0.291496 2.341805152028776e-38
2.032975 -0.630833 -0.302595 2.341805152028776e-38
2.115697 -0.668166 -0.315375 2.341805152028776e-38
2.104778 -0.676364 -0.314216 2.341805152028776e-38
2.072139 -0.677513 -0.309870 2.341805152028776e-38
2.134429 -0.709910 -0.319730 2.341805152028776e-38
2.242395 -0.758504 -0.336479 2.341805152028776e-38
2.252552 -0.774730 -0.338586 2.341805152028776e-38
2.222415 -0.777031 -0.334634 2.341805152028776e-38
2.293036 -0.814925 -0.345903 2.341805152028776e-38
2.345605 -0.847239 -0.354518 2.341805152028776e-38
2.286371 -0.839183 -0.346236 2.341805152028776e-38
2.219862 -0.827777 -0.336819 2.341805152028776e-38
2.318335 -0.878134 -0.352448 2.341805152028776e-38
2.402475 -0.924219 -0.365966 2.341805152028776e-38
2.352428 -0.919087 -0.359114 2.341805152028776e-38
2.284096 -0.906161 -0.349434 2.341805152028776e-38
2.629349 0.173344 -0.391630 2.341805152028776e-38
2.596589 0.158472 -0.386671 2.341805152028776e-38
2.476841 0.139044 -0.368769 2.341805152028776e-38
2.538730 0.130103 -0.377918 2.341805152028776e-38
2.535378 0.117538 -0.377359 2.341805152028776e-38
2.413371 0.100091 -0.359149 2.341805152028776e-38
2.300153 0.084162 -0.342257 2.341805152028776e-38
2.370726 0.075170 -0.352719 2.341805152028776e-38
2.429399 0.065173 -0.361414 2.341805152028776e-38
2.379253 0.052219 -0.353926 2.341805152028776e-38
2.267724 0.038708 -0.337314 2.341805152028776e-38
2.281731 0.027818 -0.339382 2.341805152028776e-38
2.209635 0.016163 -0.328648 2.341805152028776e-38
2.177046 0.005308 -0.323796 2.341805152028776e-38
2.050439 -0.004999 -0.304965 2.341805152028776e-38
2.062260 -0.015085 -0.306728 2.341805152028776e-38
2.107659 -0.025696 -0.313490 2.341805152028776e-38
2.028391 -0.034623 -0.301715 2.341805152028776e-38
1.955022 -0.042908 -0.290820 2.341805152028776e-38
1.957758 -0.052520 -0.291249 2.341805152028776e-38
2.073150 -0.065734 -0.308445 2.341805152028776e-38
2.029315 -0.074252 -0.301957 2.341805152028776e-38
1.924174 -0.079802 -0.286348 2.341805152028776e-38
1.919813 -0.089001 -0.285740 2.341805152028776e-38
1.927262 -0.098767 -0.286894 2.341805152028776e-38
1.893183 -0.106279 -0.281870 2.341805152028776e-38
1.852167 -0.113039 -0.275816 2.341805152028776e-38
1.913779 -0.126169 -0.285049 2.341805152028776e-38
1.984185 -0.140532 -0.295601 2.341805152028776e-38
2.010112 -0.152223 -0.299535 2.341805152028776e-38
1.944279 -0.156776 -0.289798 2.341805152028776e-38
2.009529 -0.171904 -0.299604 2.341805152028776e-38
2.075662 -0.187761 -0.309553 2.341805152028776e-38
2.037310 -0.194312 -0.303925 2.341805152028776e-38
1.929066 -0.193485 -0.287868 2.341805152028776e-38
1.939911 -0.204132 -0.289583 2.341805152028776e-38
1.975279 -0.217597 -0.294965 2.341805152028776e-38
1.948653 -0.224287 -0.291096 2.341805152028776e-38
1.904331 -0.228600 -0.284583 2.341805152028776e-38
1.928722 -0.241073 -0.288343 2.341805152028776e-38
1.951074 -0.253535 -0.291805 2.341805152028776e-38
1.919434 -0.258947 -0.287196 2.341805152028776e-38
1.874074 -0.262138 -0.280534 2.341805152028776e-38
1.892362 -0.274111 -0.283403 2.341805152028776e-38
1.950688 -0.292277 -0.292277 2.341805152028776e-38
1.911125 -0.295884 -0.286491 2.341805152028776e-38
1.868644 -0.298644 -0.280266 2.341805152028776e-38
1.940380 -0.319819 -0.291179 2.341805152028776e-38
1.991473 -0.338223 -0.299008 2.341805152028776e-38
1.983965 -0.346908 -0.298048 2.341805152028776e-38
1.933582 -0.347823 -0.290646 2.341805152028776e-38
1.951330 -0.360846 -0.293488 2.341805152028776e-38
1.987463 -0.377559 -0.299105 2.341805152028776e-38
1.943861 -0.379105 -0.292726 2.341805152028776e-38
1.885741 -0.377323 -0.284157 2.341805152028776e-38
1.903274 -0.390491 -0.286988 2.341805152028776e-38
1.958479 -0.411778 -0.295512 2.341805152028776e-38
1.925515 -0.414661 -0.290739 2.341805152028776e-38
1.881943 -0.414888 -0.284362 2.341805152028776e-38
1.891493 -0.426674 -0.286012 2.341805152028776e-38
1.934701 -0.446381 -0.292788 2.341805152028776e-38
1.905541 -0.449500 -0.288626 2.341805152028776e-38
1.840812 -0.443766 -0.279069 2.341805152028776e-38
1.873208 -0.461302 -0.284237 2.341805152028776e-38
1.928504 -0.484958 -0.292896 2.341805152028776e-38
1.918450 -0.492442 -0.291640 2.341805152028776e-38
1.880587 -0.492651 -0.286207 2.341805152028776e-38
1.919226 -0.512952 -0.292430 2.341805152028776e-38
1.958664 -0.533910 -0.298794 2.341805152028776e-38
1.939795 -0.539114 -0.296270 2.341805152028776e-38
1.896174 -0.537135 -0.289958 2.341805152028776e-38
1.918204 -0.553680 -0.293691 2.341805152028776e-38
1.934386 -0.568880 -0.296596 2.341805152028776e-38
1.885069 -0.564670 -0.289453 2.341805152028776e-38
1.858556 -0.566910 -0.285798 2.341805152028776e-38
1.928442 -0.598827 -0.296979 2.341805152028776e-38
2.000884 -0.632357 -0.308590 2.341805152028776e-38
1.977886 -0.636096 -0.305527 2.341805152028776e-38
1.981208 -0.648294 -0.306558 2.341805152028776e-38
2.091471 -0.696166 -0.324169 2.341805152028776e-38
2.211604 -0.748667 -0.343374 2.341805152028776e-38
2.232091 -0.768280 -0.347149 2.341805152028776e-38
2.207611 -0.772439 -0.343933 2.341805152028776e-38
2.265122 -0.805674 -0.353569 2.341805152028776e-38
2.324208 -0.840200 -0.363491 2.341805152028776e-38
2.284556 -0.839199 -0.357980 2.341805152028776e-38
2.218096 -0.827784 -0.348240 2.341805152028776e-38
2.317412 -0.878484 -0.364541 2.341805152028776e-38
2.403301 -0.925335 -0.378828 2.341805152028776e-38
2.364341 -0.924530 -0.373486 2.341805152028776e-38
2.295112 -0.911301 -0.363329 2.341805152028776e-38
2.620518 0.172847 -0.403310 2.341805152028776e-38
2.583834 0.157771 -0.397582 2.341805152028776e-38
2.489829 0.139842 -0.383045 2.341805152028776e-38
2.524039 0.129413 -0.388240 2.341805152028776e-38
2.497977 0.115861 -0.384170 2.341805152028776e-38
2.377039 0.098632 -0.365519 2.341805152028776e-38
2.311310 0.084611 -0.355367 2.341805152028776e-38
2.381834 0.075559 -0.366170 2.341805152028776e-38
2.451334 0.065794 -0.376818 2.341805152028776e-38
2.371583 0.052076 -0.364530 2.341805152028776e-38
2.265076 0.038682 -0.348137 2.341805152028776e-38
2.210878 0.026968 -0.339791 2.341805152028776e-38
2.281157 0.016694 -0.350581 2.341805152028776e-38
2.168534 0.005290 -0.333268 2.341805152028776e-38
2.043008 -0.004984 -0.313976 2.341805152028776e-38
2.018251 -0.014770 -0.310176 2.341805152028776e-38
2.069548 -0.025244 -0.318070 2.341805152028776e-38
1.993306 -0.034041 -0.306367 2.341805152028776e-38
1.911101 -0.041964 -0.293751 2.341805152028776e-38
1.972134 -0.052932 -0.303156 2.341805152028776e-38
2.079535 -0.065969 -0.319696 2.341805152028776e-38
2.013013 -0.073691 -0.309503 2.341805152028776e-38
1.915852 -0.079496 -0.294602 2.341805152028776e-38
1.882863 -0.087331 -0.289570 2.341805152028776e-38
1.947567 -0.099856 -0.299569 2.341805152028776e-38
1.867125 -0.104867 -0.287245 2.341805152028776e-38
1.831079 -0.111807 -0.281753 2.341805152028776e-38
1.882788 -0.124187 -0.289770 2.341805152028776e-38
2.001464 -0.141825 -0.308103 2.341805152028776e-38
1.978085 -0.149871 -0.304576 2.341805152028776e-38
1.930046 -0.155705 -0.297255 2.341805152028776e-38
1.983435 -0.169755 -0.305560 2.341805152028776e-38
2.062326 -0.186647 -0.317804 2.341805152028776e-38
2.036799 -0.194359 -0.313965 2.341805152028776e-38
1.925683 -0.193241 -0.296931 2.341805152028776e-38
1.917844 -0.201909 -0.295821 2.341805152028776e-38
1.964003 -0.216462 -0.303046 2.341805152028776e-38
1.920708 -0.221179 -0.296474 2.341805152028776e-38
1.837177 -0.220647 -0.283689 2.341805152028776e-38
1.851780 -0.231570 -0.286058 2.341805152028776e-38
1.913371 -0.248759 -0.295694 2.341805152028776e-38
1.903328 -0.256901 -0.294269 2.341805152028776e-38
1.857031 -0.259883 -0.287239 2.341805152028776e-38
1.844990 -0.267381 -0.285508 2.341805152028776e-38
1.899395 -0.284733 -0.294068 2.341805152028776e-38
1.871619 -0.289911 -0.289911 2.341805152028776e-38
1.839935 -0.294202 -0.285149 2.341805152028776e-38
1.885305 -0.310896 -0.292335 2.341805152028776e-38
1.921784 -0.326549 -0.298153 2.341805152028776e-38
1.887074 -0.330130 -0.292932 2.341805152028776e-38
1.829999 -0.329353 -0.284236 2.341805152028776e-38
1.825467 -0.337739 -0.283701 2.341805152028776e-38
1.908300 -0.362701 -0.296755 2.341805152028776e-38
1.842486 -0.359513 -0.286700 2.341805152028776e-38
1.802921 -0.360931 -0.280724 2.341805152028776e-38
1.791469 -0.367736 -0.279125 2.341805152028776e-38
1.858352 -0.390921 -0.289742 2.341805152028776e-38
1.843874 -0.397278 -0.287684 2.341805152028776e-38
1.810072 -0.399244 -0.282611 2.341805152028776e-38
1.793647 -0.404824 -0.280263 2.341805152028776e-38
1.854263 -0.428069 -0.289982 2.341805152028776e-38
1.811743 -0.427619 -0.283579 2.341805152028776e-38
1.774078 -0.427923 -0.277929 2.341805152028776e-38
1.781569 -0.438985 -0.279354 2.341805152028776e-38
1.860900 -0.468223 -0.292060 2.341805152028776e-38
1.819321 -0.467304 -0.285827 2.341805152028776e-38
1.768216 -0.463532 -0.278119 2.341805152028776e-38
1.809835 -0.484045 -0.284998 2.341805152028776e-38
1.852246 -0.505243 -0.292021 2.341805152028776e-38
1.836390 -0.510718 -0.289867 2.341805152028776e-38
1.800551 -0.510387 -0.284552 2.341805152028776e-38
1.811279 -0.523220 -0.286634 2.341805152028776e-38
1.805786 -0.531466 -0.286174 2.341805152028776e-38
1.779423 -0.533426 -0.282402 2.341805152028776e-38
1.765378 -0.538891 -0.280579 2.341805152028776e-38
1.788144 -0.555672 -0.284612 2.341805152028776e-38
1.843612 -0.593401 -0.294364 2.341805152028776e-38
1.906339 -0.624302 -0.304892 2.341805152028776e-38
2.042897 -0.680544 -0.327284 2.341805152028776e-38
2.177993 -0.737876 -0.349520 2.341805152028776e-38
2.197581 -0.756997 -0.353265 2.341805152028776e-38
2.190880 -0.767246 -0.352821 2.341805152028776e-38
2.261407 -0.805041 -0.364875 2.341805152028776e-38
2.317655 -0.838540 -0.374667 2.341805152028776e-38
2.264122 -0.832389 -0.366717 2.341805152028776e-38
2.183856 -0.815681 -0.354400 2.341805152028776e-38
2.273906 -0.862700 -0.369728 2.341805152028776e-38
2.387451 -0.920048 -0.389014 2.341805152028776e-38
2.356834 -0.922404 -0.384844 2.341805152028776e-38
2.277564 -0.905120 -0.372696 2.341805152028776e-38
2.628390 0.173454 -0.417575 2.341805152028776e-38
2.569063 0.156948 -0.408065 2.341805152028776e-38
2.464279 0.138477 -0.391347 2.341805152028776e-38
2.531007 0.129836 -0.401874 2.341805152028776e-38
2.502007 0.116107 -0.397207 2.341805152028776e-38
2.407807 0.099959 -0.382198 2.341805152028776e-38
2.314498 0.084771 -0.367340 2.341805152028776e-38
2.382995 0.075634 -0.378169 2.341805152028776e-38
2.446520 0.065698 -0.388214 2.341805152028776e-38
2.369791 0.052063 -0.376009 2.341805152028776e-38
2.236701 0.038217 -0.354869 2.341805152028776e-38
2.238835 0.027322 -0.355191 2.341805152028776e-38
2.231040 0.016336 -0.353943 2.341805152028776e-38
2.177760 0.005315 -0.345485 2.341805152028776e-38
2.029613 -0.004954 -0.321982 2.341805152028776e-38
2.013763 -0.014745 -0.319473 2.341805152028776e-38
2.020581 -0.024659 -0.320565 2.341805152028776e-38
1.951312 -0.033340 -0.309590 2.341805152028776e-38
1.884971 -0.041412 -0.299083 2.341805152028776e-38
1.937075 -0.052017 -0.307375 2.341805152028776e-38
1.994055 -0.063289 -0.316447 2.341805152028776e-38
1.945363 -0.071251 -0.308753 2.341805152028776e-38
1.874931 -0.077837 -0.297613 2.341805152028776e-38
1.899197 -0.088133 -0.301508 2.341805152028776e-38
1.853376 -0.095075 -0.294280 2.341805152028776e-38
1.819366 -0.102237 -0.288930 2.341805152028776e-38
1.805048 -0.110273 -0.286711 2.341805152028776e-38
1.862639 -0.122920 -0.295919 2.341805152028776e-38
1.910296 -0.135433 -0.303558 2.341805152028776e-38
1.884012 -0.142816 -0.299452 2.341805152028776e-38
1.846873 -0.149070 -0.293624 2.341805152028776e-38
1.928792 -0.165162 -0.306730 2.341805152028776e-38
2.012564 -0.182236 -0.320144 2.341805152028776e-38
1.991994 -0.190180 -0.316967 2.341805152028776e-38
1.891792 -0.189936 -0.301118 2.341805152028776e-38
1.876116 -0.197617 -0.298723 2.341805152028776e-38
1.864338 -0.205582 -0.296951 2.341805152028776e-38
1.824072 -0.210158 -0.290644 2.341805152028776e-38
1.761253 -0.211636 -0.280742 2.341805152028776e-38
1.796470 -0.224768 -0.286469 2.341805152028776e-38
1.842375 -0.239650 -0.293911 2.341805152028776e-38
1.812807 -0.244808 -0.289318 2.341805152028776e-38
1.789102 -0.250504 -0.285663 2.341805152028776e-38
1.793733 -0.260085 -0.286535 2.341805152028776e-38
1.814920 -0.272208 -0.290058 2.341805152028776e-38
1.808700 -0.280308 -0.289207 2.341805152028776e-38
1.781963 -0.285078 -0.285078 2.341805152028776e-38
1.814672 -0.299401 -0.290464 2.341805152028776e-38
1.777171 -0.302131 -0.284616 2.341805152028776e-38
1.767903 -0.309441 -0.283291 2.341805152028776e-38
1.748886 -0.314917 -0.280405 2.341805152028776e-38
1.761910 -0.326147 -0.282661 2.341805152028776e-38
1.779718 -0.338436 -0.285692 2.341805152028776e-38
1.752852 -0.342199 -0.281556 2.341805152028776e-38
1.718243 -0.344156 -0.276175 2.341805152028776e-38
1.726233 -0.354528 -0.277642 2.341805152028776e-38
1.766062 -0.371699 -0.284241 2.341805152028776e-38
1.759414 -0.379276 -0.283367 2.341805152028776e-38
1.723793 -0.380415 -0.277831 2.341805152028776e-38
1.735408 -0.391913 -0.279938 2.341805152028776e-38
1.730589 -0.399754 -0.279398 2.341805152028776e-38
1.701699 -0.401883 -0.274972 2.341805152028776e-38
1.687236 -0.407215 -0.272876 2.341805152028776e-38
1.715923 -0.423057 -0.277764 2.341805152028776e-38
1.702342 -0.428584 -0.275821 2.341805152028776e-38
1.676282 -0.430871 -0.271909 2.341805152028776e-38
1.655975 -0.434416 -0.268924 2.341805152028776e-38
1.663349 -0.445179 -0.270436 2.341805152028776e-38
1.684952 -0.459930 -0.274270 2.341805152028776e-38
1.675043 -0.466167 -0.272981 2.341805152028776e-38
1.654653 -0.469371 -0.269992 2.341805152028776e-38
1.654176 -0.478217 -0.270296 2.341805152028776e-38
1.644175 -0.484280 -0.269045 2.341805152028776e-38
1.628478 -0.488555 -0.266858 2.341805152028776e-38
1.615615 -0.493553 -0.265132 2.341805152028776e-38
1.618779 -0.503423 -0.266037 2.341805152028776e-38
1.637878 -0.518453 -0.269596 2.341805152028776e-38
1.671893 -0.538584 -0.275653 2.341805152028776e-38
1.771459 -0.580614 -0.292558 2.341805152028776e-38
1.950299 -0.650233 -0.322635 2.341805152028776e-38
2.091984 -0.709316 -0.346658 2.341805152028776e-38
2.147189 -0.740237 -0.356410 2.341805152028776e-38
2.153605 -0.754862 -0.358146 2.341805152028776e-38
2.231578 -0.795120 -0.371819 2.341805152028776e-38
2.291542 -0.829813 -0.382538 2.341805152028776e-38
2.220480 -0.817047 -0.371385 2.341805152028776e-38
2.152389 -0.804613 -0.360689 2.341805152028776e-38
2.235928 -0.849068 -0.375438 2.341805152028776e-38
2.330084 -0.898760 -0.392077 2.341805152028776e-38
2.315238 -0.906943 -0.390406 2.341805152028776e-38
2.265488 -0.901126 -0.382831 2.341805152028776e-38
2.619444 0.172954 -0.429183 2.341805152028776e-38
2.549327 0.155824 -0.417608 2.341805152028776e-38
2.483048 0.139604 -0.406674 2.341805152028776e-38
2.492565 0.127931 -0.408161 2.341805152028776e-38
2.439920 0.113285 -0.399477 2.341805152028776e-38
2.320143 0.096370 -0.379813 2.341805152028776e-38
2.265354 0.083014 -0.370796 2.341805152028776e-38
2.354504 0.074769 -0.385346 2.341805152028776e-38
2.397258 0.064408 -0.392306 2.341805152028776e-38
2.297891 0.050509 -0.376015 2.341805152028776e-38
2.172793 0.037144 -0.355522 2.341805152028776e-38
2.158145 0.026351 -0.353109 2.341805152028776e-38
2.202655 0.016136 -0.360380 2.341805152028776e-38
2.111915 0.005157 -0.345528 2.341805152028776e-38
1.980660 -0.004837 -0.324054 2.341805152028776e-38
1.957916 -0.014343 -0.320338 2.341805152028776e-38
1.970652 -0.024062 -0.322432 2.341805152028776e-38
1.900454 -0.032488 -0.310961 2.341805152028776e-38
1.834169 -0.040316 -0.300134 2.341805152028776e-38
1.866507 -0.050148 -0.305450 2.341805152028776e-38
1.899780 -0.060329 -0.310924 2.341805152028776e-38
1.869878 -0.068522 -0.306064 2.341805152028776e-38
1.808390 -0.075114 -0.296037 2.341805152028776e-38
1.848424 -0.085822 -0.302634 2.341805152028776e-38
1.830246 -0.093938 -0.299705 2.341805152028776e-38
1.794298 -0.100881 -0.293870 2.341805152028776e-38
1.773102 -0.108378 -0.290454 2.341805152028776e-38
1.791267 -0.118272 -0.293490 2.341805152028776e-38
1.816268 -0.128835 -0.297652 2.341805152028776e-38
1.800862 -0.136584 -0.295198 2.341805152028776e-38
1.790342 -0.144583 -0.293548 2.341805152028776e-38
1.837803 -0.157453 -0.301411 2.341805152028776e-38
1.914668 -0.173462 -0.314107 2.341805152028776e-38
1.904963 -0.181966 -0.312609 2.341805152028776e-38
1.831393 -0.183969 -0.300632 2.341805152028776e-38
1.798092 -0.189498 -0.295264 2.341805152028776e-38
1.800096 -0.198602 -0.295696 2.341805152028776e-38
1.755974 -0.202418 -0.288554 2.341805152028776e-38
1.726557 -0.207576 -0.283828 2.341805152028776e-38
1.750014 -0.219071 -0.287799 2.341805152028776e-38
1.760677 -0.229144 -0.289673 2.341805152028776e-38
1.749766 -0.236419 -0.288001 2.341805152028776e-38
1.725143 -0.241676 -0.284075 2.341805152028776e-38
1.723953 -0.250099 -0.284011 2.341805152028776e-38
1.742243 -0.261446 -0.287162 2.341805152028776e-38
1.743882 -0.270406 -0.287574 2.341805152028776e-38
1.720137 -0.275332 -0.283804 2.341805152028776e-38
1.720732 -0.284052 -0.284052 2.341805152028776e-38
1.731013 -0.294439 -0.285905 2.341805152028776e-38
1.721789 -0.301529 -0.284541 2.341805152028776e-38
1.710595 -0.308185 -0.282855 2.341805152028776e-38
1.714906 -0.317615 -0.283736 2.341805152028776e-38
1.724984 -0.328201 -0.285578 2.341805152028776e-38
1.723375 -0.336623 -0.285490 2.341805152028776e-38
1.712047 -0.343097 -0.283797 2.341805152028776e-38
1.712299 -0.351853 -0.284026 2.341805152028776e-38
1.726996 -0.363671 -0.286658 2.341805152028776e-38
1.709777 -0.368772 -0.283997 2.341805152028776e-38
1.687719 -0.372683 -0.280559 2.341805152028776e-38
1.666625 -0.376610 -0.277284 2.341805152028776e-38
1.646496 -0.380561 -0.274168 2.341805152028776e-38
1.634054 -0.386141 -0.272331 2.341805152028776e-38
1.617759 -0.390683 -0.269853 2.341805152028776e-38
1.610084 -0.397202 -0.268813 2.341805152028776e-38
1.593750 -0.401541 -0.266369 2.341805152028776e-38
1.582184 -0.406981 -0.264735 2.341805152028776e-38
1.562966 -0.410314 -0.261819 2.341805152028776e-38
1.554243 -0.416277 -0.260659 2.341805152028776e-38
1.547404 -0.422685 -0.259816 2.341805152028776e-38
1.543392 -0.429832 -0.259448 2.341805152028776e-38
1.530778 -0.434588 -0.257676 2.341805152028776e-38
1.524786 -0.441168 -0.257028 2.341805152028776e-38
1.514979 -0.446585 -0.255737 2.341805152028776e-38
1.512720 -0.454187 -0.255719 2.341805152028776e-38
1.507591 -0.460915 -0.255217 2.341805152028776e-38
1.507144 -0.469075 -0.255512 2.341805152028776e-38
1.522619 -0.482391 -0.258561 2.341805152028776e-38
1.547393 -0.498908 -0.263203 2.341805152028776e-38
1.848439 -0.616794 -0.315460 2.341805152028776e-38
2.013541 -0.683291 -0.344214 2.341805152028776e-38
2.080941 -0.718046 -0.356364 2.341805152028776e-38
2.073486 -0.727442 -0.355756 2.341805152028776e-38
2.161757 -0.770936 -0.371602 2.341805152028776e-38
2.253345 -0.816709 -0.388082 2.341805152028776e-38
2.212052 -0.814664 -0.381696 2.341805152028776e-38
2.172690 -0.812912 -0.375622 2.341805152028776e-38
2.245008 -0.853323 -0.388930 2.341805152028776e-38
2.344579 -0.905199 -0.407036 2.341805152028776e-38
2.325114 -0.911657 -0.404510 2.341805152028776e-38
2.293722 -0.913194 -0.399895 2.341805152028776e-38
2.626192 0.173493 -0.443371 2.341805152028776e-38
2.585661 0.158130 -0.436439 2.341805152028776e-38
2.446591 0.137629 -0.412886 2.341805152028776e-38
2.440335 0.125318 -0.411759 2.341805152028776e-38
2.344379 0.108907 -0.395505 2.341805152028776e-38
2.301528 0.095649 -0.388221 2.341805152028776e-38
2.212290 0.081113 -0.373121 2.341805152028776e-38
2.300374 0.073089 -0.387934 2.341805152028776e-38
2.318444 0.062324 -0.390944 2.341805152028776e-38
2.229992 0.049043 -0.375999 2.341805152028776e-38
2.096115 0.035853 -0.353404 2.341805152028776e-38
2.092319 0.025561 -0.352747 2.341805152028776e-38
2.093404 0.015344 -0.352919 2.341805152028776e-38
2.004706 0.004898 -0.337960 2.341805152028776e-38
1.885390 -0.004606 -0.317846 2.341805152028776e-38
1.884360 -0.013812 -0.317677 2.341805152028776e-38
1.887229 -0.023056 -0.318171 2.341805152028776e-38
1.845685 -0.031569 -0.311182 2.341805152028776e-38
1.806076 -0.039720 -0.304523 2.341805152028776e-38
1.821635 -0.048969 -0.307170 2.341805152028776e-38
1.799693 -0.057181 -0.303499 2.341805152028776e-38
1.795453 -0.065830 -0.302818 2.341805152028776e-38
1.762600 -0.073251 -0.297315 2.341805152028776e-38
1.798671 -0.083557 -0.303442 2.341805152028776e-38
1.755899 -0.090170 -0.296274 2.341805152028776e-38
1.725905 -0.097088 -0.291263 2.341805152028776e-38
1.725415 -0.105520 -0.291236 2.341805152028776e-38
1.741611 -0.115055 -0.294030 2.341805152028776e-38
1.755788 -0.124612 -0.296490 2.341805152028776e-38
1.726649 -0.131026 -0.291639 2.341805152028776e-38
1.720096 -0.138985 -0.290606 2.341805152028776e-38
1.751826 -0.150168 -0.296046 2.341805152028776e-38
1.824736 -0.165404 -0.308456 2.341805152028776e-38
1.834712 -0.175351 -0.310236 2.341805152028776e-38
1.791650 -0.180074 -0.303051 2.341805152028776e-38
1.753491 -0.184897 -0.296695 2.341805152028776e-38
1.704545 -0.188162 -0.288515 2.341805152028776e-38
1.702635 -0.196376 -0.288297 2.341805152028776e-38
1.678166 -0.201867 -0.284262 2.341805152028776e-38
1.689889 -0.211659 -0.286362 2.341805152028776e-38
1.681999 -0.219023 -0.285143 2.341805152028776e-38
1.677010 -0.226712 -0.284420 2.341805152028776e-38
1.659290 -0.232577 -0.281541 2.341805152028776e-38
1.663024 -0.241391 -0.282305 2.341805152028776e-38
1.649158 -0.247612 -0.280085 2.341805152028776e-38
1.643067 -0.254912 -0.279189 2.341805152028776e-38
1.637918 -0.262315 -0.278457 2.341805152028776e-38
1.650252 -0.272566 -0.280702 2.341805152028776e-38
1.639190 -0.278973 -0.278973 2.341805152028776e-38
1.640735 -0.287491 -0.279392 2.341805152028776e-38
1.620882 -0.292181 -0.276172 2.341805152028776e-38
1.631085 -0.302256 -0.278075 2.341805152028776e-38
1.631541 -0.310592 -0.278323 2.341805152028776e-38
1.633890 -0.319319 -0.278899 2.341805152028776e-38
1.622654 -0.325361 -0.277159 2.341805152028776e-38
1.630721 -0.335274 -0.278722 2.341805152028776e-38
1.618462 -0.341003 -0.276814 2.341805152028776e-38
1.611000 -0.347683 -0.275749 2.341805152028776e-38
1.587135 -0.350693 -0.271886 2.341805152028776e-38
1.582520 -0.357829 -0.271321 2.341805152028776e-38
1.564420 -0.361817 -0.268445 2.341805152028776e-38
1.558798 -0.368587 -0.267711 2.341805152028776e-38
1.548353 -0.374154 -0.266151 2.341805152028776e-38
1.540754 -0.380366 -0.265104 2.341805152028776e-38
1.532159 -0.386316 -0.263919 2.341805152028776e-38
1.527364 -0.393175 -0.263389 2.341805152028776e-38
1.517769 -0.398745 -0.262032 2.341805152028776e-38
1.511968 -0.405252 -0.261331 2.341805152028776e-38
1.504236 -0.411194 -0.260297 2.341805152028776e-38
1.499321 -0.417896 -0.259773 2.341805152028776e-38
1.493411 -0.424336 -0.259108 2.341805152028776e-38
1.488422 -0.431005 -0.258603 2.341805152028776e-38
1.483404 -0.437637 -0.258093 2.341805152028776e-38
1.480245 -0.444799 -0.257909 2.341805152028776e-38
1.477053 -0.451943 -0.257720 2.341805152028776e-38
1.478515 -0.460581 -0.258375 2.341805152028776e-38
1.490257 -0.472561 -0.260854 2.341805152028776e-38
1.500038 -0.484068 -0.262998 2.341805152028776e-38
1.778514 -0.593977 -0.312858 2.341805152028776e-38
1.951056 -0.662656 -0.343784 2.341805152028776e-38
1.990506 -0.687490 -0.351384 2.341805152028776e-38
1.997172 -0.701323 -0.353221 2.341805152028776e-38
2.103147 -0.750728 -0.372663 2.341805152028776e-38
2.217007 -0.804273 -0.393581 2.341805152028776e-38
2.212831 -0.815690 -0.393584 2.341805152028776e-38
2.171630 -0.813291 -0.387014 2.341805152028776e-38
2.251243 -0.856523 -0.402042 2.341805152028776e-38
2.344261 -0.905945 -0.419532 2.341805152028776e-38
2.346841 -0.921051 -0.420878 2.341805152028776e-38
2.314508 -0.922338 -0.415956 2.341805152028776e-38
2.634829 0.174160 -0.457978 2.341805152028776e-38
2.588436 0.158388 -0.449821 2.341805152028776e-38
2.460303 0.138477 -0.427472 2.341805152028776e-38
2.488496 0.127862 -0.432295 2.341805152028776e-38
2.402475 0.111668 -0.417286 2.341805152028776e-38
2.178636 0.058599 -0.378227 2.341805152028776e-38
2.194654 0.048293 -0.380978 2.341805152028776e-38
2.109156 0.036096 -0.366113 2.341805152028776e-38
2.068913 0.025289 -0.359110 2.341805152028776e-38
2.050291 0.015037 -0.355867 2.341805152028776e-38
1.949842 0.004767 -0.338427 2.341805152028776e-38
1.872992 -0.004579 -0.325088 2.341805152028776e-38
1.854228 -0.013599 -0.321836 2.341805152028776e-38
1.869903 -0.022857 -0.324567 2.341805152028776e-38
1.811648 -0.031004 -0.314471 2.341805152028776e-38
1.772075 -0.038994 -0.307621 2.341805152028776e-38
1.761031 -0.047366 -0.305728 2.341805152028776e-38
1.779492 -0.056571 -0.308962 2.341805152028776e-38
1.754582 -0.064367 -0.304671 2.341805152028776e-38
1.735545 -0.072167 -0.301404 2.341805152028776e-38
1.722380 -0.080057 -0.299160 2.341805152028776e-38
1.724924 -0.088629 -0.299650 2.341805152028776e-38
1.715621 -0.096563 -0.298085 2.341805152028776e-38
1.702349 -0.104168 -0.295836 2.341805152028776e-38
1.699858 -0.112359 -0.295464 2.341805152028776e-38
1.689466 -0.119971 -0.293723 2.341805152028776e-38
1.685918 -0.128006 -0.293176 2.341805152028776e-38
1.677421 -0.135613 -0.291772 2.341805152028776e-38
1.697361 -0.145581 -0.295320 2.341805152028776e-38
1.768269 -0.160375 -0.307746 2.341805152028776e-38
1.792974 -0.171457 -0.312140 2.341805152028776e-38
1.759770 -0.176968 -0.306457 2.341805152028776e-38
1.719697 -0.181435 -0.299578 2.341805152028776e-38
1.707046 -0.188543 -0.297479 2.341805152028776e-38
1.690452 -0.195080 -0.294695 2.341805152028776e-38
1.677748 -0.201930 -0.292592 2.341805152028776e-38
1.664041 -0.208538 -0.290317 2.341805152028776e-38
1.662035 -0.216544 -0.290088 2.341805152028776e-38
1.644367 -0.222423 -0.287128 2.341805152028776e-38
1.620827 -0.227313 -0.283144 2.341805152028776e-38
1.608006 -0.233536 -0.281035 2.341805152028776e-38
1.593214 -0.239346 -0.278583 2.341805152028776e-38
1.588141 -0.246529 -0.277834 2.341805152028776e-38
1.581091 -0.253356 -0.276742 2.341805152028776e-38
1.577902 -0.260762 -0.276330 2.341805152028776e-38
1.567878 -0.266986 -0.274725 2.341805152028776e-38
1.565596 -0.274479 -0.274479 2.341805152028776e-38
1.554551 -0.280382 -0.272701 2.341805152028776e-38
1.552207 -0.287801 -0.272451 2.341805152028776e-38
1.544019 -0.294097 -0.271180 2.341805152028776e-38
1.540642 -0.301265 -0.270757 2.341805152028776e-38
1.528538 -0.306663 -0.268803 2.341805152028776e-38
1.529931 -0.314729 -0.269226 2.341805152028776e-38
1.522598 -0.321002 -0.268131 2.341805152028776e-38
1.521014 -0.328476 -0.268067 2.341805152028776e-38
1.514583 -0.334879 -0.267151 2.341805152028776e-38
1.513894 -0.342532 -0.267251 2.341805152028776e-38
1.502604 -0.347744 -0.265482 2.341805152028776e-38
1.505686 -0.356257 -0.266255 2.341805152028776e-38
1.500096 -0.362734 -0.265506 2.341805152028776e-38
1.499240 -0.370407 -0.265645 2.341805152028776e-38
1.493567 -0.376877 -0.264933 2.341805152028776e-38
1.493594 -0.384776 -0.265234 2.341805152028776e-38
1.489766 -0.391686 -0.264854 2.341805152028776e-38
1.487811 -0.399079 -0.264809 2.341805152028776e-38
1.481064 -0.405167 -0.263916 2.341805152028776e-38
1.479014 -0.412594 -0.263911 2.341805152028776e-38
1.481665 -0.421360 -0.264749 2.341805152028776e-38
1.479534 -0.428795 -0.264734 2.341805152028776e-38
1.473583 -0.435105 -0.264038 2.341805152028776e-38
1.470439 -0.442221 -0.263846 2.341805152028776e-38
1.471024 -0.450485 -0.264334 2.341805152028776e-38
1.469655 -0.458246 -0.264516 2.341805152028776e-38
1.474821 -0.468094 -0.265878 2.341805152028776e-38
1.478048 -0.477405 -0.266896 2.341805152028776e-38
1.756336 -0.587091 -0.318194 2.341805152028776e-38
1.920336 -0.652848 -0.348513 2.341805152028776e-38
1.953272 -0.675282 -0.355148 2.341805152028776e-38
1.958133 -0.688272 -0.356695 2.341805152028776e-38
2.077067 -0.742120 -0.379069 2.341805152028776e-38
2.216801 -0.804952 -0.405331 2.341805152028776e-38
2.195979 -0.810229 -0.402281 2.341805152028776e-38
2.137280 -0.801231 -0.392327 2.341805152028776e-38
2.216876 -0.844287 -0.407785 2.341805152028776e-38
2.355825 -0.911310 -0.434249 2.341805152028776e-38
2.316174 -0.909902 -0.427835 2.341805152028776e-38
2.264703 -0.903362 -0.419207 2.341805152028776e-38
2.620794 0.173332 -0.468638 2.341805152028776e-38
2.595071 0.158884 -0.463942 2.341805152028776e-38
2.491623 0.140320 -0.445363 2.341805152028776e-38
2.478509 0.127422 -0.442942 2.341805152028776e-38
2.330606 0.108389 -0.416444 2.341805152028776e-38
2.328153 0.096864 -0.415946 2.341805152028776e-38
2.196768 0.080635 -0.392423 2.341805152028776e-38
2.242394 0.071327 -0.400529 2.341805152028776e-38
2.136432 0.057496 -0.381566 2.341805152028776e-38
2.086491 0.045939 -0.372617 2.341805152028776e-38
2.048302 0.035074 -0.365774 2.341805152028776e-38
2.013995 0.024632 -0.359630 2.341805152028776e-38
1.968808 0.014447 -0.351550 2.341805152028776e-38
1.886162 0.004614 -0.336788 2.341805152028776e-38
1.818237 -0.004447 -0.324659 2.341805152028776e-38
1.798506 -0.013198 -0.321141 2.341805152028776e-38
1.771843 -0.021671 -0.316390 2.341805152028776e-38
1.726440 -0.029563 -0.308298 2.341805152028776e-38
1.702656 -0.037488 -0.304070 2.341805152028776e-38
1.713279 -0.046108 -0.305991 2.341805152028776e-38
1.689421 -0.053738 -0.301759 2.341805152028776e-38
1.668481 -0.061243 -0.298052 2.341805152028776e-38
1.661280 -0.069118 -0.296803 2.341805152028776e-38
1.681577 -0.078205 -0.300472 2.341805152028776e-38
1.662499 -0.085470 -0.297110 2.341805152028776e-38
1.655185 -0.093215 -0.295855 2.341805152028776e-38
1.650784 -0.101070 -0.295124 2.341805152028776e-38
1.647328 -0.108950 -0.294567 2.341805152028776e-38
1.634015 -0.116100 -0.292252 2.341805152028776e-38
1.613801 -0.122601 -0.288705 2.341805152028776e-38
1.608282 -0.130097 -0.287791 2.341805152028776e-38
1.626270 -0.139563 -0.291089 2.341805152028776e-38
1.665773 -0.151165 -0.298245 2.341805152028776e-38
1.683642 -0.161094 -0.301535 2.341805152028776e-38
1.648558 -0.165879 -0.295346 2.341805152028776e-38
1.637945 -0.172909 -0.293543 2.341805152028776e-38
1.628282 -0.179946 -0.291913 2.341805152028776e-38
1.619568 -0.187007 -0.290457 2.341805152028776e-38
1.608869 -0.193751 -0.288649 2.341805152028776e-38
1.605958 -0.201375 -0.288242 2.341805152028776e-38
1.587391 -0.206938 -0.285028 2.341805152028776e-38
1.578566 -0.213645 -0.283566 2.341805152028776e-38
1.564838 -0.219587 -0.281226 2.341805152028776e-38
1.556937 -0.226249 -0.279935 2.341805152028776e-38
1.549008 -0.232839 -0.278644 2.341805152028776e-38
1.545916 -0.240113 -0.278226 2.341805152028776e-38
1.542791 -0.247361 -0.277806 2.341805152028776e-38
1.536719 -0.254103 -0.276859 2.341805152028776e-38
1.530618 -0.260792 -0.275910 2.341805152028776e-38
1.529337 -0.268277 -0.275835 2.341805152028776e-38
1.522206 -0.274708 -0.274708 2.341805152028776e-38
1.519891 -0.281972 -0.274453 2.341805152028776e-38
1.512704 -0.288299 -0.273323 2.341805152028776e-38
1.509358 -0.295319 -0.272890 2.341805152028776e-38
1.505980 -0.302313 -0.272455 2.341805152028776e-38
1.505459 -0.309887 -0.272551 2.341805152028776e-38
1.502003 -0.316873 -0.272138 2.341805152028776e-38
1.501403 -0.324457 -0.272245 2.341805152028776e-38
1.496919 -0.331193 -0.271653 2.341805152028776e-38
1.495286 -0.338546 -0.271581 2.341805152028776e-38
1.490739 -0.345225 -0.270983 2.341805152028776e-38
1.492871 -0.353457 -0.271604 2.341805152028776e-38
1.489193 -0.360387 -0.271219 2.341805152028776e-38
1.487393 -0.367773 -0.271186 2.341805152028776e-38
1.483646 -0.374669 -0.270801 2.341805152028776e-38
1.484636 -0.382769 -0.271283 2.341805152028776e-38
1.480820 -0.389636 -0.270890 2.341805152028776e-38
1.477924 -0.396733 -0.270668 2.341805152028776e-38
1.473074 -0.403343 -0.270128 2.341805152028776e-38
1.470084 -0.410466 -0.269946 2.341805152028776e-38
1.469901 -0.418382 -0.270282 2.341805152028776e-38
1.467784 -0.425759 -0.270265 2.341805152028776e-38
1.465630 -0.433129 -0.270243 2.341805152028776e-38
1.464382 -0.440775 -0.270391 2.341805152028776e-38
1.465895 -0.449344 -0.271092 2.341805152028776e-38
1.462651 -0.456494 -0.270927 2.341805152028776e-38
1.466880 -0.466010 -0.272150 2.341805152028776e-38
1.469176 -0.474979 -0.273020 2.341805152028776e-38
1.724813 -0.577078 -0.321578 2.341805152028776e-38
1.888683 -0.642729 -0.352776 2.341805152028776e-38
1.901165 -0.657917 -0.355762 2.341805152028776e-38
1.914468 -0.673582 -0.358916 2.341805152028776e-38
2.022235 -0.723229 -0.379825 2.341805152028776e-38
2.146197 -0.780062 -0.403862 2.341805152028776e-38
2.123655 -0.784332 -0.400393 2.341805152028776e-38
2.100167 -0.788128 -0.396782 2.341805152028776e-38
2.193553 -0.836254 -0.415283 2.341805152028776e-38
2.319548 -0.898182 -0.440049 2.341805152028776e-38
2.302910 -0.905594 -0.437804 2.341805152028776e-38
2.267054 -0.905195 -0.431890 2.341805152028776e-38
2.610643 0.172762 -0.479894 2.341805152028776e-38
2.577087 0.157876 -0.473628 2.341805152028776e-38
2.477654 0.139615 -0.455267 2.341805152028776e-38
2.533308 0.130315 -0.465412 2.341805152028776e-38
2.518189 0.117182 -0.462561 2.341805152028776e-38
2.379179 0.099045 -0.436964 2.341805152028776e-38
2.293134 0.084222 -0.421108 2.341805152028776e-38
2.200123 0.070024 -0.403982 2.341805152028776e-38
2.226982 0.059968 -0.408875 2.341805152028776e-38
2.122030 0.046749 -0.389575 2.341805152028776e-38
2.029789 0.034778 -0.372617 2.341805152028776e-38
1.970924 0.024120 -0.361794 2.341805152028776e-38
1.910037 0.014024 -0.350606 2.341805152028776e-38
1.812710 0.004436 -0.332735 2.341805152028776e-38
1.762548 -0.004314 -0.323528 2.341805152028776e-38
1.756605 -0.012898 -0.322442 2.341805152028776e-38
1.714231 -0.020978 -0.314674 2.341805152028776e-38
1.708209 -0.029268 -0.313583 2.341805152028776e-38
1.698214 -0.037412 -0.311768 2.341805152028776e-38
1.680315 -0.045248 -0.308507 2.341805152028776e-38
1.662380 -0.052909 -0.305243 2.341805152028776e-38
1.663087 -0.061081 -0.305407 2.341805152028776e-38
1.654910 -0.068894 -0.303944 2.341805152028776e-38
1.639819 -0.076308 -0.301215 2.341805152028776e-38
1.627643 -0.083727 -0.299026 2.341805152028776e-38
1.625255 -0.091583 -0.298639 2.341805152028776e-38
1.610066 -0.098635 -0.295905 2.341805152028776e-38
1.601718 -0.105995 -0.294431 2.341805152028776e-38
1.585488 -0.112718 -0.291513 2.341805152028776e-38
1.577077 -0.119881 -0.290036 2.341805152028776e-38
1.569615 -0.127044 -0.288737 2.341805152028776e-38
1.568982 -0.134726 -0.288698 2.341805152028776e-38
1.566352 -0.142227 -0.288297 2.341805152028776e-38
1.562707 -0.149611 -0.287713 2.341805152028776e-38
1.554135 -0.156470 -0.286226 2.341805152028776e-38
1.547490 -0.163456 -0.285098 2.341805152028776e-38
1.539837 -0.170273 -0.283788 2.341805152028776e-38
1.538017 -0.177695 -0.283556 2.341805152028776e-38
1.532256 -0.184634 -0.282602 2.341805152028776e-38
1.530368 -0.192010 -0.282367 2.341805152028776e-38
1.527469 -0.199244 -0.281949 2.341805152028776e-38
1.525512 -0.206587 -0.281710 2.341805152028776e-38
1.520597 -0.213505 -0.280928 2.341805152028776e-38
1.518572 -0.220805 -0.280684 2.341805152028776e-38
1.513594 -0.227651 -0.279899 2.341805152028776e-38
1.515390 -0.235511 -0.280370 2.341805152028776e-38
1.513261 -0.242771 -0.280120 2.341805152028776e-38
1.509156 -0.249694 -0.279508 2.341805152028776e-38
1.509869 -0.257410 -0.279793 2.341805152028776e-38
1.509574 -0.264968 -0.279896 2.341805152028776e-38
1.507306 -0.272180 -0.279637 2.341805152028776e-38
1.505003 -0.279377 -0.279377 2.341805152028776e-38
1.499767 -0.286004 -0.278575 2.341805152028776e-38
1.496434 -0.292965 -0.278131 2.341805152028776e-38
1.494031 -0.300101 -0.277872 2.341805152028776e-38
1.496404 -0.308235 -0.278525 2.341805152028776e-38
1.493920 -0.315383 -0.278279 2.341805152028776e-38
1.492365 -0.322724 -0.278210 2.341805152028776e-38
1.489813 -0.329845 -0.277959 2.341805152028776e-38
1.488187 -0.337167 -0.277885 2.341805152028776e-38
1.486525 -0.344482 -0.277808 2.341805152028776e-38
1.485768 -0.352059 -0.277941 2.341805152028776e-38
1.485921 -0.359891 -0.278266 2.341805152028776e-38
1.484123 -0.367263 -0.278230 2.341805152028776e-38
1.478473 -0.373665 -0.277474 2.341805152028776e-38
1.477560 -0.381250 -0.277609 2.341805152028776e-38
1.476607 -0.388837 -0.277741 2.341805152028776e-38
1.475605 -0.396455 -0.277889 2.341805152028776e-38
1.469803 -0.402815 -0.277166 2.341805152028776e-38
1.466816 -0.409925 -0.276976 2.341805152028776e-38
1.465688 -0.417556 -0.277139 2.341805152028776e-38
1.468300 -0.426287 -0.278013 2.341805152028776e-38
1.465200 -0.433383 -0.277810 2.341805152028776e-38
1.463938 -0.441057 -0.277977 2.341805152028776e-38
1.460735 -0.448200 -0.277810 2.341805152028776e-38
1.460315 -0.456206 -0.278174 2.341805152028776e-38
1.464540 -0.465712 -0.279427 2.341805152028776e-38
1.462152 -0.473156 -0.279423 2.341805152028776e-38
1.700742 -0.569610 -0.326113 2.341805152028776e-38
1.855175 -0.631970 -0.356374 2.341805152028776e-38
1.853752 -0.642157 -0.356754 2.341805152028776e-38
1.890321 -0.665751 -0.364462 2.341805152028776e-38
1.977641 -0.707980 -0.382004 2.341805152028776e-38
2.145935 -0.780732 -0.415283 2.341805152028776e-38
2.127994 -0.786769 -0.412641 2.341805152028776e-38
2.110039 -0.792665 -0.409999 2.341805152028776e-38
2.212495 -0.844354 -0.430793 2.341805152028776e-38
2.327308 -0.902116 -0.454085 2.341805152028776e-38
2.294183 -0.903084 -0.448552 2.341805152028776e-38
2.271148 -0.907781 -0.444991 2.341805152028776e-38
2.586716 0.171282 -0.488471 2.341805152028776e-38
2.558089 0.156807 -0.482965 2.341805152028776e-38
2.478364 0.139740 -0.467824 2.341805152028776e-38
2.426997 0.124922 -0.458048 2.341805152028776e-38
2.469783 0.114999 -0.466049 2.341805152028776e-38
2.370163 0.098729 -0.447186 2.341805152028776e-38
2.197776 0.080768 -0.414609 2.341805152028776e-38
2.274752 0.072443 -0.429083 2.341805152028776e-38
2.235782 0.060242 -0.421692 2.341805152028776e-38
2.115207 0.046627 -0.398918 2.341805152028776e-38
1.988660 0.034093 -0.375028 2.341805152028776e-38
1.906262 0.023342 -0.359472 2.341805152028776e-38
1.803174 0.013248 -0.340022 2.341805152028776e-38
1.716740 0.004204 -0.323718 2.341805152028776e-38
1.674485 -0.004101 -0.315750 2.341805152028776e-38
1.655775 -0.012165 -0.312227 2.341805152028776e-38
1.639975 -0.020082 -0.309257 2.341805152028776e-38
1.635928 -0.028046 -0.308509 2.341805152028776e-38
1.626931 -0.035863 -0.306832 2.341805152028776e-38
1.622809 -0.043725 -0.306078 2.341805152028776e-38
1.611774 -0.051329 -0.304026 2.341805152028776e-38
1.605614 -0.059006 -0.302898 2.341805152028776e-38
1.594509 -0.066419 -0.300841 2.341805152028776e-38
1.590242 -0.074045 -0.300079 2.341805152028776e-38
1.576125 -0.081126 -0.297462 2.341805152028776e-38
1.574733 -0.088789 -0.297252 2.341805152028776e-38
1.563495 -0.095840 -0.295187 2.341805152028776e-38
1.559090 -0.103237 -0.294416 2.341805152028776e-38
1.550730 -0.110314 -0.292903 2.341805152028776e-38
1.550177 -0.117908 -0.292868 2.341805152028776e-38
1.544691 -0.125103 -0.291906 2.341805152028776e-38
1.538192 -0.132162 -0.290757 2.341805152028776e-38
1.533619 -0.139339 -0.289975 2.341805152028776e-38
1.531948 -0.146755 -0.289747 2.341805152028776e-38
1.527308 -0.153863 -0.288962 2.341805152028776e-38
1.522636 -0.160929 -0.288174 2.341805152028776e-38
1.517932 -0.167952 -0.287385 2.341805152028776e-38
1.517101 -0.175385 -0.287333 2.341805152028776e-38
1.515258 -0.182696 -0.287094 2.341805152028776e-38
1.514356 -0.190116 -0.287038 2.341805152028776e-38
1.513418 -0.197531 -0.286980 2.341805152028776e-38
1.512444 -0.204942 -0.286919 2.341805152028776e-38
1.510460 -0.212211 -0.286671 2.341805152028776e-38
1.507470 -0.219324 -0.286237 2.341805152028776e-38
1.505418 -0.226559 -0.285985 2.341805152028776e-38
1.504304 -0.233931 -0.285915 2.341805152028776e-38
1.501213 -0.240985 -0.285474 2.341805152028776e-38
1.500998 -0.248496 -0.285585 2.341805152028776e-38
1.501715 -0.256176 -0.285878 2.341805152028776e-38
1.502393 -0.263869 -0.286168 2.341805152028776e-38
1.497229 -0.270526 -0.285350 2.341805152028776e-38
1.495902 -0.277857 -0.285267 2.341805152028776e-38
1.490677 -0.284445 -0.284445 2.341805152028776e-38
1.489280 -0.291750 -0.284364 2.341805152028776e-38
1.488803 -0.299263 -0.284484 2.341805152028776e-38
1.490214 -0.307176 -0.284970 2.341805152028776e-38
1.487737 -0.314298 -0.284717 2.341805152028776e-38
1.485226 -0.321405 -0.284462 2.341805152028776e-38
1.483641 -0.328708 -0.284387 2.341805152028776e-38
1.482979 -0.336221 -0.284495 2.341805152028776e-38
1.481311 -0.343544 -0.284439 2.341805152028776e-38
1.481506 -0.351346 -0.284775 2.341805152028776e-38
1.480706 -0.358929 -0.284923 2.341805152028776e-38
1.478912 -0.366278 -0.284883 2.341805152028776e-38
1.473271 -0.372657 -0.284105 2.341805152028776e-38
1.473313 -0.380466 -0.284426 2.341805152028776e-38
1.473311 -0.388294 -0.284749 2.341805152028776e-38
1.474193 -0.396449 -0.285295 2.341805152028776e-38
1.465550 -0.402024 -0.283999 2.341805152028776e-38
1.465409 -0.409909 -0.284352 2.341805152028776e-38
1.463334 -0.417267 -0.284332 2.341805152028776e-38
1.465943 -0.425989 -0.285227 2.341805152028776e-38
1.462844 -0.433078 -0.285017 2.341805152028776e-38
1.460623 -0.440502 -0.285031 2.341805152028776e-38
1.457424 -0.447630 -0.284856 2.341805152028776e-38
1.457944 -0.455914 -0.285410 2.341805152028776e-38
1.460290 -0.464814 -0.286326 2.341805152028776e-38
1.452296 -0.470422 -0.285216 2.341805152028776e-38
1.516166 -0.499663 -0.298249 2.341805152028776e-38
1.682263 -0.564014 -0.331520 2.341805152028776e-38
1.838427 -0.626918 -0.362953 2.341805152028776e-38
1.844458 -0.639597 -0.364807 2.341805152028776e-38
1.863386 -0.656935 -0.369226 2.341805152028776e-38
2.002481 -0.717598 -0.397518 2.341805152028776e-38
2.139127 -0.779086 -0.425458 2.341805152028776e-38
2.137793 -0.791250 -0.426058 2.341805152028776e-38
2.110628 -0.793738 -0.421502 2.341805152028776e-38
2.190931 -0.837014 -0.438436 2.341805152028776e-38
2.298328 -0.891822 -0.460874 2.341805152028776e-38
2.275347 -0.896605 -0.457209 2.341805152028776e-38
2.241382 -0.896887 -0.451374 2.341805152028776e-38
2.571586 0.170386 -0.498537 2.341805152028776e-38
2.551801 0.156519 -0.494599 2.341805152028776e-38
2.452545 0.138370 -0.475270 2.341805152028776e-38
2.460049 0.126702 -0.476641 2.341805152028776e-38
2.439057 0.113639 -0.472498 2.341805152028776e-38
2.323828 0.096859 -0.450111 2.341805152028776e-38
2.219290 0.081609 -0.429808 2.341805152028776e-38
2.207884 0.070357 -0.427552 2.341805152028776e-38
2.150294 0.057974 -0.416360 2.341805152028776e-38
2.044543 0.045097 -0.395852 2.341805152028776e-38
1.929886 0.033106 -0.373629 2.341805152028776e-38
1.825963 0.022373 -0.353492 2.341805152028776e-38
1.722967 0.012666 -0.333542 2.341805152028776e-38
1.647411 0.004037 -0.318911 2.341805152028776e-38
1.573778 -0.003856 -0.304657 2.341805152028776e-38
1.561960 -0.011483 -0.302374 2.341805152028776e-38
1.557959 -0.019089 -0.301609 2.341805152028776e-38
1.553922 -0.026657 -0.300842 2.341805152028776e-38
1.552793 -0.034250 -0.300642 2.341805152028776e-38
1.550646 -0.041807 -0.300250 2.341805152028776e-38
1.543556 -0.049187 -0.298906 2.341805152028776e-38
1.546243 -0.056859 -0.299460 2.341805152028776e-38
1.542025 -0.064273 -0.298681 2.341805152028776e-38
1.538754 -0.071693 -0.298090 2.341805152028776e-38
1.536428 -0.079132 -0.297687 2.341805152028776e-38
1.534066 -0.086550 -0.297281 2.341805152028776e-38
1.531669 -0.093947 -0.296873 2.341805152028776e-38
1.529236 -0.101323 -0.296463 2.341805152028776e-38
1.529707 -0.108886 -0.296621 2.341805152028776e-38
1.531120 -0.116531 -0.296966 2.341805152028776e-38
1.527602 -0.123795 -0.296359 2.341805152028776e-38
1.523072 -0.130944 -0.295560 2.341805152028776e-38
1.520464 -0.138230 -0.295139 2.341805152028776e-38
1.518799 -0.145586 -0.294905 2.341805152028776e-38
1.512215 -0.152437 -0.293720 2.341805152028776e-38
1.508530 -0.159537 -0.293103 2.341805152028776e-38
1.509692 -0.167145 -0.293432 2.341805152028776e-38
1.512766 -0.174993 -0.294137 2.341805152028776e-38
1.509952 -0.182170 -0.293703 2.341805152028776e-38
1.509052 -0.189568 -0.293645 2.341805152028776e-38
1.507143 -0.196835 -0.293396 2.341805152028776e-38
1.506172 -0.204220 -0.293334 2.341805152028776e-38
1.505165 -0.211599 -0.293269 2.341805152028776e-38
1.502180 -0.218691 -0.292824 2.341805152028776e-38
