VERSION .7
FIELDS x y z rgb
SIZE 4 4 4 4
TYPE F F F F
COUNT 1 1 1 1
WIDTH 962
HEIGHT 1
VIEWPOINT 0 0 0 1 0 0 0
POINTS 962
DATA ascii
1.818690 0.165342 0.353028 2.341805152028776e-38
1.762733 0.151549 0.342067 2.341805152028776e-38
1.660692 0.134581 0.322179 2.341805152028776e-38
1.583006 0.120480 0.307029 2.341805152028776e-38
1.581611 0.112581 0.306685 2.341805152028776e-38
1.568423 0.103919 0.304060 2.341805152028776e-38
1.543428 0.094669 0.299153 2.341805152028776e-38
1.537006 0.086716 0.297851 2.341805152028776e-38
1.539369 0.079283 0.298257 2.341805152028776e-38
1.526005 0.071099 0.295620 2.341805152028776e-38
1.525350 0.063578 0.295451 2.341805152028776e-38
1.525639 0.056102 0.295469 2.341805152028776e-38
1.520005 0.048437 0.294346 2.341805152028776e-38
1.508445 0.040669 0.292079 2.341805152028776e-38
1.512550 0.033363 0.292851 2.341805152028776e-38
1.506803 0.025849 0.291719 2.341805152028776e-38
1.511819 0.018524 0.292677 2.341805152028776e-38
1.504037 0.011057 0.291161 2.341805152028776e-38
1.499164 0.003674 0.290213 2.341805152028776e-38
1.491310 -0.003654 0.288692 2.341805152028776e-38
1.492256 -0.010970 0.288880 2.341805152028776e-38
1.485313 -0.018199 0.287545 2.341805152028776e-38
1.489134 -0.025545 0.288299 2.341805152028776e-38
1.485067 -0.032757 0.287529 2.341805152028776e-38
1.479983 -0.039902 0.286568 2.341805152028776e-38
1.469960 -0.046842 0.284654 2.341805152028776e-38
1.467753 -0.053973 0.284259 2.341805152028776e-38
1.458646 -0.060798 0.282531 2.341805152028776e-38
1.453431 -0.067717 0.281561 2.341805152028776e-38
1.442301 -0.074284 0.279449 2.341805152028776e-38
1.437023 -0.081075 0.278475 2.341805152028776e-38
1.430733 -0.087756 0.277310 2.341805152028776e-38
1.427353 -0.094572 0.276712 2.341805152028776e-38
1.421002 -0.101148 0.275542 2.341805152028776e-38
1.419516 -0.108037 0.275320 2.341805152028776e-38
1.413105 -0.114517 0.274146 2.341805152028776e-38
1.410578 -0.121273 0.273730 2.341805152028776e-38
1.408996 -0.128096 0.273502 2.341805152028776e-38
1.409336 -0.135093 0.273651 2.341805152028776e-38
1.410619 -0.142196 0.273987 2.341805152028776e-38
1.411867 -0.149314 0.274322 2.341805152028776e-38
1.410152 -0.156124 0.274085 2.341805152028776e-38
1.410355 -0.163146 0.274225 2.341805152028776e-38
1.408573 -0.169939 0.273984 2.341805152028776e-38
1.408708 -0.176963 0.274119 2.341805152028776e-38
1.405887 -0.183611 0.273685 2.341805152028776e-38
1.406928 -0.190763 0.274006 2.341805152028776e-38
1.405988 -0.197657 0.273945 2.341805152028776e-38
1.405014 -0.204546 0.273883 2.341805152028776e-38
1.404007 -0.211430 0.273819 2.341805152028776e-38
1.407818 -0.219064 0.274699 2.341805152028776e-38
1.408680 -0.226273 0.275008 2.341805152028776e-38
1.407568 -0.233175 0.274937 2.341805152028776e-38
1.403519 -0.239575 0.274296 2.341805152028776e-38
1.402342 -0.246452 0.274221 2.341805152028776e-38
1.402099 -0.253497 0.274333 2.341805152028776e-38
1.398924 -0.260008 0.273875 2.341805152028776e-38
1.395718 -0.266499 0.273421 2.341805152028776e-38
1.397293 -0.273928 0.273928 2.341805152028776e-38
1.399791 -0.281574 0.274621 2.341805152028776e-38
1.400325 -0.288855 0.274934 2.341805152028776e-38
1.396978 -0.295337 0.274489 2.341805152028776e-38
1.393602 -0.301793 0.274042 2.341805152028776e-38
1.393072 -0.308862 0.274158 2.341805152028776e-38
1.393458 -0.316169 0.274477 2.341805152028776e-38
1.389964 -0.322639 0.274070 2.341805152028776e-38
1.390262 -0.329991 0.274413 2.341805152028776e-38
1.396248 -0.338745 0.275885 2.341805152028776e-38
1.402181 -0.347569 0.277353 2.341805152028776e-38
1.736220 -0.448733 0.344174 2.341805152028776e-38
1.876390 -0.495006 0.372433 2.341805152028776e-38
1.940266 -0.522289 0.385615 2.341805152028776e-38
2.021908 -0.555169 0.402370 2.341805152028776e-38
2.084352 -0.583591 0.415349 2.341805152028776e-38
2.111619 -0.602686 0.421347 2.341805152028776e-38
2.144403 -0.623719 0.428468 2.341805152028776e-38
2.197713 -0.651313 0.439776 2.341805152028776e-38
2.228219 -0.672689 0.446575 2.341805152028776e-38
2.238850 -0.688335 0.449409 2.341805152028776e-38
2.254066 -0.705579 0.453177 2.341805152028776e-38
2.278521 -0.725983 0.458821 2.341805152028776e-38
2.297220 -0.744841 0.463326 2.341805152028776e-38
2.294297 -0.756923 0.463542 2.341805152028776e-38
2.292226 -0.769343 0.463955 2.341805152028776e-38
2.315183 -0.790335 0.469447 2.341805152028776e-38
2.342622 -0.813199 0.475872 2.341805152028776e-38
2.347660 -0.828528 0.477765 2.341805152028776e-38
1.771621 0.169715 0.335078 2.341805152028776e-38
1.802761 0.163792 0.340864 2.341805152028776e-38
1.687997 0.145033 0.319073 2.341805152028776e-38
1.587789 0.128593 0.300050 2.341805152028776e-38
1.520781 0.115672 0.287314 2.341805152028776e-38
1.507599 0.107246 0.284756 2.341805152028776e-38
1.496334 0.099081 0.282565 2.341805152028776e-38
1.489930 0.091330 0.281298 2.341805152028776e-38
1.479562 0.083423 0.279287 2.341805152028776e-38
1.475041 0.075923 0.278385 2.341805152028776e-38
1.465575 0.068241 0.276554 2.341805152028776e-38
1.461961 0.060898 0.275833 2.341805152028776e-38
1.448490 0.053232 0.273257 2.341805152028776e-38
1.444801 0.046012 0.272530 2.341805152028776e-38
1.436166 0.038697 0.270876 2.341805152028776e-38
1.435354 0.031640 0.270701 2.341805152028776e-38
1.432542 0.024559 0.270154 2.341805152028776e-38
1.434610 0.017567 0.270531 2.341805152028776e-38
1.432712 0.010526 0.270164 2.341805152028776e-38
1.433729 0.003511 0.270352 2.341805152028776e-38
1.432746 -0.003509 0.270166 2.341805152028776e-38
1.436643 -0.010555 0.270905 2.341805152028776e-38
1.431662 -0.017531 0.269975 2.341805152028776e-38
1.432542 -0.024559 0.270154 2.341805152028776e-38
1.431424 -0.031554 0.269960 2.341805152028776e-38
1.431254 -0.038564 0.269949 2.341805152028776e-38
1.430069 -0.045542 0.269751 2.341805152028776e-38
1.430813 -0.052582 0.269922 2.341805152028776e-38
1.427596 -0.059467 0.269349 2.341805152028776e-38
1.424346 -0.066321 0.268775 2.341805152028776e-38
1.421064 -0.073145 0.268198 2.341805152028776e-38
1.419712 -0.080049 0.267990 2.341805152028776e-38
1.418327 -0.086941 0.267779 2.341805152028776e-38
1.414948 -0.093692 0.267196 2.341805152028776e-38
1.416438 -0.100761 0.267537 2.341805152028776e-38
1.412994 -0.107474 0.266951 2.341805152028776e-38
1.409518 -0.114155 0.266362 2.341805152028776e-38
1.406990 -0.120889 0.265956 2.341805152028776e-38
1.406389 -0.127779 0.265919 2.341805152028776e-38
1.407710 -0.134853 0.266249 2.341805152028776e-38
1.408996 -0.141944 0.266577 2.341805152028776e-38
1.406337 -0.148637 0.266164 2.341805152028776e-38
1.405601 -0.155523 0.266118 2.341805152028776e-38
1.403855 -0.162293 0.265885 2.341805152028776e-38
1.405980 -0.169521 0.266389 2.341805152028776e-38
1.405143 -0.176405 0.266337 2.341805152028776e-38
1.403298 -0.183159 0.266098 2.341805152028776e-38
1.403368 -0.190162 0.266227 2.341805152028776e-38
1.402431 -0.197034 0.266168 2.341805152028776e-38
1.402433 -0.204042 0.266292 2.341805152028776e-38
1.403373 -0.211202 0.266599 2.341805152028776e-38
1.407189 -0.218829 0.267457 2.341805152028776e-38
1.405143 -0.225563 0.267206 2.341805152028776e-38
1.402095 -0.232122 0.266767 2.341805152028776e-38
1.400955 -0.238988 0.266696 2.341805152028776e-38
1.401717 -0.246187 0.266992 2.341805152028776e-38
1.400509 -0.253051 0.266916 2.341805152028776e-38
1.396368 -0.259370 0.266286 2.341805152028776e-38
1.395096 -0.266207 0.266207 2.341805152028776e-38
1.395718 -0.273421 0.266499 2.341805152028776e-38
1.395332 -0.280474 0.266623 2.341805152028776e-38
1.396835 -0.287928 0.267114 2.341805152028776e-38
1.393491 -0.294388 0.266681 2.341805152028776e-38
1.390118 -0.300823 0.266246 2.341805152028776e-38
1.388634 -0.307658 0.266176 2.341805152028776e-38
1.391911 -0.315574 0.267024 2.341805152028776e-38
1.390345 -0.322447 0.266972 2.341805152028776e-38
1.389689 -0.329571 0.267126 2.341805152028776e-38
1.393774 -0.337856 0.268195 2.341805152028776e-38
1.397811 -0.346192 0.269260 2.341805152028776e-38
1.727431 -0.446088 0.333484 2.341805152028776e-38
1.866828 -0.492006 0.360805 2.341805152028776e-38
1.931734 -0.519493 0.373841 2.341805152028776e-38
2.010629 -0.551548 0.389626 2.341805152028776e-38
2.083569 -0.582823 0.404301 2.341805152028776e-38
2.122213 -0.605145 0.412355 2.341805152028776e-38
2.135198 -0.620468 0.415444 2.341805152028776e-38
2.171645 -0.642920 0.423118 2.341805152028776e-38
2.199404 -0.663308 0.429199 2.341805152028776e-38
2.215736 -0.680537 0.433069 2.341805152028776e-38
2.229134 -0.697073 0.436379 2.341805152028776e-38
2.253661 -0.717347 0.441886 2.341805152028776e-38
2.273363 -0.736378 0.446465 2.341805152028776e-38
2.285453 -0.753187 0.449577 2.341805152028776e-38
2.289927 -0.767747 0.451271 2.341805152028776e-38
2.298034 -0.783647 0.453691 2.341805152028776e-38
2.331113 -0.808353 0.461061 2.341805152028776e-38
2.342675 -0.825908 0.464196 2.341805152028776e-38
1.942677 0.205199 0.357904 2.341805152028776e-38
1.868289 0.188100 0.344085 2.341805152028776e-38
1.771264 0.169578 0.326111 2.341805152028776e-38
1.753452 0.159216 0.322734 2.341805152028776e-38
1.643462 0.141121 0.302403 2.341805152028776e-38
1.542164 0.124822 0.283687 2.341805152028776e-38
1.488808 0.113172 0.273802 2.341805152028776e-38
1.471678 0.104627 0.270587 2.341805152028776e-38
1.463334 0.096838 0.268993 2.341805152028776e-38
1.457895 0.089313 0.267938 2.341805152028776e-38
1.448490 0.081622 0.266159 2.341805152028776e-38
1.447885 0.074480 0.266001 2.341805152028776e-38
1.439386 0.066981 0.264398 2.341805152028776e-38
1.433797 0.059689 0.263334 2.341805152028776e-38
1.428171 0.052453 0.262267 2.341805152028776e-38
1.426442 0.045400 0.261921 2.341805152028776e-38
1.420746 0.038258 0.260850 2.341805152028776e-38
1.421898 0.031325 0.261040 2.341805152028776e-38
1.420066 0.024331 0.260688 2.341805152028776e-38
1.422133 0.017404 0.261055 2.341805152028776e-38
1.420234 0.010428 0.260698 2.341805152028776e-38
1.421251 0.003478 0.260880 2.341805152028776e-38
1.424202 -0.003486 0.261422 2.341805152028776e-38
1.424168 -0.010457 0.261420 2.341805152028776e-38
1.422133 -0.017404 0.261055 2.341805152028776e-38
1.422032 -0.024365 0.261049 2.341805152028776e-38
1.421898 -0.031325 0.261040 2.341805152028776e-38
1.420746 -0.038258 0.260850 2.341805152028776e-38
1.420544 -0.045212 0.260837 2.341805152028776e-38
1.422274 -0.052237 0.261184 2.341805152028776e-38
1.419056 -0.059075 0.260626 2.341805152028776e-38
1.416788 -0.065929 0.260247 2.341805152028776e-38
1.415470 -0.072813 0.260046 2.341805152028776e-38
1.414119 -0.079685 0.259843 2.341805152028776e-38
1.413716 -0.086606 0.259819 2.341805152028776e-38
1.414262 -0.093590 0.259973 2.341805152028776e-38
1.411830 -0.100372 0.259584 2.341805152028776e-38
1.409365 -0.107133 0.259192 2.341805152028776e-38
1.406869 -0.113872 0.258799 2.341805152028776e-38
1.406301 -0.120757 0.258765 2.341805152028776e-38
1.405700 -0.127639 0.258728 2.341805152028776e-38
1.406045 -0.134612 0.258870 2.341805152028776e-38
1.403419 -0.141296 0.258469 2.341805152028776e-38
1.402718 -0.148164 0.258426 2.341805152028776e-38
1.402962 -0.155137 0.258562 2.341805152028776e-38
1.405126 -0.162342 0.259056 2.341805152028776e-38
1.405300 -0.169336 0.259187 2.341805152028776e-38
1.404464 -0.176213 0.259137 2.341805152028776e-38
1.400668 -0.182704 0.258544 2.341805152028776e-38
1.401716 -0.189823 0.258849 2.341805152028776e-38
1.399807 -0.196545 0.258612 2.341805152028776e-38
1.400786 -0.203678 0.258913 2.341805152028776e-38
1.401728 -0.210826 0.259212 2.341805152028776e-38
1.403607 -0.218138 0.259689 2.341805152028776e-38
1.402535 -0.225007 0.259623 2.341805152028776e-38
1.402399 -0.232031 0.259736 2.341805152028776e-38
1.400290 -0.238728 0.259487 2.341805152028776e-38
1.400086 -0.245750 0.259596 2.341805152028776e-38
1.399848 -0.252776 0.259702 2.341805152028776e-38
1.396674 -0.259267 0.259267 2.341805152028776e-38
1.395402 -0.266102 0.259190 2.341805152028776e-38
1.394097 -0.272930 0.259111 2.341805152028776e-38
1.395650 -0.280340 0.259574 2.341805152028776e-38
1.397157 -0.287791 0.260053 2.341805152028776e-38
1.391887 -0.293843 0.259273 2.341805152028776e-38
1.392361 -0.301098 0.259567 2.341805152028776e-38
1.390876 -0.307940 0.259500 2.341805152028776e-38
1.393196 -0.315646 0.260148 2.341805152028776e-38
1.388765 -0.321828 0.259538 2.341805152028776e-38
1.390993 -0.329601 0.260211 2.341805152028776e-38
1.392215 -0.337195 0.260718 2.341805152028776e-38
1.394350 -0.345048 0.261400 2.341805152028776e-38
1.698574 -0.438278 0.319134 2.341805152028776e-38
1.828634 -0.481537 0.343955 2.341805152028776e-38
1.885126 -0.506482 0.355011 2.341805152028776e-38
1.980296 -0.542721 0.373432 2.341805152028776e-38
2.047668 -0.572253 0.386657 2.341805152028776e-38
2.070320 -0.589808 0.391466 2.341805152028776e-38
2.073950 -0.602124 0.392689 2.341805152028776e-38
2.122794 -0.627889 0.402493 2.341805152028776e-38
2.164819 -0.652220 0.411063 2.341805152028776e-38
2.184048 -0.670136 0.415373 2.341805152028776e-38
2.199394 -0.687095 0.418961 2.341805152028776e-38
2.220250 -0.706022 0.423613 2.341805152028776e-38
2.256882 -0.730333 0.431299 2.341805152028776e-38
2.269960 -0.747347 0.434504 2.341805152028776e-38
2.265168 -0.758647 0.434340 2.341805152028776e-38
2.279854 -0.776638 0.437954 2.341805152028776e-38
2.291624 -0.793840 0.441022 2.341805152028776e-38
2.294925 -0.808248 0.442472 2.341805152028776e-38
2.020752 0.213319 0.362147 2.341805152028776e-38
1.886585 0.189830 0.337989 2.341805152028776e-38
1.780662 0.170377 0.318911 2.341805152028776e-38
1.729502 0.156948 0.309655 2.341805152028776e-38
1.604691 0.137711 0.287226 2.341805152028776e-38
1.508194 0.122001 0.269881 2.341805152028776e-38
1.453795 0.110445 0.260081 2.341805152028776e-38
1.441547 0.102425 0.257828 2.341805152028776e-38
1.435150 0.094917 0.256627 2.341805152028776e-38
1.433627 0.087774 0.256301 2.341805152028776e-38
1.431086 0.080594 0.255798 2.341805152028776e-38
1.429493 0.073491 0.255469 2.341805152028776e-38
1.424915 0.066268 0.254610 2.341805152028776e-38
1.425219 0.059297 0.254628 2.341805152028776e-38
1.423522 0.052252 0.254293 2.341805152028776e-38
1.423758 0.045288 0.254307 2.341805152028776e-38
1.421008 0.038243 0.253791 2.341805152028776e-38
1.420192 0.031269 0.253626 2.341805152028776e-38
1.418358 0.024287 0.253282 2.341805152028776e-38
1.418459 0.017348 0.253288 2.341805152028776e-38
1.417542 0.010402 0.253116 2.341805152028776e-38
1.420528 0.003475 0.253646 2.341805152028776e-38
1.422497 -0.003479 0.253997 2.341805152028776e-38
1.423448 -0.010445 0.254171 2.341805152028776e-38
1.422396 -0.017397 0.253991 2.341805152028776e-38
1.420327 -0.024321 0.253634 2.341805152028776e-38
1.421176 -0.031291 0.253801 2.341805152028776e-38
1.421008 -0.038243 0.253791 2.341805152028776e-38
1.419822 -0.045162 0.253604 2.341805152028776e-38
1.418603 -0.052071 0.253414 2.341805152028776e-38
1.417350 -0.058970 0.253223 2.341805152028776e-38
1.416065 -0.065857 0.253029 2.341805152028776e-38
1.413763 -0.072682 0.252658 2.341805152028776e-38
1.414377 -0.079653 0.252812 2.341805152028776e-38
1.414957 -0.086631 0.252964 2.341805152028776e-38
1.412557 -0.093422 0.252587 2.341805152028776e-38
1.411106 -0.100262 0.252383 2.341805152028776e-38
1.410604 -0.107164 0.252354 2.341805152028776e-38
1.408106 -0.113905 0.251971 2.341805152028776e-38
1.406557 -0.120708 0.251762 2.341805152028776e-38
1.404975 -0.127498 0.251551 2.341805152028776e-38
1.405321 -0.134464 0.251689 2.341805152028776e-38
1.405633 -0.141436 0.251825 2.341805152028776e-38
1.404932 -0.148311 0.251783 2.341805152028776e-38
1.403219 -0.155074 0.251565 2.341805152028776e-38
1.405386 -0.162276 0.252045 2.341805152028776e-38
1.404583 -0.169149 0.251998 2.341805152028776e-38
1.401794 -0.175774 0.251598 2.341805152028776e-38
1.400927 -0.182630 0.251547 2.341805152028776e-38
1.403929 -0.190010 0.252195 2.341805152028776e-38
1.402017 -0.196739 0.251964 2.341805152028776e-38
1.401048 -0.203596 0.251907 2.341805152028776e-38
1.402967 -0.210887 0.252373 2.341805152028776e-38
1.402902 -0.217900 0.252487 2.341805152028776e-38
1.402803 -0.224916 0.252598 2.341805152028776e-38
1.403640 -0.232098 0.252883 2.341805152028776e-38
1.400559 -0.238632 0.252466 2.341805152028776e-38
1.400357 -0.245652 0.252571 2.341805152028776e-38
1.399151 -0.252500 0.252500 2.341805152028776e-38
1.396944 -0.259163 0.252252 2.341805152028776e-38
1.396640 -0.266179 0.252352 2.341805152028776e-38
1.398234 -0.273576 0.252798 2.341805152028776e-38
1.398824 -0.280802 0.253068 2.341805152028776e-38
1.397444 -0.287653 0.252996 2.341805152028776e-38
1.394098 -0.294108 0.252587 2.341805152028776e-38
1.392647 -0.300955 0.252525 2.341805152028776e-38
1.393086 -0.308220 0.252810 2.341805152028776e-38
1.393487 -0.315498 0.253092 2.341805152028776e-38
1.389054 -0.321677 0.252499 2.341805152028776e-38
1.394177 -0.330090 0.253648 2.341805152028776e-38
1.393487 -0.337226 0.253789 2.341805152028776e-38
1.391802 -0.344137 0.253758 2.341805152028776e-38
1.668666 -0.430215 0.304910 2.341805152028776e-38
1.784602 -0.469568 0.326462 2.341805152028776e-38
1.841223 -0.494257 0.337203 2.341805152028776e-38
1.951752 -0.534409 0.357907 2.341805152028776e-38
2.013541 -0.562206 0.369739 2.341805152028776e-38
2.056156 -0.585249 0.378081 2.341805152028776e-38
2.074002 -0.601605 0.381888 2.341805152028776e-38
2.128563 -0.629042 0.392479 2.341805152028776e-38
2.162156 -0.650802 0.399232 2.341805152028776e-38
2.185191 -0.669831 0.404113 2.341805152028776e-38
2.199617 -0.686501 0.407435 2.341805152028776e-38
2.241145 -0.711985 0.415799 2.341805152028776e-38
2.259983 -0.730644 0.419976 2.341805152028776e-38
2.267463 -0.745825 0.422056 2.341805152028776e-38
2.270178 -0.759543 0.423257 2.341805152028776e-38
2.290471 -0.779459 0.427824 2.341805152028776e-38
2.298520 -0.795426 0.430119 2.341805152028776e-38
2.304607 -0.810847 0.432057 2.341805152028776e-38
2.069414 0.228566 0.360627 2.341805152028776e-38
2.010723 0.212139 0.350276 2.341805152028776e-38
1.905846 0.191658 0.331895 2.341805152028776e-38
1.790031 0.171176 0.311627 2.341805152028776e-38
1.701542 0.154323 0.296133 2.341805152028776e-38
1.580538 0.135561 0.274995 2.341805152028776e-38
1.484930 0.120050 0.258290 2.341805152028776e-38
1.441283 0.109432 0.250635 2.341805152028776e-38
1.434916 0.101895 0.249468 2.341805152028776e-38
1.429493 0.094489 0.248470 2.341805152028776e-38
1.428950 0.087438 0.248324 2.341805152028776e-38
1.423454 0.080118 0.247322 2.341805152028776e-38
1.424809 0.073208 0.247514 2.341805152028776e-38
1.422194 0.066104 0.247021 2.341805152028776e-38
1.422497 0.059150 0.247038 2.341805152028776e-38
1.418828 0.052050 0.246370 2.341805152028776e-38
1.420048 0.045144 0.246554 2.341805152028776e-38
1.418280 0.038147 0.246224 2.341805152028776e-38
1.418448 0.031213 0.246234 2.341805152028776e-38
1.417597 0.024260 0.246070 2.341805152028776e-38
1.418683 0.017341 0.246247 2.341805152028776e-38
1.417765 0.010398 0.246080 2.341805152028776e-38
1.418784 0.003468 0.246253 2.341805152028776e-38
1.418784 -0.003468 0.246253 2.341805152028776e-38
1.421706 -0.010427 0.246764 2.341805152028776e-38
1.419668 -0.017353 0.246418 2.341805152028776e-38
1.420553 -0.024311 0.246583 2.341805152028776e-38
1.419433 -0.031234 0.246405 2.341805152028776e-38
1.419265 -0.038174 0.246395 2.341805152028776e-38
1.415124 -0.044987 0.245699 2.341805152028776e-38
1.416859 -0.051978 0.246028 2.341805152028776e-38
1.415606 -0.058863 0.245842 2.341805152028776e-38
1.414320 -0.065738 0.245653 2.341805152028776e-38
1.412017 -0.072551 0.245292 2.341805152028776e-38
1.413617 -0.079565 0.245613 2.341805152028776e-38
1.413215 -0.086475 0.245590 2.341805152028776e-38
1.412780 -0.093384 0.245565 2.341805152028776e-38
1.409362 -0.100081 0.245025 2.341805152028776e-38
1.409844 -0.107045 0.245167 2.341805152028776e-38
1.407345 -0.113778 0.244795 2.341805152028776e-38
1.407759 -0.120742 0.244933 2.341805152028776e-38
1.404214 -0.127356 0.244386 2.341805152028776e-38
1.404562 -0.134314 0.244521 2.341805152028776e-38
1.404875 -0.141279 0.244653 2.341805152028776e-38
1.403195 -0.148042 0.244442 2.341805152028776e-38
1.402461 -0.154901 0.244400 2.341805152028776e-38
1.404631 -0.162096 0.244868 2.341805152028776e-38
1.402852 -0.168844 0.244651 2.341805152028776e-38
1.402996 -0.175824 0.244774 2.341805152028776e-38
1.404082 -0.182936 0.245065 2.341805152028776e-38
1.402203 -0.189667 0.244843 2.341805152028776e-38
1.403220 -0.196795 0.245130 2.341805152028776e-38
1.403226 -0.203795 0.245245 2.341805152028776e-38
1.401249 -0.210507 0.245017 2.341805152028776e-38
1.401187 -0.217508 0.245128 2.341805152028776e-38
1.401090 -0.224512 0.245236 2.341805152028776e-38
1.401931 -0.231682 0.245513 2.341805152028776e-38
1.400793 -0.238534 0.245448 2.341805152028776e-38
1.398651 -0.245211 0.245211 2.341805152028776e-38
1.397447 -0.252047 0.245141 2.341805152028776e-38
1.398149 -0.259236 0.245410 2.341805152028776e-38
1.395909 -0.265885 0.245167 2.341805152028776e-38
1.398474 -0.273465 0.245772 2.341805152028776e-38
1.397133 -0.280300 0.245695 2.341805152028776e-38
1.397691 -0.287525 0.245956 2.341805152028776e-38
1.392420 -0.293558 0.245207 2.341805152028776e-38
1.393862 -0.301016 0.245657 2.341805152028776e-38
1.394302 -0.308284 0.245935 2.341805152028776e-38
1.394704 -0.315565 0.246210 2.341805152028776e-38
1.391229 -0.321968 0.245804 2.341805152028776e-38
1.392519 -0.329481 0.246244 2.341805152028776e-38
1.392809 -0.336791 0.246517 2.341805152028776e-38
1.388256 -0.342987 0.245980 2.341805152028776e-38
1.470634 -0.371090 0.260865 2.341805152028776e-38
1.655837 -0.426573 0.294046 2.341805152028776e-38
1.775710 -0.466865 0.315690 2.341805152028776e-38
1.840012 -0.493550 0.327496 2.341805152028776e-38
1.945917 -0.532335 0.346750 2.341805152028776e-38
2.026761 -0.565396 0.361650 2.341805152028776e-38
2.066558 -0.587694 0.369259 2.341805152028776e-38
2.086303 -0.604648 0.373304 2.341805152028776e-38
2.139957 -0.631866 0.383440 2.341805152028776e-38
2.182063 -0.656235 0.391535 2.341805152028776e-38
2.201353 -0.674140 0.395570 2.341805152028776e-38
2.232709 -0.696170 0.401854 2.341805152028776e-38
2.262958 -0.718242 0.407961 2.341805152028776e-38
2.271468 -0.733677 0.410166 2.341805152028776e-38
2.275198 -0.747683 0.411515 2.341805152028776e-38
2.284452 -0.763624 0.413873 2.341805152028776e-38
2.306643 -0.784179 0.418622 2.341805152028776e-38
2.323062 -0.803125 0.422384 2.341805152028776e-38
2.328189 -0.818344 0.424105 2.341805152028776e-38
1.964295 0.216835 0.332480 2.341805152028776e-38
1.886866 0.198961 0.319263 2.341805152028776e-38
1.881919 0.189146 0.318319 2.341805152028776e-38
1.781702 0.170284 0.301272 2.341805152028776e-38
1.678403 0.152139 0.283719 2.341805152028776e-38
1.568096 0.134419 0.264997 2.341805152028776e-38
1.481249 0.119686 0.250253 2.341805152028776e-38
1.441496 0.109387 0.243475 2.341805152028776e-38
1.435123 0.101853 0.242341 2.341805152028776e-38
1.427727 0.094319 0.241039 2.341805152028776e-38
1.425214 0.087161 0.240565 2.341805152028776e-38
1.424635 0.080140 0.240421 2.341805152028776e-38
1.425006 0.073178 0.240442 2.341805152028776e-38
1.425343 0.066214 0.240461 2.341805152028776e-38
1.422691 0.059125 0.239979 2.341805152028776e-38
1.420004 0.052064 0.239495 2.341805152028776e-38
1.420240 0.045125 0.239509 2.341805152028776e-38
1.418470 0.038131 0.239187 2.341805152028776e-38
1.417652 0.031178 0.239031 2.341805152028776e-38
1.418772 0.024267 0.239204 2.341805152028776e-38
1.417886 0.017322 0.239044 2.341805152028776e-38
1.418940 0.010401 0.239214 2.341805152028776e-38
1.419959 0.003469 0.239382 2.341805152028776e-38
1.421932 -0.003474 0.239714 2.341805152028776e-38
1.422884 -0.010430 0.239879 2.341805152028776e-38
1.419859 -0.017346 0.239376 2.341805152028776e-38
1.420744 -0.024301 0.239537 2.341805152028776e-38
1.419623 -0.031221 0.239363 2.341805152028776e-38
1.417484 -0.038105 0.239021 2.341805152028776e-38
1.416297 -0.045000 0.238844 2.341805152028776e-38
1.416063 -0.051920 0.238831 2.341805152028776e-38
1.414809 -0.058798 0.238649 2.341805152028776e-38
1.412538 -0.065619 0.238300 2.341805152028776e-38
1.413188 -0.072571 0.238448 2.341805152028776e-38
1.414789 -0.079587 0.238760 2.341805152028776e-38
1.413403 -0.086439 0.238571 2.341805152028776e-38
1.411984 -0.093279 0.238381 2.341805152028776e-38
1.409548 -0.100038 0.238022 2.341805152028776e-38
1.410031 -0.107000 0.238160 2.341805152028776e-38
1.408513 -0.113809 0.237965 2.341805152028776e-38
1.406963 -0.120606 0.237767 2.341805152028776e-38
1.404398 -0.127302 0.237401 2.341805152028776e-38
1.404747 -0.134257 0.237532 2.341805152028776e-38
1.406043 -0.141317 0.237827 2.341805152028776e-38
1.406323 -0.148290 0.237954 2.341805152028776e-38
1.407549 -0.155377 0.238244 2.341805152028776e-38
1.406780 -0.162253 0.238201 2.341805152028776e-38
1.404999 -0.169008 0.237991 2.341805152028776e-38
1.403185 -0.175749 0.237778 2.341805152028776e-38
1.404274 -0.182859 0.238062 2.341805152028776e-38
1.407281 -0.190248 0.238674 2.341805152028776e-38
1.405367 -0.196985 0.238456 2.341805152028776e-38
1.404397 -0.203851 0.238402 2.341805152028776e-38
1.403393 -0.210712 0.238346 2.341805152028776e-38
1.404306 -0.217870 0.238619 2.341805152028776e-38
1.404208 -0.224886 0.238725 2.341805152028776e-38
1.402130 -0.231585 0.238498 2.341805152028776e-38
1.399048 -0.238103 0.238103 2.341805152028776e-38
1.397879 -0.244937 0.238038 2.341805152028776e-38
1.399588 -0.252291 0.238467 2.341805152028776e-38
1.398350 -0.259128 0.238397 2.341805152028776e-38
1.399017 -0.266327 0.238657 2.341805152028776e-38
1.399647 -0.273540 0.238914 2.341805152028776e-38
1.400240 -0.280765 0.239170 2.341805152028776e-38
1.397899 -0.287406 0.238928 2.341805152028776e-38
1.394561 -0.293828 0.238519 2.341805152028776e-38
1.395043 -0.301076 0.238784 2.341805152028776e-38
1.394521 -0.308133 0.238890 2.341805152028776e-38
1.395888 -0.315629 0.239323 2.341805152028776e-38
1.392411 -0.322035 0.238929 2.341805152028776e-38
1.394663 -0.329777 0.239522 2.341805152028776e-38
1.391121 -0.336159 0.239124 2.341805152028776e-38
1.386583 -0.342306 0.238577 2.341805152028776e-38
1.469036 -0.370400 0.253045 2.341805152028776e-38
1.652495 -0.425386 0.284967 2.341805152028776e-38
1.775341 -0.466413 0.306500 2.341805152028776e-38
1.848278 -0.495394 0.319459 2.341805152028776e-38
1.948561 -0.532654 0.337184 2.341805152028776e-38
2.019998 -0.563021 0.349986 2.341805152028776e-38
2.046562 -0.581508 0.355080 2.341805152028776e-38
2.072990 -0.600279 0.360167 2.341805152028776e-38
2.118202 -0.624916 0.368540 2.341805152028776e-38
2.172664 -0.652864 0.378551 2.341805152028776e-38
2.191999 -0.670699 0.382465 2.341805152028776e-38
2.224365 -0.692926 0.388714 2.341805152028776e-38
2.243378 -0.711375 0.392679 2.341805152028776e-38
2.254750 -0.727617 0.395320 2.341805152028776e-38
2.264141 -0.743382 0.397623 2.341805152028776e-38
2.273430 -0.759265 0.399918 2.341805152028776e-38
2.289152 -0.777486 0.403358 2.341805152028776e-38
2.310292 -0.797939 0.407835 2.341805152028776e-38
2.313593 -0.812436 0.409183 2.341805152028776e-38
1.917814 0.211589 0.315033 2.341805152028776e-38
1.913908 0.201703 0.314282 2.341805152028776e-38
1.869690 0.187816 0.306918 2.341805152028776e-38
1.784122 0.170423 0.292779 2.341805152028776e-38
1.703346 0.154317 0.279439 2.341805152028776e-38
1.584110 0.135718 0.259804 2.341805152028776e-38
1.489329 0.120274 0.244193 2.341805152028776e-38
1.442658 0.109416 0.236481 2.341805152028776e-38
1.432341 0.101601 0.234734 2.341805152028776e-38
1.423954 0.094019 0.233307 2.341805152028776e-38
1.422422 0.086943 0.233009 2.341805152028776e-38
1.423811 0.080051 0.233192 2.341805152028776e-38
1.426153 0.073197 0.233535 2.341805152028776e-38
1.423533 0.066094 0.233069 2.341805152028776e-38
1.421864 0.059059 0.232762 2.341805152028776e-38
1.418188 0.051970 0.232131 2.341805152028776e-38
1.418423 0.045043 0.232144 2.341805152028776e-38
1.417638 0.038088 0.231993 2.341805152028776e-38
1.416819 0.031143 0.231841 2.341805152028776e-38
1.414979 0.024189 0.231525 2.341805152028776e-38
1.417053 0.017303 0.231854 2.341805152028776e-38
1.418107 0.010389 0.232019 2.341805152028776e-38
1.420115 0.003468 0.232343 2.341805152028776e-38
1.422088 -0.003473 0.232666 2.341805152028776e-38
1.423042 -0.010425 0.232826 2.341805152028776e-38
1.421001 -0.017351 0.232499 2.341805152028776e-38
1.420900 -0.024290 0.232494 2.341805152028776e-38
1.420766 -0.031230 0.232487 2.341805152028776e-38
1.417638 -0.038088 0.231993 2.341805152028776e-38
1.416450 -0.044980 0.231821 2.341805152028776e-38
1.415230 -0.051861 0.231647 2.341805152028776e-38
1.414962 -0.058772 0.231632 2.341805152028776e-38
1.413675 -0.065636 0.231455 2.341805152028776e-38
1.411369 -0.072439 0.231114 2.341805152028776e-38
1.412973 -0.079442 0.231417 2.341805152028776e-38
1.412571 -0.086341 0.231395 2.341805152028776e-38
1.413121 -0.093304 0.231533 2.341805152028776e-38
1.409700 -0.099995 0.231023 2.341805152028776e-38
1.410183 -0.106953 0.231158 2.341805152028776e-38
1.409649 -0.113839 0.231129 2.341805152028776e-38
1.411047 -0.120891 0.231420 2.341805152028776e-38
1.408480 -0.127603 0.231065 2.341805152028776e-38
1.408828 -0.134574 0.231192 2.341805152028776e-38
1.410124 -0.141651 0.231478 2.341805152028776e-38
1.410403 -0.148640 0.231601 2.341805152028776e-38
1.407705 -0.155310 0.231239 2.341805152028776e-38
1.408897 -0.162409 0.231520 2.341805152028776e-38
1.404175 -0.168817 0.230832 2.341805152028776e-38
1.405299 -0.175919 0.231109 2.341805152028776e-38
1.404431 -0.182780 0.231062 2.341805152028776e-38
1.406464 -0.190034 0.231496 2.341805152028776e-38
1.404550 -0.196764 0.231284 2.341805152028776e-38
1.405534 -0.203905 0.231553 2.341805152028776e-38
1.404531 -0.210768 0.231499 2.341805152028776e-38
1.406420 -0.218079 0.231925 2.341805152028776e-38
1.404373 -0.224790 0.231706 2.341805152028776e-38
1.400347 -0.231164 0.231164 2.341805152028776e-38
1.400184 -0.238167 0.231263 2.341805152028776e-38
1.399987 -0.245173 0.231360 2.341805152028776e-38
1.399755 -0.252183 0.231456 2.341805152028776e-38
1.398517 -0.259017 0.231389 2.341805152028776e-38
1.398216 -0.266029 0.231480 2.341805152028776e-38
1.399818 -0.273423 0.231891 2.341805152028776e-38
1.398478 -0.280258 0.231818 2.341805152028776e-38
1.400005 -0.287681 0.232225 2.341805152028776e-38
1.396665 -0.294109 0.231827 2.341805152028776e-38
1.397154 -0.301344 0.232070 2.341805152028776e-38
1.394705 -0.307980 0.231850 2.341805152028776e-38
1.396075 -0.315473 0.232271 2.341805152028776e-38
1.392597 -0.321877 0.231890 2.341805152028776e-38
1.392932 -0.329162 0.232146 2.341805152028776e-38
1.392270 -0.336228 0.232240 2.341805152028776e-38
1.389656 -0.342823 0.232011 2.341805152028776e-38
1.461655 -0.368260 0.244291 2.341805152028776e-38
1.630940 -0.419523 0.272893 2.341805152028776e-38
1.744373 -0.457937 0.292208 2.341805152028776e-38
1.807880 -0.484209 0.303196 2.341805152028776e-38
1.901640 -0.519447 0.319293 2.341805152028776e-38
1.978928 -0.551128 0.332663 2.341805152028776e-38
2.016030 -0.572352 0.339359 2.341805152028776e-38
2.032099 -0.587950 0.342545 2.341805152028776e-38
2.102980 -0.619915 0.354994 2.341805152028776e-38
2.161299 -0.648920 0.365358 2.341805152028776e-38
2.176897 -0.665542 0.368523 2.341805152028776e-38
2.179185 -0.678237 0.369446 2.341805152028776e-38
2.214291 -0.701524 0.376017 2.341805152028776e-38
2.252974 -0.726400 0.383219 2.341805152028776e-38
2.260506 -0.741538 0.385140 2.341805152028776e-38
2.250151 -0.750839 0.384017 2.341805152028776e-38
2.274348 -0.771795 0.388799 2.341805152028776e-38
2.310498 -0.797257 0.395676 2.341805152028776e-38
2.313809 -0.811754 0.396989 2.341805152028776e-38
1.931097 0.212943 0.307585 2.341805152028776e-38
1.928176 0.203100 0.307012 2.341805152028776e-38
1.889827 0.189739 0.300806 2.341805152028776e-38
1.753073 0.167370 0.278950 2.341805152028776e-38
1.692875 0.153288 0.269290 2.341805152028776e-38
1.573540 0.134742 0.250235 2.341805152028776e-38
1.485571 0.119908 0.236182 2.341805152028776e-38
1.444770 0.109519 0.229637 2.341805152028776e-38
1.432476 0.101558 0.227629 2.341805152028776e-38
1.425066 0.094044 0.226402 2.341805152028776e-38
1.424519 0.087026 0.226268 2.341805152028776e-38
1.425910 0.080127 0.226446 2.341805152028776e-38
1.426280 0.073166 0.226465 2.341805152028776e-38
1.425631 0.066157 0.226326 2.341805152028776e-38
1.421988 0.059033 0.225716 2.341805152028776e-38
1.421269 0.052055 0.225573 2.341805152028776e-38
1.419530 0.045054 0.225272 2.341805152028776e-38
1.417757 0.038072 0.224970 2.341805152028776e-38
1.417925 0.031151 0.224978 2.341805152028776e-38
1.417071 0.024212 0.224829 2.341805152028776e-38
1.419147 0.017319 0.225147 2.341805152028776e-38
1.421189 0.010406 0.225464 2.341805152028776e-38
1.422210 0.003471 0.225623 2.341805152028776e-38
1.424186 -0.003476 0.225936 2.341805152028776e-38
1.425140 -0.010435 0.226091 2.341805152028776e-38
1.423097 -0.017367 0.225774 2.341805152028776e-38
1.422996 -0.024314 0.225769 2.341805152028776e-38
1.421874 -0.031238 0.225605 2.341805152028776e-38
1.422694 -0.038204 0.225753 2.341805152028776e-38
1.420518 -0.045086 0.225429 2.341805152028776e-38
1.420282 -0.052019 0.225417 2.341805152028776e-38
1.418040 -0.058870 0.225089 2.341805152028776e-38
1.415765 -0.065699 0.224760 2.341805152028776e-38
1.414444 -0.072559 0.224586 2.341805152028776e-38
1.416048 -0.079573 0.224880 2.341805152028776e-38
1.416632 -0.086544 0.225015 2.341805152028776e-38
1.417182 -0.093523 0.225149 2.341805152028776e-38
1.415727 -0.100370 0.224968 2.341805152028776e-38
1.415225 -0.107280 0.224941 2.341805152028776e-38
1.416658 -0.114346 0.225226 2.341805152028776e-38
1.414119 -0.121091 0.224883 2.341805152028776e-38
1.411549 -0.127814 0.224539 2.341805152028776e-38
1.411897 -0.134797 0.224662 2.341805152028776e-38
1.412210 -0.141786 0.224783 2.341805152028776e-38
1.413472 -0.148885 0.225059 2.341805152028776e-38
1.412735 -0.155783 0.225020 2.341805152028776e-38
1.410982 -0.162564 0.224823 2.341805152028776e-38
1.409198 -0.169332 0.224625 2.341805152028776e-38
1.406402 -0.175964 0.224268 2.341805152028776e-38
1.407492 -0.183082 0.224535 2.341805152028776e-38
1.407568 -0.190083 0.224644 2.341805152028776e-38
1.406631 -0.196952 0.224594 2.341805152028776e-38
1.406639 -0.203958 0.224699 2.341805152028776e-38
1.406612 -0.210969 0.224803 2.341805152028776e-38
1.407526 -0.218135 0.225060 2.341805152028776e-38
1.405478 -0.224848 0.224848 2.341805152028776e-38
1.405347 -0.231867 0.224946 2.341805152028776e-38
1.404208 -0.238725 0.224886 2.341805152028776e-38
1.403036 -0.245577 0.224824 2.341805152028776e-38
1.402803 -0.252598 0.224916 2.341805152028776e-38
1.401563 -0.259444 0.224851 2.341805152028776e-38
1.403202 -0.266836 0.225252 2.341805152028776e-38
1.401894 -0.273684 0.225183 2.341805152028776e-38
1.402489 -0.280912 0.225423 2.341805152028776e-38
1.403048 -0.288153 0.225662 2.341805152028776e-38
1.398737 -0.294389 0.225121 2.341805152028776e-38
1.397295 -0.301214 0.225045 2.341805152028776e-38
1.396784 -0.308249 0.225126 2.341805152028776e-38
1.397191 -0.315532 0.225380 2.341805152028776e-38
1.393711 -0.321938 0.225010 2.341805152028776e-38
1.395970 -0.329680 0.225571 2.341805152028776e-38
1.396267 -0.336989 0.225818 2.341805152028776e-38
1.389811 -0.342655 0.224975 2.341805152028776e-38
1.455181 -0.366359 0.235775 2.341805152028776e-38
1.602610 -0.411934 0.259958 2.341805152028776e-38
1.703752 -0.446949 0.276683 2.341805152028776e-38
1.753053 -0.469187 0.285020 2.341805152028776e-38
1.876511 -0.512218 0.305451 2.341805152028776e-38
1.961514 -0.545892 0.319666 2.341805152028776e-38
2.010104 -0.570201 0.327992 2.341805152028776e-38
2.034741 -0.588237 0.332482 2.341805152028776e-38
2.110420 -0.621609 0.345339 2.341805152028776e-38
2.149856 -0.644972 0.352296 2.341805152028776e-38
2.168325 -0.662400 0.355835 2.341805152028776e-38
2.165919 -0.673578 0.355956 2.341805152028776e-38
2.219942 -0.702699 0.365404 2.341805152028776e-38
2.229505 -0.718212 0.367589 2.341805152028776e-38
2.242721 -0.735076 0.370387 2.341805152028776e-38
2.241766 -0.747408 0.370852 2.341805152028776e-38
2.285651 -0.774981 0.378750 2.341805152028776e-38
2.289152 -0.789178 0.379975 2.341805152028776e-38
2.288788 -0.802245 0.380627 2.341805152028776e-38
1.991513 0.219494 0.307291 2.341805152028776e-38
1.970926 0.207498 0.304008 2.341805152028776e-38
1.894211 0.190083 0.292078 2.341805152028776e-38
1.770146 0.168914 0.272861 2.341805152028776e-38
1.673486 0.151456 0.257884 2.341805152028776e-38
1.568824 0.134270 0.241686 2.341805152028776e-38
1.482756 0.119620 0.228366 2.341805152028776e-38
1.441923 0.109248 0.222020 2.341805152028776e-38
1.434547 0.101653 0.220832 2.341805152028776e-38
1.428118 0.094197 0.219794 2.341805152028776e-38
1.425598 0.087048 0.219361 2.341805152028776e-38
1.426002 0.080092 0.219381 2.341805152028776e-38
1.426373 0.073133 0.219400 2.341805152028776e-38
1.424736 0.066082 0.219114 2.341805152028776e-38
1.423064 0.059048 0.218826 2.341805152028776e-38
1.421357 0.052032 0.218535 2.341805152028776e-38
1.419616 0.045034 0.218244 2.341805152028776e-38
1.420806 0.038134 0.218406 2.341805152028776e-38
1.419985 0.031180 0.218262 2.341805152028776e-38
1.418143 0.024218 0.217966 2.341805152028776e-38
1.419232 0.017311 0.218123 2.341805152028776e-38
1.419299 0.010387 0.218126 2.341805152028776e-38
1.422297 0.003470 0.218583 2.341805152028776e-38
1.424274 -0.003474 0.218887 2.341805152028776e-38
1.423252 -0.010416 0.218734 2.341805152028776e-38
1.423185 -0.017360 0.218730 2.341805152028776e-38
1.425061 -0.024337 0.219029 2.341805152028776e-38
1.423938 -0.031267 0.218870 2.341805152028776e-38
1.423770 -0.038214 0.218861 2.341805152028776e-38
1.420604 -0.045066 0.218396 2.341805152028776e-38
1.419382 -0.051960 0.218232 2.341805152028776e-38
1.418126 -0.058843 0.218066 2.341805152028776e-38
1.418811 -0.065807 0.218203 2.341805152028776e-38
1.417489 -0.072678 0.218034 2.341805152028776e-38
1.417120 -0.079593 0.218015 2.341805152028776e-38
1.415732 -0.086446 0.217843 2.341805152028776e-38
1.417269 -0.093482 0.218124 2.341805152028776e-38
1.415814 -0.100326 0.217949 2.341805152028776e-38
1.419254 -0.107531 0.218530 2.341805152028776e-38
1.415761 -0.114215 0.218047 2.341805152028776e-38
1.415191 -0.121121 0.218018 2.341805152028776e-38
1.412619 -0.127846 0.217684 2.341805152028776e-38
1.412968 -0.134831 0.217804 2.341805152028776e-38
1.415249 -0.142019 0.218224 2.341805152028776e-38
1.414545 -0.148922 0.218189 2.341805152028776e-38
1.411842 -0.155606 0.217848 2.341805152028776e-38
1.412054 -0.162605 0.217960 2.341805152028776e-38
1.410269 -0.169375 0.217768 2.341805152028776e-38
1.407471 -0.176008 0.217422 2.341805152028776e-38
1.405622 -0.182746 0.217226 2.341805152028776e-38
1.405700 -0.189734 0.217332 2.341805152028776e-38
1.404765 -0.196590 0.217284 2.341805152028776e-38
1.406732 -0.203867 0.217689 2.341805152028776e-38
1.406706 -0.210875 0.217789 2.341805152028776e-38
1.405668 -0.217736 0.217736 2.341805152028776e-38
1.408502 -0.225216 0.218287 2.341805152028776e-38
1.408370 -0.232247 0.218381 2.341805152028776e-38
1.405280 -0.238785 0.218021 2.341805152028776e-38
1.404108 -0.245639 0.217961 2.341805152028776e-38
1.403875 -0.252662 0.218051 2.341805152028776e-38
1.403607 -0.259689 0.218138 2.341805152028776e-38
1.403305 -0.266719 0.218224 2.341805152028776e-38
1.402967 -0.273752 0.218309 2.341805152028776e-38
1.402595 -0.280789 0.218391 2.341805152028776e-38
1.402187 -0.287828 0.218472 2.341805152028776e-38
1.400777 -0.294666 0.218400 2.341805152028776e-38
1.401267 -0.301914 0.218628 2.341805152028776e-38
1.398824 -0.308535 0.218402 2.341805152028776e-38
1.397309 -0.315371 0.218334 2.341805152028776e-38
1.395755 -0.322219 0.218277 2.341805152028776e-38
1.398015 -0.329968 0.218821 2.341805152028776e-38
1.394468 -0.336357 0.218459 2.341805152028776e-38
1.388012 -0.342011 0.217643 2.341805152028776e-38
1.445769 -0.363772 0.226907 2.341805152028776e-38
1.580894 -0.406063 0.248368 2.341805152028776e-38
1.679279 -0.440218 0.264131 2.341805152028776e-38
1.759217 -0.470507 0.277027 2.341805152028776e-38
1.899935 -0.518252 0.299540 2.341805152028776e-38
1.989740 -0.553366 0.314073 2.341805152028776e-38
2.029781 -0.575365 0.320779 2.341805152028776e-38
2.030684 -0.586599 0.321354 2.341805152028776e-38
2.088415 -0.614647 0.330964 2.341805152028776e-38
2.148755 -0.644143 0.341017 2.341805152028776e-38
2.167246 -0.661563 0.344450 2.341805152028776e-38
2.178062 -0.676840 0.346674 2.341805152028776e-38
2.218001 -0.701488 0.353550 2.341805152028776e-38
2.239815 -0.720926 0.357625 2.341805152028776e-38
2.245515 -0.735378 0.359138 2.341805152028776e-38
2.240809 -0.746473 0.358991 2.341805152028776e-38
2.268820 -0.768647 0.364096 2.341805152028776e-38
2.284512 -0.786942 0.367240 2.341805152028776e-38
2.283255 -0.799595 0.367697 2.341805152028776e-38
2.002809 0.220630 0.299076 2.341805152028776e-38
1.959586 0.206202 0.292520 2.341805152028776e-38
1.901508 0.190721 0.283756 2.341805152028776e-38
1.799017 0.171585 0.268376 2.341805152028776e-38
1.687522 0.152651 0.251668 2.341805152028776e-38
1.566033 0.133966 0.233483 2.341805152028776e-38
1.477928 0.119172 0.220288 2.341805152028776e-38
1.441994 0.109200 0.214877 2.341805152028776e-38
1.435599 0.101678 0.213874 2.341805152028776e-38
1.430152 0.094285 0.213015 2.341805152028776e-38
1.428617 0.087190 0.212743 2.341805152028776e-38
1.428035 0.080167 0.212616 2.341805152028776e-38
1.428406 0.073202 0.212634 2.341805152028776e-38
1.427756 0.066190 0.212503 2.341805152028776e-38
1.426083 0.059144 0.212224 2.341805152028776e-38
1.425364 0.052153 0.212090 2.341805152028776e-38
1.424611 0.045171 0.211955 2.341805152028776e-38
1.421846 0.038144 0.211524 2.341805152028776e-38
1.422014 0.031210 0.211532 2.341805152028776e-38
1.422148 0.024275 0.211539 2.341805152028776e-38
1.423238 0.017352 0.211691 2.341805152028776e-38
1.422316 0.010404 0.211547 2.341805152028776e-38
1.423339 0.003470 0.211696 2.341805152028776e-38
1.424328 -0.003473 0.211843 2.341805152028776e-38
1.427262 -0.010440 0.212282 2.341805152028776e-38
1.427194 -0.017400 0.212279 2.341805152028776e-38
1.426104 -0.024342 0.212127 2.341805152028776e-38
1.427947 -0.031340 0.212415 2.341805152028776e-38
1.426790 -0.038276 0.212259 2.341805152028776e-38
1.423622 -0.045139 0.211808 2.341805152028776e-38
1.424375 -0.052117 0.211943 2.341805152028776e-38
1.423118 -0.059021 0.211783 2.341805152028776e-38
1.421827 -0.065915 0.211621 2.341805152028776e-38
1.420504 -0.072797 0.211457 2.341805152028776e-38
1.421122 -0.079778 0.211586 2.341805152028776e-38
1.420719 -0.086708 0.211566 2.341805152028776e-38
1.420282 -0.093635 0.211545 2.341805152028776e-38
1.420799 -0.100629 0.211669 2.341805152028776e-38
1.422268 -0.107706 0.211938 2.341805152028776e-38
1.418772 -0.114402 0.211470 2.341805152028776e-38
1.417216 -0.121235 0.211295 2.341805152028776e-38
1.414642 -0.127966 0.210972 2.341805152028776e-38
1.414990 -0.134957 0.211087 2.341805152028776e-38
1.414320 -0.141856 0.211054 2.341805152028776e-38
1.413617 -0.148751 0.211020 2.341805152028776e-38
1.414847 -0.155860 0.211277 2.341805152028776e-38
1.414075 -0.162758 0.211239 2.341805152028776e-38
1.412289 -0.169534 0.211052 2.341805152028776e-38
1.410470 -0.176296 0.210864 2.341805152028776e-38
1.410581 -0.183300 0.210968 2.341805152028776e-38
1.408696 -0.190045 0.210777 2.341805152028776e-38
1.406780 -0.196775 0.210584 2.341805152028776e-38
1.405811 -0.203633 0.210536 2.341805152028776e-38
1.407743 -0.210926 0.210926 2.341805152028776e-38
1.409638 -0.218243 0.211315 2.341805152028776e-38
1.410519 -0.225427 0.211555 2.341805152028776e-38
1.411363 -0.232625 0.211793 2.341805152028776e-38
1.408270 -0.239174 0.211444 2.341805152028776e-38
1.406121 -0.245869 0.211239 2.341805152028776e-38
1.407835 -0.253249 0.211619 2.341805152028776e-38
1.406592 -0.260112 0.211557 2.341805152028776e-38
1.408232 -0.267522 0.211933 2.341805152028776e-38
1.406920 -0.274387 0.211868 2.341805152028776e-38
1.406545 -0.281439 0.211948 2.341805152028776e-38
1.408074 -0.288892 0.212318 2.341805152028776e-38
1.406659 -0.295756 0.212248 2.341805152028776e-38
1.405210 -0.302613 0.212177 2.341805152028776e-38
1.402763 -0.309249 0.211958 2.341805152028776e-38
1.402214 -0.316305 0.212029 2.341805152028776e-38
1.398730 -0.322720 0.211677 2.341805152028776e-38
1.397140 -0.329573 0.211620 2.341805152028776e-38
1.395516 -0.336418 0.211562 2.341805152028776e-38
1.389056 -0.342073 0.210773 2.341805152028776e-38
1.444939 -0.363357 0.219453 2.341805152028776e-38
1.561017 -0.400693 0.237304 2.341805152028776e-38
1.654725 -0.433482 0.251833 2.341805152028776e-38
1.716599 -0.458796 0.261556 2.341805152028776e-38
1.846986 -0.503468 0.281757 2.341805152028776e-38
1.942655 -0.539909 0.296707 2.341805152028776e-38
1.982796 -0.561673 0.303204 2.341805152028776e-38
1.990446 -0.574533 0.304752 2.341805152028776e-38
2.070116 -0.608797 0.317407 2.341805152028776e-38
2.139066 -0.640754 0.328454 2.341805152028776e-38
2.156644 -0.657835 0.331636 2.341805152028776e-38
2.161821 -0.671297 0.332920 2.341805152028776e-38
2.198992 -0.694967 0.339144 2.341805152028776e-38
2.211465 -0.711216 0.341608 2.341805152028776e-38
2.204059 -0.721216 0.341040 2.341805152028776e-38
2.204118 -0.733661 0.341629 2.341805152028776e-38
2.247214 -0.760722 0.348903 2.341805152028776e-38
2.282608 -0.785668 0.355005 2.341805152028776e-38
2.278583 -0.797272 0.354990 2.341805152028776e-38
1.956022 0.215373 0.282378 2.341805152028776e-38
1.950150 0.205112 0.281433 2.341805152028776e-38
1.919603 0.192444 0.276932 2.341805152028776e-38
1.820003 0.173504 0.262480 2.341805152028776e-38
1.681820 0.152063 0.242478 2.341805152028776e-38
1.560241 0.133407 0.224886 2.341805152028776e-38
1.477004 0.119041 0.212831 2.341805152028776e-38
1.442030 0.109151 0.207739 2.341805152028776e-38
1.435630 0.101632 0.206768 2.341805152028776e-38
1.431167 0.094307 0.206079 2.341805152028776e-38
1.430619 0.087270 0.205958 2.341805152028776e-38
1.429047 0.080185 0.205693 2.341805152028776e-38
1.429419 0.073219 0.205711 2.341805152028776e-38
1.427779 0.066159 0.205442 2.341805152028776e-38
1.428082 0.059199 0.205457 2.341805152028776e-38
1.425385 0.052129 0.205043 2.341805152028776e-38
1.425620 0.045181 0.205054 2.341805152028776e-38
1.424832 0.038206 0.204921 2.341805152028776e-38
1.425001 0.031260 0.204929 2.341805152028776e-38
1.425135 0.024314 0.204935 2.341805152028776e-38
1.425236 0.017368 0.204940 2.341805152028776e-38
1.423324 0.010406 0.204659 2.341805152028776e-38
1.422367 0.003466 0.204518 2.341805152028776e-38
1.424347 -0.003471 0.204803 2.341805152028776e-38
1.425303 -0.010421 0.204943 2.341805152028776e-38
1.424246 -0.017356 0.204798 2.341805152028776e-38
1.427114 -0.024348 0.205220 2.341805152028776e-38
1.426980 -0.031304 0.205214 2.341805152028776e-38
1.426811 -0.038259 0.205206 2.341805152028776e-38
1.424631 -0.045150 0.204911 2.341805152028776e-38
1.423406 -0.052057 0.204758 2.341805152028776e-38
1.421160 -0.058912 0.204461 2.341805152028776e-38
1.422835 -0.065930 0.204731 2.341805152028776e-38
1.421511 -0.072814 0.204572 2.341805152028776e-38
1.420153 -0.079686 0.204413 2.341805152028776e-38
1.418763 -0.086547 0.204251 2.341805152028776e-38
1.420302 -0.093592 0.204515 2.341805152028776e-38
1.419832 -0.100513 0.204492 2.341805152028776e-38
1.422290 -0.107657 0.204895 2.341805152028776e-38
1.420766 -0.114508 0.204727 2.341805152028776e-38
1.416249 -0.121095 0.204131 2.341805152028776e-38
1.415647 -0.127997 0.204103 2.341805152028776e-38
1.415996 -0.134989 0.204214 2.341805152028776e-38
1.415325 -0.141889 0.204182 2.341805152028776e-38
1.414622 -0.148786 0.204149 2.341805152028776e-38
1.413885 -0.155680 0.204114 2.341805152028776e-38
1.414098 -0.162683 0.204219 2.341805152028776e-38
1.412311 -0.169456 0.204039 2.341805152028776e-38
1.412456 -0.176460 0.204141 2.341805152028776e-38
1.409622 -0.183088 0.203815 2.341805152028776e-38
1.410681 -0.190222 0.204056 2.341805152028776e-38
1.407783 -0.196821 0.203727 2.341805152028776e-38
1.407793 -0.203823 0.203823 2.341805152028776e-38
1.407769 -0.210829 0.203917 2.341805152028776e-38
1.410645 -0.218294 0.204434 2.341805152028776e-38
