VERSION .7
FIELDS x y z rgb
SIZE 4 4 4 4
TYPE F F F F
COUNT 1 1 1 1
WIDTH 957
HEIGHT 1
VIEWPOINT 0 0 0 1 0 0 0
POINTS 957
DATA ascii
1.298297 -0.588835 0.216939 2.341805152028776e-38
1.293323 -0.594957 0.216660 2.341805152028776e-38
1.291009 -0.602298 0.216827 2.341805152028776e-38
1.288653 -0.609634 0.216988 2.341805152028776e-38
1.288038 -0.617819 0.217445 2.341805152028776e-38
1.286445 -0.625655 0.217769 2.341805152028776e-38
1.284800 -0.633504 0.218091 2.341805152028776e-38
1.281338 -0.640471 0.218106 2.341805152028776e-38
1.278720 -0.647869 0.218266 2.341805152028776e-38
1.274301 -0.654356 0.218119 2.341805152028776e-38
1.270699 -0.661319 0.218131 2.341805152028776e-38
1.267915 -0.668759 0.218299 2.341805152028776e-38
1.265086 -0.676190 0.218461 2.341805152028776e-38
1.257868 -0.681258 0.217864 2.341805152028776e-38
1.254099 -0.688171 0.217863 2.341805152028776e-38
1.251140 -0.695573 0.218015 2.341805152028776e-38
1.246382 -0.702047 0.217877 2.341805152028776e-38
1.241591 -0.708492 0.217732 2.341805152028776e-38
1.237623 -0.715401 0.217731 2.341805152028776e-38
1.233616 -0.722291 0.217724 2.341805152028776e-38
1.232116 -0.730681 0.218165 2.341805152028776e-38
1.235600 -0.742203 0.219525 2.341805152028776e-38
1.245749 -0.757901 0.222082 2.341805152028776e-38
1.518926 -0.947761 0.272644 2.341805152028776e-38
1.945803 -0.379483 0.293019 2.341805152028776e-38
1.780007 -0.356166 0.268224 2.341805152028776e-38
1.692983 -0.347347 0.255279 2.341805152028776e-38
1.569300 -0.329952 0.236789 2.341805152028776e-38
1.465171 -0.315525 0.221230 2.341805152028776e-38
1.416288 -0.312231 0.214001 2.341805152028776e-38
1.406074 -0.317176 0.212612 2.341805152028776e-38
1.400658 -0.323165 0.211968 2.341805152028776e-38
1.397140 -0.329573 0.211620 2.341805152028776e-38
1.398401 -0.337114 0.211999 2.341805152028776e-38
1.398662 -0.344439 0.212230 2.341805152028776e-38
1.396966 -0.351293 0.212167 2.341805152028776e-38
1.394278 -0.357893 0.211956 2.341805152028776e-38
1.390581 -0.364286 0.211633 2.341805152028776e-38
1.385895 -0.370408 0.211167 2.341805152028776e-38
1.384046 -0.377276 0.211136 2.341805152028776e-38
1.382164 -0.384135 0.211101 2.341805152028776e-38
1.378343 -0.390448 0.210773 2.341805152028776e-38
1.376392 -0.397289 0.210736 2.341805152028776e-38
1.375332 -0.404469 0.210877 2.341805152028776e-38
1.374233 -0.411650 0.211014 2.341805152028776e-38
1.374044 -0.419121 0.211292 2.341805152028776e-38
1.369090 -0.425135 0.210839 2.341805152028776e-38
1.365997 -0.431708 0.210674 2.341805152028776e-38
1.362858 -0.438301 0.210522 2.341805152028776e-38
1.359671 -0.444914 0.210386 2.341805152028776e-38
1.358330 -0.452133 0.210535 2.341805152028776e-38
1.355076 -0.458717 0.210389 2.341805152028776e-38
1.354597 -0.466249 0.210675 2.341805152028776e-38
1.350340 -0.472482 0.210375 2.341805152028776e-38
1.348820 -0.479757 0.210541 2.341805152028776e-38
1.343537 -0.485688 0.210120 2.341805152028776e-38
1.341944 -0.492944 0.210277 2.341805152028776e-38
1.339385 -0.499853 0.210283 2.341805152028776e-38
1.334941 -0.506049 0.209993 2.341805152028776e-38
1.333218 -0.513324 0.210153 2.341805152028776e-38
1.330518 -0.520274 0.210177 2.341805152028776e-38
1.328701 -0.527576 0.210341 2.341805152028776e-38
1.327761 -0.535246 0.210645 2.341805152028776e-38
1.323115 -0.541423 0.210362 2.341805152028776e-38
1.319348 -0.547961 0.210224 2.341805152028776e-38
1.316429 -0.554928 0.210252 2.341805152028776e-38
1.313472 -0.561882 0.210275 2.341805152028776e-38
1.309571 -0.568429 0.210146 2.341805152028776e-38
1.305638 -0.574951 0.210012 2.341805152028776e-38
1.302575 -0.581854 0.210018 2.341805152028776e-38
1.299442 -0.588809 0.210043 2.341805152028776e-38
1.297164 -0.596176 0.210212 2.341805152028776e-38
1.293947 -0.603120 0.210230 2.341805152028776e-38
1.293376 -0.611317 0.210680 2.341805152028776e-38
1.290078 -0.618244 0.210686 2.341805152028776e-38
1.286720 -0.625198 0.210702 2.341805152028776e-38
1.283303 -0.632173 0.210724 2.341805152028776e-38
1.282504 -0.640459 0.211178 2.341805152028776e-38
1.280770 -0.648309 0.211480 2.341805152028776e-38
1.276348 -0.654806 0.211340 2.341805152028776e-38
1.273636 -0.662211 0.211491 2.341805152028776e-38
1.269972 -0.669205 0.211510 2.341805152028776e-38
1.265397 -0.675715 0.211377 2.341805152028776e-38
1.262529 -0.683138 0.211530 2.341805152028776e-38
1.259617 -0.690552 0.211677 2.341805152028776e-38
1.256660 -0.697959 0.211818 2.341805152028776e-38
1.250164 -0.703493 0.211394 2.341805152028776e-38
1.245364 -0.709958 0.211256 2.341805152028776e-38
1.241387 -0.716889 0.211257 2.341805152028776e-38
1.237372 -0.723798 0.211252 2.341805152028776e-38
1.234169 -0.731192 0.211387 2.341805152028776e-38
1.235971 -0.741692 0.212409 2.341805152028776e-38
1.240219 -0.753794 0.213867 2.341805152028776e-38
1.939425 -0.378057 0.282347 2.341805152028776e-38
1.753134 -0.350620 0.255390 2.341805152028776e-38
1.690320 -0.346633 0.246402 2.341805152028776e-38
1.568490 -0.329622 0.228797 2.341805152028776e-38
1.461385 -0.314558 0.213321 2.341805152028776e-38
1.416340 -0.312092 0.206892 2.341805152028776e-38
1.407087 -0.317250 0.205690 2.341805152028776e-38
1.401675 -0.323219 0.205053 2.341805152028776e-38
1.400082 -0.330083 0.204999 2.341805152028776e-38
1.400381 -0.337404 0.205225 2.341805152028776e-38
1.400641 -0.344736 0.205449 2.341805152028776e-38
1.397024 -0.351115 0.205107 2.341805152028776e-38
1.393377 -0.357466 0.204762 2.341805152028776e-38
1.390653 -0.364060 0.204567 2.341805152028776e-38
1.385010 -0.369926 0.203978 2.341805152028776e-38
1.382208 -0.376527 0.203808 2.341805152028776e-38
1.382237 -0.383905 0.204058 2.341805152028776e-38
1.378416 -0.390216 0.203741 2.341805152028776e-38
1.376469 -0.397048 0.203703 2.341805152028776e-38
1.375422 -0.404195 0.203825 2.341805152028776e-38
1.374326 -0.411375 0.203959 2.341805152028776e-38
1.371298 -0.417980 0.203808 2.341805152028776e-38
1.370130 -0.425152 0.203935 2.341805152028776e-38
1.366093 -0.431431 0.203635 2.341805152028776e-38
1.363911 -0.438289 0.203614 2.341805152028776e-38
1.363547 -0.445829 0.203906 2.341805152028776e-38
1.360322 -0.452442 0.203772 2.341805152028776e-38
1.356128 -0.458719 0.203492 2.341805152028776e-38
1.352842 -0.465289 0.203348 2.341805152028776e-38
1.349524 -0.471839 0.203201 2.341805152028776e-38
1.347088 -0.478743 0.203208 2.341805152028776e-38
1.345534 -0.486010 0.203366 2.341805152028776e-38
1.344869 -0.493617 0.203660 2.341805152028776e-38
1.340452 -0.499848 0.203387 2.341805152028776e-38
1.336931 -0.506400 0.203249 2.341805152028776e-38
1.334298 -0.513297 0.203252 2.341805152028776e-38
1.330676 -0.519891 0.203136 2.341805152028776e-38
1.328861 -0.527194 0.203297 2.341805152028776e-38
1.327007 -0.534494 0.203453 2.341805152028776e-38
1.323280 -0.541042 0.203322 2.341805152028776e-38
1.320435 -0.547947 0.203326 2.341805152028776e-38
1.317524 -0.554902 0.203349 2.341805152028776e-38
1.313657 -0.561473 0.203232 2.341805152028776e-38
1.308849 -0.567626 0.202969 2.341805152028776e-38
1.305825 -0.574543 0.202982 2.341805152028776e-38
1.303669 -0.581850 0.203131 2.341805152028776e-38
1.302354 -0.589598 0.203429 2.341805152028776e-38
1.297373 -0.595741 0.203172 2.341805152028776e-38
1.294159 -0.602686 0.203191 2.341805152028776e-38
1.291802 -0.610038 0.203346 2.341805152028776e-38
1.288511 -0.616956 0.203354 2.341805152028776e-38
1.286065 -0.624307 0.203503 2.341805152028776e-38
1.285318 -0.632590 0.203950 2.341805152028776e-38
1.283633 -0.640444 0.204250 2.341805152028776e-38
1.280134 -0.647407 0.204262 2.341805152028776e-38
1.276597 -0.654352 0.204269 2.341805152028776e-38
1.274779 -0.662192 0.204551 2.341805152028776e-38
1.271117 -0.669188 0.204570 2.341805152028776e-38
1.269162 -0.677102 0.204867 2.341805152028776e-38
1.264545 -0.683604 0.204734 2.341805152028776e-38
1.261631 -0.691029 0.204878 2.341805152028776e-38
1.256943 -0.697483 0.204734 2.341805152028776e-38
1.252186 -0.703967 0.204601 2.341805152028776e-38
1.247382 -0.710443 0.204469 2.341805152028776e-38
1.241688 -0.716395 0.204190 2.341805152028776e-38
1.237676 -0.723306 0.204187 2.341805152028776e-38
1.234477 -0.730700 0.204319 2.341805152028776e-38
1.234603 -0.740161 0.205021 2.341805152028776e-38
1.233791 -0.749172 0.205587 2.341805152028776e-38
1.498375 -0.933146 0.251395 2.341805152028776e-38
1.936879 -0.377385 0.272291 2.341805152028776e-38
1.781548 -0.356137 0.250615 2.341805152028776e-38
1.722547 -0.353077 0.242475 2.341805152028776e-38
1.601572 -0.336418 0.225598 2.341805152028776e-38
1.470149 -0.316296 0.207229 2.341805152028776e-38
1.422162 -0.313228 0.200607 2.341805152028776e-38
1.413864 -0.318629 0.199581 2.341805152028776e-38
1.404582 -0.323735 0.198418 2.341805152028776e-38
1.402993 -0.330591 0.198355 2.341805152028776e-38
1.401364 -0.337460 0.198301 2.341805152028776e-38
1.397778 -0.343848 0.197973 2.341805152028776e-38
1.397046 -0.350933 0.198052 2.341805152028776e-38
1.399157 -0.358759 0.198536 2.341805152028776e-38
1.395474 -0.365109 0.198202 2.341805152028776e-38
1.387916 -0.370463 0.197350 2.341805152028776e-38
1.384155 -0.376816 0.197051 2.341805152028776e-38
1.384183 -0.384203 0.197293 2.341805152028776e-38
1.380360 -0.390521 0.196988 2.341805152028776e-38
1.377459 -0.397086 0.196817 2.341805152028776e-38
1.374526 -0.403640 0.196645 2.341805152028776e-38
1.372484 -0.410531 0.196641 2.341805152028776e-38
1.371356 -0.417702 0.196769 2.341805152028776e-38
1.370190 -0.424874 0.196893 2.341805152028776e-38
1.368986 -0.432046 0.197013 2.341805152028776e-38
1.366802 -0.438915 0.196994 2.341805152028776e-38
1.362682 -0.445205 0.196718 2.341805152028776e-38
1.359461 -0.451813 0.196590 2.341805152028776e-38
1.355268 -0.458084 0.196322 2.341805152028776e-38
1.352921 -0.464971 0.196321 2.341805152028776e-38
1.351475 -0.472174 0.196452 2.341805152028776e-38
1.349985 -0.479386 0.196583 2.341805152028776e-38
1.347496 -0.486331 0.196602 2.341805152028776e-38
1.345901 -0.493606 0.196752 2.341805152028776e-38
1.343339 -0.500534 0.196762 2.341805152028776e-38
1.340741 -0.507450 0.196766 2.341805152028776e-38
1.336258 -0.513644 0.196495 2.341805152028776e-38
1.331719 -0.519868 0.196242 2.341805152028776e-38
1.329906 -0.527176 0.196399 2.341805152028776e-38
1.332647 -0.536331 0.197231 2.341805152028776e-38
1.327076 -0.542158 0.196835 2.341805152028776e-38
1.322394 -0.548324 0.196569 2.341805152028776e-38
1.319495 -0.555259 0.196582 2.341805152028776e-38
1.315626 -0.561840 0.196472 2.341805152028776e-38
1.311723 -0.568397 0.196355 2.341805152028776e-38
1.310509 -0.576127 0.196642 2.341805152028776e-38
1.309250 -0.583861 0.196924 2.341805152028776e-38
1.302524 -0.589161 0.196387 2.341805152028776e-38
1.293943 -0.593653 0.195597 2.341805152028776e-38
1.289841 -0.600161 0.195481 2.341805152028776e-38
1.291083 -0.609181 0.196177 2.341805152028776e-38
1.290477 -0.617377 0.196595 2.341805152028776e-38
1.288929 -0.625155 0.196872 2.341805152028776e-38
1.288186 -0.633443 0.197302 2.341805152028776e-38
1.285611 -0.640871 0.197457 2.341805152028776e-38
1.282109 -0.647843 0.197471 2.341805152028776e-38
1.280333 -0.655702 0.197751 2.341805152028776e-38
1.275872 -0.662193 0.197618 2.341805152028776e-38
1.272224 -0.669170 0.197631 2.341805152028776e-38
1.268522 -0.676158 0.197646 2.341805152028776e-38
1.266524 -0.684069 0.197928 2.341805152028776e-38
1.264478 -0.691979 0.198205 2.341805152028776e-38
1.260650 -0.698929 0.198204 2.341805152028776e-38
1.255035 -0.704925 0.197935 2.341805152028776e-38
1.249364 -0.710927 0.197672 2.341805152028776e-38
1.244523 -0.717384 0.197540 2.341805152028776e-38
1.241361 -0.724809 0.197675 2.341805152028776e-38
1.237302 -0.731719 0.197668 2.341805152028776e-38
1.235740 -0.740156 0.198070 2.341805152028776e-38
1.235778 -0.749686 0.198754 2.341805152028776e-38
1.475377 -0.917983 0.238927 2.341805152028776e-38
1.929418 -0.375763 0.261607 2.341805152028776e-38
1.792461 -0.358157 0.243193 2.341805152028776e-38
1.727585 -0.353950 0.234545 2.341805152028776e-38
1.613316 -0.338732 0.219180 2.341805152028776e-38
1.473073 -0.316783 0.200265 2.341805152028776e-38
1.423116 -0.313297 0.193610 2.341805152028776e-38
1.410945 -0.317828 0.192094 2.341805152028776e-38
1.403594 -0.323361 0.191235 2.341805152028776e-38
1.401047 -0.329966 0.191033 2.341805152028776e-38
1.400387 -0.337049 0.191110 2.341805152028776e-38
1.397764 -0.343667 0.190926 2.341805152028776e-38
1.398956 -0.351232 0.191265 2.341805152028776e-38
1.402989 -0.359557 0.191996 2.341805152028776e-38
1.398342 -0.365672 0.191543 2.341805152028776e-38
1.389832 -0.370743 0.190569 2.341805152028776e-38
1.386069 -0.377104 0.190282 2.341805152028776e-38
1.383232 -0.383703 0.190123 2.341805152028776e-38
1.381317 -0.390554 0.190093 2.341805152028776e-38
1.378416 -0.397122 0.189928 2.341805152028776e-38
1.375484 -0.403673 0.189761 2.341805152028776e-38
1.370604 -0.409685 0.189350 2.341805152028776e-38
1.372325 -0.417711 0.189869 2.341805152028776e-38
1.374001 -0.425767 0.190384 2.341805152028776e-38
1.369012 -0.431764 0.189976 2.341805152028776e-38
1.364941 -0.438027 0.189697 2.341805152028776e-38
1.361780 -0.444579 0.189549 2.341805152028776e-38
1.360443 -0.451806 0.189690 2.341805152028776e-38
1.356249 -0.458082 0.189432 2.341805152028776e-38
1.353902 -0.464973 0.189433 2.341805152028776e-38
1.352456 -0.472180 0.189561 2.341805152028776e-38
1.350038 -0.479054 0.189554 2.341805152028776e-38
1.347559 -0.485977 0.189565 2.341805152028776e-38
1.345967 -0.493252 0.189712 2.341805152028776e-38
1.344336 -0.500526 0.189855 2.341805152028776e-38
1.338956 -0.506395 0.189468 2.341805152028776e-38
1.331700 -0.511513 0.188813 2.341805152028776e-38
1.329032 -0.518402 0.188822 2.341805152028776e-38
1.330914 -0.527157 0.189501 2.341805152028776e-38
1.329981 -0.534837 0.189781 2.341805152028776e-38
1.326250 -0.541399 0.189662 2.341805152028776e-38
1.323403 -0.548319 0.189670 2.341805152028776e-38
1.319604 -0.554847 0.189544 2.341805152028776e-38
1.316648 -0.561817 0.189570 2.341805152028776e-38
1.312745 -0.568379 0.189460 2.341805152028776e-38
1.311532 -0.576114 0.189738 2.341805152028776e-38
1.307558 -0.582643 0.189618 2.341805152028776e-38
1.299035 -0.587107 0.188835 2.341805152028776e-38
1.293171 -0.592803 0.188463 2.341805152028776e-38
1.289972 -0.599725 0.188485 2.341805152028776e-38
1.291220 -0.608745 0.189158 2.341805152028776e-38
1.288830 -0.616087 0.189300 2.341805152028776e-38
1.289075 -0.624720 0.189832 2.341805152028776e-38
1.288349 -0.632984 0.190241 2.341805152028776e-38
1.285778 -0.640412 0.190393 2.341805152028776e-38
1.282279 -0.647385 0.190407 2.341805152028776e-38
1.278742 -0.654341 0.190417 2.341805152028776e-38
1.276047 -0.661736 0.190552 2.341805152028776e-38
1.273293 -0.669151 0.190691 2.341805152028776e-38
1.274840 -0.678941 0.191496 2.341805152028776e-38
1.274574 -0.687827 0.192033 2.341805152028776e-38
1.269899 -0.694355 0.191907 2.341805152028776e-38
1.262589 -0.699413 0.191382 2.341805152028776e-38
1.256983 -0.705396 0.191117 2.341805152028776e-38
1.250446 -0.710919 0.190734 2.341805152028776e-38
1.245605 -0.717381 0.190609 2.341805152028776e-38
1.240731 -0.723814 0.190477 2.341805152028776e-38
1.237531 -0.731224 0.190603 2.341805152028776e-38
1.235137 -0.739131 0.190856 2.341805152028776e-38
1.233489 -0.747630 0.191254 2.341805152028776e-38
1.400088 -0.870369 0.218586 2.341805152028776e-38
1.918978 -0.373568 0.250622 2.341805152028776e-38
1.775136 -0.354542 0.231984 2.341805152028776e-38
1.694689 -0.347060 0.221617 2.341805152028776e-38
1.582324 -0.332081 0.207062 2.341805152028776e-38
1.474994 -0.317058 0.193150 2.341805152028776e-38
1.425005 -0.313576 0.186737 2.341805152028776e-38
1.413794 -0.318331 0.185402 2.341805152028776e-38
1.403536 -0.323207 0.184193 2.341805152028776e-38
1.401955 -0.330036 0.184125 2.341805152028776e-38
1.403231 -0.337564 0.184442 2.341805152028776e-38
1.399642 -0.343956 0.184138 2.341805152028776e-38
1.404683 -0.352494 0.184972 2.341805152028776e-38
1.402947 -0.359368 0.184917 2.341805152028776e-38
1.395420 -0.364728 0.184101 2.341805152028776e-38
1.392666 -0.371301 0.183916 2.341805152028776e-38
1.391779 -0.378430 0.184007 2.341805152028776e-38
1.388934 -0.385056 0.183855 2.341805152028776e-38
1.383195 -0.390854 0.183321 2.341805152028776e-38
1.379338 -0.397156 0.183037 2.341805152028776e-38
1.377357 -0.403988 0.183003 2.341805152028776e-38
1.373437 -0.410256 0.182719 2.341805152028776e-38
1.378005 -0.419162 0.183600 2.341805152028776e-38
1.376833 -0.426365 0.183718 2.341805152028776e-38
1.371839 -0.432375 0.183327 2.341805152028776e-38
1.367764 -0.438651 0.183059 2.341805152028776e-38
1.365547 -0.445513 0.183040 2.341805152028776e-38
1.363273 -0.452423 0.183041 2.341805152028776e-38
1.360015 -0.459030 0.182922 2.341805152028776e-38
1.356725 -0.465617 0.182798 2.341805152028776e-38
1.352466 -0.471858 0.182543 2.341805152028776e-38
1.350984 -0.479063 0.182664 2.341805152028776e-38
1.348519 -0.485958 0.182665 2.341805152028776e-38
1.347859 -0.493579 0.182935 2.341805152028776e-38
1.345296 -0.500516 0.182947 2.341805152028776e-38
1.339915 -0.506390 0.182576 2.341805152028776e-38
1.338212 -0.513645 0.182706 2.341805152028776e-38
1.333698 -0.519818 0.182453 2.341805152028776e-38
1.333731 -0.527866 0.182856 2.341805152028776e-38
1.331875 -0.535191 0.183001 2.341805152028776e-38
1.329060 -0.542138 0.183015 2.341805152028776e-38
1.325293 -0.548692 0.182897 2.341805152028776e-38
1.323323 -0.555992 0.183028 2.341805152028776e-38
1.318546 -0.562182 0.182795 2.341805152028776e-38
1.313730 -0.568360 0.182564 2.341805152028776e-38
1.311610 -0.575702 0.182708 2.341805152028776e-38
1.309450 -0.583038 0.182846 2.341805152028776e-38
1.303632 -0.588736 0.182474 2.341805152028776e-38
1.298673 -0.594844 0.182235 2.341805152028776e-38
1.297262 -0.602631 0.182511 2.341805152028776e-38
1.295806 -0.610421 0.182782 2.341805152028776e-38
1.294303 -0.618216 0.183047 2.341805152028776e-38
1.290968 -0.625148 0.183054 2.341805152028776e-38
1.287583 -0.632086 0.183063 2.341805152028776e-38
1.287682 -0.640836 0.183591 2.341805152028776e-38
1.284180 -0.647819 0.183607 2.341805152028776e-38
1.280641 -0.654785 0.183617 2.341805152028776e-38
1.277064 -0.661734 0.183622 2.341805152028776e-38
1.279593 -0.671898 0.184511 2.341805152028776e-38
1.282005 -0.682188 0.185415 2.341805152028776e-38
1.279977 -0.690172 0.185681 2.341805152028776e-38
1.271806 -0.694827 0.185054 2.341805152028776e-38
1.265359 -0.700375 0.184676 2.341805152028776e-38
1.258889 -0.705875 0.184292 2.341805152028776e-38
1.253215 -0.711890 0.184050 2.341805152028776e-38
1.248368 -0.718367 0.183930 2.341805152028776e-38
1.243487 -0.724815 0.183805 2.341805152028776e-38
1.239428 -0.731735 0.183801 2.341805152028776e-38
1.237033 -0.739653 0.184045 2.341805152028776e-38
1.233701 -0.747114 0.184172 2.341805152028776e-38
1.281044 -0.785700 0.191899 2.341805152028776e-38
1.376020 -0.854678 0.206840 2.341805152028776e-38
1.935756 -0.376677 0.243171 2.341805152028776e-38
1.785971 -0.356557 0.224499 2.341805152028776e-38
1.721022 -0.352306 0.216477 2.341805152028776e-38
1.600791 -0.335816 0.201490 2.341805152028776e-38
1.474941 -0.316914 0.185777 2.341805152028776e-38
1.423954 -0.313214 0.179482 2.341805152028776e-38
1.411770 -0.317742 0.178075 2.341805152028776e-38
1.406346 -0.323718 0.177523 2.341805152028776e-38
1.406694 -0.331012 0.177701 2.341805152028776e-38
1.402180 -0.337158 0.177268 2.341805152028776e-38
1.401486 -0.344243 0.177337 2.341805152028776e-38
1.400754 -0.351340 0.177409 2.341805152028776e-38
1.399024 -0.358192 0.177357 2.341805152028776e-38
1.395340 -0.364534 0.177059 2.341805152028776e-38
1.394505 -0.371615 0.177125 2.341805152028776e-38
1.391714 -0.378192 0.176952 2.341805152028776e-38
1.387913 -0.384551 0.176686 2.341805152028776e-38
1.383129 -0.390613 0.176294 2.341805152028776e-38
1.381180 -0.397462 0.176266 2.341805152028776e-38
1.376340 -0.403464 0.175869 2.341805152028776e-38
1.377181 -0.411133 0.176200 2.341805152028776e-38
1.377010 -0.418590 0.176430 2.341805152028776e-38
1.375841 -0.425787 0.176546 2.341805152028776e-38
1.372741 -0.432388 0.176414 2.341805152028776e-38
1.369610 -0.438970 0.176279 2.341805152028776e-38
1.368335 -0.446148 0.176384 2.341805152028776e-38
1.366070 -0.453039 0.176374 2.341805152028776e-38
1.360927 -0.459025 0.176017 2.341805152028776e-38
1.357637 -0.465616 0.175899 2.341805152028776e-38
1.353377 -0.471860 0.175656 2.341805152028776e-38
1.351895 -0.479070 0.175774 2.341805152028776e-38
1.348508 -0.485605 0.175644 2.341805152028776e-38
1.348784 -0.493564 0.176026 2.341805152028776e-38
1.347152 -0.500852 0.176162 2.341805152028776e-38
1.344552 -0.507786 0.176171 2.341805152028776e-38
1.340990 -0.514354 0.176054 2.341805152028776e-38
1.335546 -0.520179 0.175690 2.341805152028776e-38
1.334668 -0.527845 0.175948 2.341805152028776e-38
1.331892 -0.534804 0.175968 2.341805152028776e-38
1.329079 -0.541751 0.175983 2.341805152028776e-38
1.328982 -0.549823 0.176358 2.341805152028776e-38
1.325176 -0.556373 0.176242 2.341805152028776e-38
1.319495 -0.562157 0.175890 2.341805152028776e-38
1.314678 -0.568341 0.175669 2.341805152028776e-38
1.314377 -0.576484 0.176052 2.341805152028776e-38
1.312214 -0.583835 0.176187 2.341805152028776e-38
1.308199 -0.590364 0.176073 2.341805152028776e-38
1.305047 -0.597296 0.176082 2.341805152028776e-38
1.300924 -0.603864 0.175983 2.341805152028776e-38
1.299462 -0.611674 0.176245 2.341805152028776e-38
1.295266 -0.618205 0.176137 2.341805152028776e-38
1.291038 -0.624710 0.176023 2.341805152028776e-38
1.288559 -0.632063 0.176149 2.341805152028776e-38
1.287772 -0.640375 0.176536 2.341805152028776e-38
1.284273 -0.647359 0.176552 2.341805152028776e-38
1.280736 -0.654325 0.176564 2.341805152028776e-38
1.276280 -0.660818 0.176449 2.341805152028776e-38
1.279701 -0.671432 0.177425 2.341805152028776e-38
1.279501 -0.680309 0.177927 2.341805152028776e-38
1.272242 -0.685454 0.177453 2.341805152028776e-38
1.268450 -0.692444 0.177461 2.341805152028776e-38
1.263751 -0.698935 0.177342 2.341805152028776e-38
1.259884 -0.705880 0.177339 2.341805152028776e-38
1.254222 -0.711879 0.177102 2.341805152028776e-38
1.248513 -0.717868 0.176866 2.341805152028776e-38
1.242777 -0.723816 0.176625 2.341805152028776e-38
1.240433 -0.731741 0.176866 2.341805152028776e-38
1.236335 -0.738646 0.176859 2.341805152028776e-38
1.231324 -0.745055 0.176734 2.341805152028776e-38
1.274491 -0.781035 0.183561 2.341805152028776e-38
1.405839 -0.872481 0.203180 2.341805152028776e-38
1.965179 -0.382250 0.237092 2.341805152028776e-38
1.808461 -0.360903 0.218324 2.341805152028776e-38
1.716212 -0.351181 0.207324 2.341805152028776e-38
1.605636 -0.336697 0.194096 2.341805152028776e-38
1.474852 -0.316768 0.178410 2.341805152028776e-38
1.426745 -0.313702 0.172712 2.341805152028776e-38
1.417459 -0.318894 0.171712 2.341805152028776e-38
1.409124 -0.324227 0.170829 2.341805152028776e-38
1.405604 -0.330622 0.170532 2.341805152028776e-38
1.403022 -0.337224 0.170350 2.341805152028776e-38
1.403299 -0.344528 0.170524 2.341805152028776e-38
1.403529 -0.351873 0.170711 2.341805152028776e-38
1.402758 -0.358982 0.170778 2.341805152028776e-38
1.399069 -0.365340 0.170492 2.341805152028776e-38
1.395352 -0.371671 0.170204 2.341805152028776e-38
1.392565 -0.378235 0.170032 2.341805152028776e-38
1.392599 -0.385635 0.170235 2.341805152028776e-38
1.386851 -0.391449 0.169743 2.341805152028776e-38
1.384898 -0.398314 0.169717 2.341805152028776e-38
1.381958 -0.404892 0.169570 2.341805152028776e-38
1.382794 -0.412587 0.169889 2.341805152028776e-38
1.379778 -0.419171 0.169747 2.341805152028776e-38
1.377658 -0.426087 0.169742 2.341805152028776e-38
1.375504 -0.432995 0.169734 2.341805152028776e-38
1.373314 -0.439893 0.169722 2.341805152028776e-38
1.370147 -0.446473 0.169591 2.341805152028776e-38
1.366005 -0.452721 0.169339 2.341805152028776e-38
1.360864 -0.458701 0.168995 2.341805152028776e-38
1.361332 -0.466579 0.169351 2.341805152028776e-38
1.357066 -0.472842 0.169119 2.341805152028776e-38
1.353708 -0.479406 0.168999 2.341805152028776e-38
1.350318 -0.485950 0.168876 2.341805152028776e-38
1.350606 -0.493889 0.169235 2.341805152028776e-38
1.349904 -0.501531 0.169483 2.341805152028776e-38
1.345443 -0.507779 0.169260 2.341805152028776e-38
1.343735 -0.515061 0.169383 2.341805152028776e-38
1.341987 -0.522341 0.169501 2.341805152028776e-38
1.338340 -0.528917 0.169392 2.341805152028776e-38
1.335558 -0.535896 0.169412 2.341805152028776e-38
1.332740 -0.542862 0.169428 2.341805152028776e-38
1.329885 -0.549814 0.169440 2.341805152028776e-38
1.325163 -0.555985 0.169213 2.341805152028776e-38
1.320408 -0.562131 0.168984 2.341805152028776e-38
1.318325 -0.569501 0.169125 2.341805152028776e-38
1.317110 -0.577265 0.169377 2.341805152028776e-38
1.314036 -0.584227 0.169391 2.341805152028776e-38
1.311829 -0.591582 0.169518 2.341805152028776e-38
1.308679 -0.598518 0.169522 2.341805152028776e-38
1.306354 -0.605932 0.169661 2.341805152028776e-38
1.303984 -0.613349 0.169797 2.341805152028776e-38
1.302467 -0.621186 0.170045 2.341805152028776e-38
1.297328 -0.627297 0.169821 2.341805152028776e-38
1.294836 -0.634684 0.169943 2.341805152028776e-38
1.289602 -0.640797 0.169725 2.341805152028776e-38
1.286100 -0.647791 0.169742 2.341805152028776e-38
1.283446 -0.655219 0.169872 2.341805152028776e-38
1.280748 -0.662638 0.169996 2.341805152028776e-38
1.279767 -0.670971 0.170350 2.341805152028776e-38
1.277830 -0.678894 0.170594 2.341805152028776e-38
1.274074 -0.685914 0.170608 2.341805152028776e-38
1.269407 -0.692438 0.170500 2.341805152028776e-38
1.267315 -0.700375 0.170738 2.341805152028776e-38
1.261708 -0.706370 0.170503 2.341805152028776e-38
1.256917 -0.712848 0.170388 2.341805152028776e-38
1.251202 -0.718851 0.170163 2.341805152028776e-38
1.246317 -0.725314 0.170050 2.341805152028776e-38
1.241400 -0.731745 0.169931 2.341805152028776e-38
1.238154 -0.739164 0.170042 2.341805152028776e-38
1.230602 -0.744023 0.169568 2.341805152028776e-38
1.278047 -0.782591 0.176714 2.341805152028776e-38
1.412871 -0.876151 0.196034 2.341805152028776e-38
1.963377 -0.381753 0.227119 2.341805152028776e-38
1.820215 -0.363109 0.210693 2.341805152028776e-38
1.734718 -0.354831 0.200928 2.341805152028776e-38
1.615309 -0.338595 0.187223 2.341805152028776e-38
1.476670 -0.317036 0.171272 2.341805152028776e-38
1.427565 -0.313761 0.165694 2.341805152028776e-38
1.417304 -0.318736 0.164622 2.341805152028776e-38
1.410903 -0.324511 0.164000 2.341805152028776e-38
1.409315 -0.331367 0.163939 2.341805152028776e-38
1.406728 -0.337984 0.163765 2.341805152028776e-38
1.407005 -0.345293 0.163927 2.341805152028776e-38
1.405308 -0.352162 0.163877 2.341805152028776e-38
1.404537 -0.359278 0.163942 2.341805152028776e-38
1.399884 -0.365391 0.163556 2.341805152028776e-38
1.395205 -0.371468 0.163168 2.341805152028776e-38
1.392418 -0.378029 0.163003 2.341805152028776e-38
1.388635 -0.384331 0.162735 2.341805152028776e-38
1.386717 -0.391203 0.162713 2.341805152028776e-38
1.386675 -0.398616 0.162913 2.341805152028776e-38
1.382780 -0.404922 0.162661 2.341805152028776e-38
1.383617 -0.412619 0.162967 2.341805152028776e-38
1.382510 -0.419759 0.163047 2.341805152028776e-38
1.381340 -0.426973 0.163152 2.341805152028776e-38
1.376337 -0.433004 0.162809 2.341805152028776e-38
1.371309 -0.438996 0.162463 2.341805152028776e-38
1.369090 -0.445873 0.162450 2.341805152028776e-38
1.367780 -0.453053 0.162546 2.341805152028776e-38
1.363589 -0.459327 0.162319 2.341805152028776e-38
1.363116 -0.466897 0.162549 2.341805152028776e-38
1.357909 -0.472842 0.162216 2.341805152028776e-38
1.355487 -0.479741 0.162215 2.341805152028776e-38
1.351159 -0.485957 0.161986 2.341805152028776e-38
1.351461 -0.493871 0.162321 2.341805152028776e-38
1.348897 -0.500827 0.162337 2.341805152028776e-38
1.346297 -0.507770 0.162348 2.341805152028776e-38
1.342734 -0.514346 0.162243 2.341805152028776e-38
1.340065 -0.521260 0.162246 2.341805152028776e-38
1.337359 -0.528164 0.162246 2.341805152028776e-38
1.334581 -0.535138 0.162268 2.341805152028776e-38
1.332687 -0.542473 0.162396 2.341805152028776e-38
1.329834 -0.549425 0.162409 2.341805152028776e-38
1.325113 -0.555595 0.162192 2.341805152028776e-38
1.324020 -0.563288 0.162420 2.341805152028776e-38
1.321027 -0.570268 0.162440 2.341805152028776e-38
1.317989 -0.577249 0.162459 2.341805152028776e-38
1.315822 -0.584618 0.162586 2.341805152028776e-38
1.312708 -0.591574 0.162596 2.341805152028776e-38
1.309558 -0.598515 0.162602 2.341805152028776e-38
1.306344 -0.605493 0.162618 2.341805152028776e-38
1.303077 -0.612487 0.162638 2.341805152028776e-38
1.300670 -0.619892 0.162765 2.341805152028776e-38
1.297326 -0.626858 0.162775 2.341805152028776e-38
1.293944 -0.633807 0.162781 2.341805152028776e-38
1.291395 -0.641219 0.162904 2.341805152028776e-38
1.288779 -0.648669 0.163035 2.341805152028776e-38
1.286120 -0.656112 0.163160 2.341805152028776e-38
1.283418 -0.663545 0.163281 2.341805152028776e-38
1.278033 -0.669587 0.163060 2.341805152028776e-38
1.276117 -0.677480 0.163290 2.341805152028776e-38
1.272368 -0.684490 0.163305 2.341805152028776e-38
1.271199 -0.692907 0.163651 2.341805152028776e-38
1.268236 -0.700373 0.163769 2.341805152028776e-38
1.263494 -0.706857 0.163657 2.341805152028776e-38
1.258712 -0.713326 0.163543 2.341805152028776e-38
1.252131 -0.718844 0.163216 2.341805152028776e-38
1.246387 -0.724812 0.162996 2.341805152028776e-38
1.241471 -0.731244 0.162884 2.341805152028776e-38
1.239083 -0.739172 0.163104 2.341805152028776e-38
1.231539 -0.744017 0.162646 2.341805152028776e-38
1.275634 -0.780516 0.169052 2.341805152028776e-38
1.384392 -0.857838 0.184102 2.341805152028776e-38
1.966405 -0.382201 0.217709 2.341805152028776e-38
1.845588 -0.368035 0.204464 2.341805152028776e-38
1.754176 -0.358679 0.194464 2.341805152028776e-38
1.623007 -0.340084 0.180044 2.341805152028776e-38
1.486230 -0.318971 0.164985 2.341805152028776e-38
1.431263 -0.314458 0.158995 2.341805152028776e-38
1.420994 -0.319448 0.157969 2.341805152028776e-38
1.414586 -0.325237 0.157373 2.341805152028776e-38
1.412027 -0.331882 0.157207 2.341805152028776e-38
1.407504 -0.338045 0.156825 2.341805152028776e-38
1.407782 -0.345356 0.156980 2.341805152028776e-38
1.408019 -0.352690 0.157139 2.341805152028776e-38
1.405319 -0.359325 0.156987 2.341805152028776e-38
1.399702 -0.365189 0.156510 2.341805152028776e-38
1.394062 -0.371007 0.156031 2.341805152028776e-38
1.392236 -0.377821 0.155981 2.341805152028776e-38
1.391336 -0.384891 0.156037 2.341805152028776e-38
1.390375 -0.392035 0.156120 2.341805152028776e-38
1.387464 -0.398641 0.155990 2.341805152028776e-38
1.385476 -0.405508 0.155965 2.341805152028776e-38
1.388217 -0.413786 0.156474 2.341805152028776e-38
1.386154 -0.420658 0.156443 2.341805152028776e-38
1.381191 -0.426684 0.156104 2.341805152028776e-38
1.377137 -0.433011 0.155884 2.341805152028776e-38
1.375894 -0.440219 0.155983 2.341805152028776e-38
1.373669 -0.447118 0.155971 2.341805152028776e-38
1.367634 -0.452757 0.155527 2.341805152028776e-38
1.365339 -0.459635 0.155516 2.341805152028776e-38
1.363925 -0.466892 0.155631 2.341805152028776e-38
1.359655 -0.473167 0.155420 2.341805152028776e-38
1.356294 -0.479744 0.155313 2.341805152028776e-38
1.352901 -0.486299 0.155202 2.341805152028776e-38
1.352278 -0.493857 0.155410 2.341805152028776e-38
1.349716 -0.500813 0.155425 2.341805152028776e-38
1.346186 -0.507410 0.155329 2.341805152028776e-38
1.345410 -0.515051 0.155552 2.341805152028776e-38
1.343663 -0.522339 0.155664 2.341805152028776e-38
1.340953 -0.529259 0.155664 2.341805152028776e-38
1.339102 -0.536598 0.155786 2.341805152028776e-38
1.333517 -0.542458 0.155482 2.341805152028776e-38
1.330665 -0.549415 0.155495 2.341805152028776e-38
1.328693 -0.556742 0.155611 2.341805152028776e-38
1.325766 -0.563675 0.155616 2.341805152028776e-38
1.323694 -0.571033 0.155736 2.341805152028776e-38
1.319742 -0.577630 0.155649 2.341805152028776e-38
1.318482 -0.585412 0.155879 2.341805152028776e-38
1.315364 -0.592382 0.155890 2.341805152028776e-38
1.311305 -0.598924 0.155789 2.341805152028776e-38
1.306296 -0.605052 0.155585 2.341805152028776e-38
1.304831 -0.612892 0.155820 2.341805152028776e-38
1.304217 -0.621161 0.156158 2.341805152028776e-38
1.299971 -0.627714 0.156061 2.341805152028776e-38
1.296585 -0.634677 0.156068 2.341805152028776e-38
1.294043 -0.642082 0.156182 2.341805152028776e-38
1.291423 -0.649547 0.156308 2.341805152028776e-38
1.287874 -0.656552 0.156322 2.341805152028776e-38
1.283404 -0.663082 0.156224 2.341805152028776e-38
1.280662 -0.670507 0.156336 2.341805152028776e-38
1.278753 -0.678394 0.156552 2.341805152028776e-38
1.275875 -0.685889 0.156675 2.341805152028776e-38
1.273827 -0.693850 0.156901 2.341805152028776e-38
1.272600 -0.702291 0.157229 2.341805152028776e-38
1.266979 -0.708314 0.157016 2.341805152028776e-38
1.260466 -0.713808 0.156690 2.341805152028776e-38
1.253021 -0.718837 0.156269 2.341805152028776e-38
1.248136 -0.725309 0.156167 2.341805152028776e-38
1.244930 -0.732759 0.156276 2.341805152028776e-38
1.241681 -0.740197 0.156380 2.341805152028776e-38
1.232429 -0.744025 0.155726 2.341805152028776e-38
1.272326 -0.777921 0.161320 2.341805152028776e-38
1.338074 -0.828531 0.170246 2.341805152028776e-38
1.973294 -0.383405 0.208689 2.341805152028776e-38
1.860212 -0.370821 0.196855 2.341805152028776e-38
1.781409 -0.364119 0.188640 2.341805152028776e-38
1.649171 -0.345444 0.174754 2.341805152028776e-38
1.492846 -0.320278 0.158298 2.341805152028776e-38
1.433958 -0.314939 0.152161 2.341805152028776e-38
1.422712 -0.319721 0.151077 2.341805152028776e-38
1.412423 -0.324625 0.150095 2.341805152028776e-38
1.408898 -0.331029 0.149834 2.341805152028776e-38
1.408247 -0.338103 0.149881 2.341805152028776e-38
1.408525 -0.345415 0.150029 2.341805152028776e-38
1.406837 -0.352255 0.149970 2.341805152028776e-38
1.403176 -0.358631 0.149720 2.341805152028776e-38
1.399486 -0.364984 0.149470 2.341805152028776e-38
1.396729 -0.371567 0.149321 2.341805152028776e-38
1.393940 -0.378131 0.149171 2.341805152028776e-38
1.392080 -0.384942 0.149122 2.341805152028776e-38
1.391130 -0.392056 0.149189 2.341805152028776e-38
1.390131 -0.399213 0.149271 2.341805152028776e-38
1.386230 -0.405534 0.149042 2.341805152028776e-38
1.387067 -0.413246 0.149324 2.341805152028776e-38
1.386910 -0.420689 0.149501 2.341805152028776e-38
1.381956 -0.426687 0.149167 2.341805152028776e-38
1.377901 -0.433017 0.148958 2.341805152028776e-38
1.374765 -0.439622 0.148848 2.341805152028776e-38
1.372542 -0.446515 0.148838 2.341805152028776e-38
1.371230 -0.453710 0.148928 2.341805152028776e-38
1.367051 -0.459953 0.148707 2.341805152028776e-38
1.365640 -0.467208 0.148814 2.341805152028776e-38
1.361367 -0.473491 0.148614 2.341805152028776e-38
1.358004 -0.480076 0.148513 2.341805152028776e-38
1.352737 -0.485968 0.148203 2.341805152028776e-38
1.352117 -0.493524 0.148402 2.341805152028776e-38
1.351432 -0.501144 0.148615 2.341805152028776e-38
1.350693 -0.508802 0.148833 2.341805152028776e-38
1.348052 -0.515755 0.148842 2.341805152028776e-38
1.345375 -0.522696 0.148847 2.341805152028776e-38
1.341737 -0.529260 0.148746 2.341805152028776e-38
1.338974 -0.536208 0.148755 2.341805152028776e-38
1.335233 -0.542818 0.148670 2.341805152028776e-38
1.332379 -0.549783 0.148683 2.341805152028776e-38
1.327653 -0.555966 0.148488 2.341805152028776e-38
1.326561 -0.563672 0.148699 2.341805152028776e-38
1.322674 -0.570224 0.148604 2.341805152028776e-38
1.323282 -0.578808 0.149034 2.341805152028776e-38
1.319289 -0.585399 0.148948 2.341805152028776e-38
1.317078 -0.592781 0.149062 2.341805152028776e-38
1.310301 -0.598092 0.148659 2.341805152028776e-38
1.307112 -0.605030 0.148665 2.341805152028776e-38
1.306549 -0.613296 0.148993 2.341805152028776e-38
1.303240 -0.620293 0.149009 2.341805152028776e-38
1.299894 -0.627272 0.149020 2.341805152028776e-38
1.296510 -0.634235 0.149028 2.341805152028776e-38
1.294871 -0.642064 0.149236 2.341805152028776e-38
1.292253 -0.649531 0.149357 2.341805152028776e-38
1.287818 -0.656089 0.149269 2.341805152028776e-38
1.284234 -0.663075 0.149279 2.341805152028776e-38
1.283255 -0.671427 0.149592 2.341805152028776e-38
1.280467 -0.678856 0.149696 2.341805152028776e-38
1.277595 -0.686347 0.149812 2.341805152028776e-38
1.273798 -0.693366 0.149823 2.341805152028776e-38
1.271704 -0.701326 0.150035 2.341805152028776e-38
1.265219 -0.706859 0.149729 2.341805152028776e-38
1.259578 -0.712833 0.149521 2.341805152028776e-38
1.253873 -0.718828 0.149322 2.341805152028776e-38
1.249847 -0.725805 0.149328 2.341805152028776e-38
1.245782 -0.732760 0.149330 2.341805152028776e-38
1.241678 -0.739693 0.149328 2.341805152028776e-38
1.232426 -0.743521 0.148704 2.341805152028776e-38
1.265577 -0.773251 0.153225 2.341805152028776e-38
1.326325 -0.820683 0.161139 2.341805152028776e-38
1.979166 -0.384417 0.199508 2.341805152028776e-38
1.862119 -0.371076 0.187829 2.341805152028776e-38
1.784251 -0.364577 0.180092 2.341805152028776e-38
1.650971 -0.345705 0.166752 2.341805152028776e-38
1.495540 -0.320748 0.151157 2.341805152028776e-38
1.435650 -0.315204 0.145206 2.341805152028776e-38
1.424398 -0.319992 0.144172 2.341805152028776e-38
1.414103 -0.324901 0.143236 2.341805152028776e-38
1.411544 -0.331539 0.143085 2.341805152028776e-38
1.408955 -0.338159 0.142933 2.341805152028776e-38
1.409235 -0.345472 0.143074 2.341805152028776e-38
1.406580 -0.352072 0.142920 2.341805152028776e-38
1.405818 -0.359166 0.142969 2.341805152028776e-38
1.405013 -0.366283 0.143025 2.341805152028776e-38
1.400325 -0.372379 0.142687 2.341805152028776e-38
1.396572 -0.378699 0.142446 2.341805152028776e-38
1.396627 -0.386051 0.142596 2.341805152028776e-38
1.392809 -0.392344 0.142355 2.341805152028776e-38
1.389895 -0.398960 0.142238 2.341805152028776e-38
1.387905 -0.405837 0.142216 2.341805152028776e-38
1.390650 -0.414124 0.142682 2.341805152028776e-38
1.388585 -0.421006 0.142655 2.341805152028776e-38
1.384584 -0.427291 0.142430 2.341805152028776e-38
1.379580 -0.433320 0.142129 2.341805152028776e-38
1.377390 -0.440236 0.142123 2.341805152028776e-38
1.373271 -0.446526 0.141919 2.341805152028776e-38
1.370070 -0.453099 0.141810 2.341805152028776e-38
1.367780 -0.459970 0.141795 2.341805152028776e-38
1.366379 -0.467201 0.141891 2.341805152028776e-38
1.363045 -0.473815 0.141799 2.341805152028776e-38
1.359680 -0.480408 0.141703 2.341805152028776e-38
1.354409 -0.486307 0.141409 2.341805152028776e-38
1.354724 -0.494213 0.141697 2.341805152028776e-38
1.353114 -0.501475 0.141796 2.341805152028776e-38
1.350511 -0.508440 0.141810 2.341805152028776e-38
1.350660 -0.516459 0.142113 2.341805152028776e-38
1.345197 -0.522332 0.141825 2.341805152028776e-38
1.344338 -0.529989 0.142023 2.341805152028776e-38
1.342505 -0.537298 0.142124 2.341805152028776e-38
1.336914 -0.543176 0.141849 2.341805152028776e-38
1.333138 -0.549771 0.141765 2.341805152028776e-38
1.328411 -0.555958 0.141579 2.341805152028776e-38
1.325488 -0.562890 0.141586 2.341805152028776e-38
1.322528 -0.569808 0.141589 2.341805152028776e-38
1.321317 -0.577594 0.141805 2.341805152028776e-38
1.319150 -0.584982 0.141919 2.341805152028776e-38
1.316941 -0.592363 0.142029 2.341805152028776e-38
1.311070 -0.598087 0.141743 2.341805152028776e-38
1.309692 -0.605855 0.141943 2.341805152028776e-38
1.307329 -0.613278 0.142059 2.341805152028776e-38
1.304021 -0.620279 0.142075 2.341805152028776e-38
1.302467 -0.628127 0.142283 2.341805152028776e-38
1.299079 -0.635103 0.142291 2.341805152028776e-38
1.296545 -0.642504 0.142393 2.341805152028776e-38
1.293935 -0.649961 0.142505 2.341805152028776e-38
1.290384 -0.656979 0.142519 2.341805152028776e-38
1.287679 -0.664436 0.142628 2.341805152028776e-38
1.284050 -0.671423 0.142634 2.341805152028776e-38
1.279502 -0.677924 0.142538 2.341805152028776e-38
1.274893 -0.684451 0.142449 2.341805152028776e-38
1.271980 -0.691931 0.142559 2.341805152028776e-38
1.269896 -0.699881 0.142762 2.341805152028776e-38
1.265155 -0.706374 0.142667 2.341805152028776e-38
1.262115 -0.713817 0.142763 2.341805152028776e-38
1.256413 -0.719809 0.142571 2.341805152028776e-38
1.253242 -0.727299 0.142676 2.341805152028776e-38
1.248311 -0.733768 0.142581 2.341805152028776e-38
1.243346 -0.740206 0.142481 2.341805152028776e-38
1.233235 -0.743529 0.141789 2.341805152028776e-38
1.267271 -0.773766 0.146195 2.341805152028776e-38
1.283199 -0.793467 0.148549 2.341805152028776e-38
1.980108 -0.384477 0.189805 2.341805152028776e-38
1.855195 -0.369578 0.177945 2.341805152028776e-38
1.769494 -0.361446 0.169836 2.341805152028776e-38
1.643963 -0.344128 0.157894 2.341805152028776e-38
1.498201 -0.321216 0.143993 2.341805152028776e-38
1.436336 -0.315253 0.138145 2.341805152028776e-38
1.424107 -0.319824 0.137068 2.341805152028776e-38
1.415750 -0.325175 0.136364 2.341805152028776e-38
1.412220 -0.331591 0.136127 2.341805152028776e-38
1.408662 -0.337980 0.135889 2.341805152028776e-38
1.408944 -0.345290 0.136023 2.341805152028776e-38
1.406290 -0.351885 0.135876 2.341805152028776e-38
1.406498 -0.359206 0.136010 2.341805152028776e-38
1.403766 -0.365823 0.135877 2.341805152028776e-38
1.401004 -0.372422 0.135743 2.341805152028776e-38
1.399171 -0.379264 0.135700 2.341805152028776e-38
1.396346 -0.385833 0.135563 2.341805152028776e-38
1.392531 -0.392112 0.135331 2.341805152028776e-38
1.391538 -0.399254 0.135399 2.341805152028776e-38
1.387635 -0.405579 0.135193 2.341805152028776e-38
1.388475 -0.413297 0.135450 2.341805152028776e-38
1.385462 -0.419878 0.135332 2.341805152028776e-38
1.384319 -0.427027 0.135399 2.341805152028776e-38
1.381226 -0.433622 0.135290 2.341805152028776e-38
1.379034 -0.440546 0.135286 2.341805152028776e-38
1.373966 -0.446536 0.134999 2.341805152028776e-38
1.371709 -0.453424 0.134989 2.341805152028776e-38
1.369418 -0.460302 0.134976 2.341805152028776e-38
1.367083 -0.467193 0.134967 2.341805152028776e-38
1.362808 -0.473483 0.134787 2.341805152028776e-38
1.362261 -0.481070 0.134976 2.341805152028776e-38
1.356048 -0.486646 0.134604 2.341805152028776e-38
1.357298 -0.494901 0.134973 2.341805152028776e-38
1.354761 -0.501805 0.134968 2.341805152028776e-38
1.352156 -0.508779 0.134982 2.341805152028776e-38
1.349515 -0.515740 0.134992 2.341805152028776e-38
1.345910 -0.522328 0.134906 2.341805152028776e-38
1.344126 -0.529623 0.135002 2.341805152028776e-38
1.338604 -0.535436 0.134723 2.341805152028776e-38
1.334869 -0.542036 0.134646 2.341805152028776e-38
1.332940 -0.549379 0.134753 2.341805152028776e-38
1.329132 -0.555949 0.134671 2.341805152028776e-38
1.328043 -0.563663 0.134864 2.341805152028776e-38
1.323250 -0.569806 0.134681 2.341805152028776e-38
1.322049 -0.577576 0.134883 2.341805152028776e-38
1.319883 -0.584967 0.134992 2.341805152028776e-38
1.318583 -0.592761 0.135191 2.341805152028776e-38
1.313614 -0.598906 0.135014 2.341805152028776e-38
1.310425 -0.605852 0.135018 2.341805152028776e-38
1.308073 -0.613260 0.135125 2.341805152028776e-38
1.303865 -0.619837 0.135048 2.341805152028776e-38
1.299624 -0.626388 0.134968 2.341805152028776e-38
1.298929 -0.634660 0.135255 2.341805152028776e-38
1.297290 -0.642502 0.135446 2.341805152028776e-38
1.293801 -0.649497 0.135457 2.341805152028776e-38
1.290252 -0.656515 0.135471 2.341805152028776e-38
1.287551 -0.663971 0.135575 2.341805152028776e-38
1.284806 -0.671418 0.135675 2.341805152028776e-38
1.278498 -0.676992 0.135398 2.341805152028776e-38
1.273026 -0.683025 0.135218 2.341805152028776e-38
1.270996 -0.690970 0.135416 2.341805152028776e-38
1.271535 -0.700356 0.135890 2.341805152028776e-38
1.266791 -0.706858 0.135800 2.341805152028776e-38
1.262881 -0.713820 0.135800 2.341805152028776e-38
1.258917 -0.720789 0.135801 2.341805152028776e-38
1.253157 -0.726794 0.135622 2.341805152028776e-38
1.248228 -0.733263 0.135532 2.341805152028776e-38
1.242410 -0.739191 0.135345 2.341805152028776e-38
1.233154 -0.743023 0.134781 2.341805152028776e-38
1.266376 -0.772725 0.138877 2.341805152028776e-38
1.278935 -0.790327 0.140743 2.341805152028776e-38
2.012293 -0.390608 0.182943 2.341805152028776e-38
1.873618 -0.373135 0.170444 2.341805152028776e-38
1.783958 -0.364290 0.162394 2.341805152028776e-38
1.658357 -0.347035 0.151062 2.341805152028776e-38
1.499855 -0.321472 0.136718 2.341805152028776e-38
1.437960 -0.315514 0.131169 2.341805152028776e-38
1.425725 -0.320090 0.130147 2.341805152028776e-38
1.418334 -0.325670 0.129567 2.341805152028776e-38
1.412862 -0.331640 0.129165 2.341805152028776e-38
1.410272 -0.338262 0.129028 2.341805152028776e-38
1.410553 -0.345578 0.129155 2.341805152028776e-38
1.409829 -0.352663 0.129193 2.341805152028776e-38
1.408106 -0.359502 0.129142 2.341805152028776e-38
1.407304 -0.366615 0.129188 2.341805152028776e-38
1.402611 -0.372719 0.128884 2.341805152028776e-38
1.400777 -0.379567 0.128844 2.341805152028776e-38
1.399870 -0.386672 0.128891 2.341805152028776e-38
1.396050 -0.392967 0.128671 2.341805152028776e-38
1.393148 -0.399547 0.128550 2.341805152028776e-38
1.389243 -0.405879 0.128355 2.341805152028776e-38
1.389128 -0.413319 0.128511 2.341805152028776e-38
1.388974 -0.420769 0.128665 2.341805152028776e-38
1.387828 -0.427934 0.128728 2.341805152028776e-38
1.385688 -0.434817 0.128706 2.341805152028776e-38
1.382541 -0.441460 0.128614 2.341805152028776e-38
1.376520 -0.447159 0.128255 2.341805152028776e-38
1.374260 -0.454060 0.128246 2.341805152028776e-38
1.370077 -0.460316 0.128058 2.341805152028776e-38
1.368694 -0.467507 0.128132 2.341805152028776e-38
1.369122 -0.475439 0.128403 2.341805152028776e-38
1.364808 -0.481731 0.128231 2.341805152028776e-38
1.360466 -0.487992 0.128055 2.341805152028776e-38
1.358902 -0.495246 0.128141 2.341805152028776e-38
1.356366 -0.502152 0.128135 2.341805152028776e-38
1.352834 -0.508767 0.128057 2.341805152028776e-38
1.349262 -0.515376 0.127979 2.341805152028776e-38
1.342873 -0.520882 0.127633 2.341805152028776e-38
1.342950 -0.528892 0.127902 2.341805152028776e-38
1.342056 -0.536547 0.128079 2.341805152028776e-38
1.337401 -0.542769 0.127914 2.341805152028776e-38
1.335468 -0.550125 0.128017 2.341805152028776e-38
1.335332 -0.558246 0.128292 2.341805152028776e-38
1.331480 -0.564824 0.128212 2.341805152028776e-38
1.326681 -0.570985 0.128039 2.341805152028776e-38
1.325484 -0.578753 0.128227 2.341805152028776e-38
1.324222 -0.586566 0.128420 2.341805152028776e-38
1.319281 -0.592750 0.128256 2.341805152028776e-38
1.317937 -0.600551 0.128442 2.341805152028776e-38
1.314738 -0.607520 0.128447 2.341805152028776e-38
1.311485 -0.614509 0.128457 2.341805152028776e-38
1.307270 -0.621105 0.128385 2.341805152028776e-38
1.304817 -0.628539 0.128486 2.341805152028776e-38
1.301426 -0.635527 0.128495 2.341805152028776e-38
1.298891 -0.642941 0.128588 2.341805152028776e-38
1.295409 -0.649927 0.128595 2.341805152028776e-38
1.290970 -0.656502 0.128522 2.341805152028776e-38
1.288268 -0.663962 0.128621 2.341805152028776e-38
1.285524 -0.671413 0.128717 2.341805152028776e-38
1.279215 -0.676991 0.128455 2.341805152028776e-38
1.278140 -0.685364 0.128723 2.341805152028776e-38
1.276099 -0.693338 0.128912 2.341805152028776e-38
1.274009 -0.701310 0.129097 2.341805152028776e-38
1.268389 -0.707341 0.128924 2.341805152028776e-38
1.265344 -0.714802 0.129013 2.341805152028776e-38
1.259654 -0.720779 0.128835 2.341805152028776e-38
1.255617 -0.727787 0.128843 2.341805152028776e-38
1.252400 -0.735279 0.128935 2.341805152028776e-38
1.247426 -0.741739 0.128847 2.341805152028776e-38
1.236445 -0.744570 0.128135 2.341805152028776e-38
1.266290 -0.772202 0.131666 2.341805152028776e-38
1.264454 -0.780906 0.131934 2.341805152028776e-38
2.075760 -0.402812 0.178461 2.341805152028776e-38
1.889080 -0.376106 0.162515 2.341805152028776e-38
1.786675 -0.364740 0.153806 2.341805152028776e-38
1.653216 -0.345860 0.142413 2.341805152028776e-38
1.502447 -0.321935 0.129514 2.341805152028776e-38
1.439551 -0.315772 0.124180 2.341805152028776e-38
1.427311 -0.320353 0.123213 2.341805152028776e-38
1.419916 -0.325938 0.122665 2.341805152028776e-38
1.415411 -0.332142 0.122368 2.341805152028776e-38
1.412818 -0.338775 0.122238 2.341805152028776e-38
1.412129 -0.345864 0.122275 2.341805152028776e-38
1.411405 -0.352954 0.122311 2.341805152028776e-38
1.409680 -0.359800 0.122262 2.341805152028776e-38
1.406952 -0.366401 0.122134 2.341805152028776e-38
1.403223 -0.372757 0.121930 2.341805152028776e-38
