VERSION .7
FIELDS x y z rgb
SIZE 4 4 4 4
TYPE F F F F
COUNT 1 1 1 1
WIDTH 945
HEIGHT 1
VIEWPOINT 0 0 0 1 0 0 0
POINTS 945
DATA ascii
1.420281 0.079281 -0.099962 2.341805152028776e-38
1.420648 0.072393 -0.099971 2.341805152028776e-38
1.419985 0.065457 -0.099909 2.341805152028776e-38
1.421282 0.058612 -0.099986 2.341805152028776e-38
1.419556 0.051648 -0.099852 2.341805152028776e-38
1.417795 0.044701 -0.099717 2.341805152028776e-38
1.417995 0.037826 -0.099722 2.341805152028776e-38
1.417164 0.030928 -0.099656 2.341805152028776e-38
1.417297 0.024056 -0.099659 2.341805152028776e-38
1.414404 0.017147 -0.099451 2.341805152028776e-38
1.412476 0.010274 -0.099312 2.341805152028776e-38
1.412509 0.003425 -0.099313 2.341805152028776e-38
1.413506 -0.003427 -0.099383 2.341805152028776e-38
1.413473 -0.010281 -0.099382 2.341805152028776e-38
1.415402 -0.017159 -0.099521 2.341805152028776e-38
1.415302 -0.024022 -0.099518 2.341805152028776e-38
1.412177 -0.030819 -0.099305 2.341805152028776e-38
1.413009 -0.037693 -0.099371 2.341805152028776e-38
1.413807 -0.044575 -0.099437 2.341805152028776e-38
1.417562 -0.051575 -0.099712 2.341805152028776e-38
1.418292 -0.058489 -0.099776 2.341805152028776e-38
1.418989 -0.065412 -0.099839 2.341805152028776e-38
1.415667 -0.072139 -0.099621 2.341805152028776e-38
1.416297 -0.079058 -0.099682 2.341805152028776e-38
1.417889 -0.086046 -0.099813 2.341805152028776e-38
1.419447 -0.093050 -0.099943 2.341805152028776e-38
1.414999 -0.099652 -0.099652 2.341805152028776e-38
1.415495 -0.106587 -0.099710 2.341805152028776e-38
1.414962 -0.113449 -0.099698 2.341805152028776e-38
1.416385 -0.120478 -0.099824 2.341805152028776e-38
1.414791 -0.127255 -0.099740 2.341805152028776e-38
1.415152 -0.134208 -0.099796 2.341805152028776e-38
1.415478 -0.141167 -0.099850 2.341805152028776e-38
1.414778 -0.148029 -0.099834 2.341805152028776e-38
1.412061 -0.154670 -0.099676 2.341805152028776e-38
1.410305 -0.161402 -0.099589 2.341805152028776e-38
1.410498 -0.168357 -0.099640 2.341805152028776e-38
1.409666 -0.175194 -0.099620 2.341805152028776e-38
1.408802 -0.182028 -0.099600 2.341805152028776e-38
1.407904 -0.188857 -0.099579 2.341805152028776e-38
1.409937 -0.196094 -0.099767 2.341805152028776e-38
1.409959 -0.203070 -0.099814 2.341805152028776e-38
1.406986 -0.209611 -0.099651 2.341805152028776e-38
1.407926 -0.216734 -0.099767 2.341805152028776e-38
1.407846 -0.223715 -0.099811 2.341805152028776e-38
1.409700 -0.231023 -0.099995 2.341805152028776e-38
1.407581 -0.237690 -0.099899 2.341805152028776e-38
1.407397 -0.244684 -0.099941 2.341805152028776e-38
1.406196 -0.251505 -0.099913 2.341805152028776e-38
1.409867 -0.259223 -0.100233 2.341805152028776e-38
1.416438 -0.267537 -0.100761 2.341805152028776e-38
1.423940 -0.276112 -0.101357 2.341805152028776e-38
1.497923 -0.298001 -0.106692 2.341805152028776e-38
1.652853 -0.337163 -0.117804 2.341805152028776e-38
1.777166 -0.371505 -0.126749 2.341805152028776e-38
1.744431 0.234054 -0.131921 2.341805152028776e-38
1.664448 0.215110 -0.125819 2.341805152028776e-38
1.547709 0.192396 -0.116947 2.341805152028776e-38
1.470399 0.175548 -0.111061 2.341805152028776e-38
1.435565 0.164332 -0.108389 2.341805152028776e-38
1.426431 0.156281 -0.107660 2.341805152028776e-38
1.420229 0.148635 -0.107155 2.341805152028776e-38
1.417955 0.141448 -0.106948 2.341805152028776e-38
1.417630 0.134475 -0.106890 2.341805152028776e-38
1.417271 0.127508 -0.106831 2.341805152028776e-38
1.414891 0.120379 -0.106622 2.341805152028776e-38
1.416451 0.113595 -0.106711 2.341805152028776e-38
1.416984 0.106724 -0.106724 2.341805152028776e-38
1.419474 0.099990 -0.106886 2.341805152028776e-38
1.418946 0.093039 -0.106823 2.341805152028776e-38
1.417389 0.086036 -0.106684 2.341805152028776e-38
1.418785 0.079216 -0.106769 2.341805152028776e-38
1.418156 0.072283 -0.106703 2.341805152028776e-38
1.417493 0.065358 -0.106637 2.341805152028776e-38
1.413807 0.058318 -0.106344 2.341805152028776e-38
1.414073 0.051460 -0.106351 2.341805152028776e-38
1.415302 0.044633 -0.106432 2.341805152028776e-38
1.414505 0.037741 -0.106362 2.341805152028776e-38
1.413674 0.030859 -0.106291 2.341805152028776e-38
1.415801 0.024036 -0.106444 2.341805152028776e-38
1.417895 0.017193 -0.106597 2.341805152028776e-38
1.415967 0.010301 -0.106448 2.341805152028776e-38
1.413009 0.003427 -0.106224 2.341805152028776e-38
1.414006 -0.003429 -0.106299 2.341805152028776e-38
1.415967 -0.010301 -0.106448 2.341805152028776e-38
1.414903 -0.017157 -0.106372 2.341805152028776e-38
1.412810 -0.023985 -0.106219 2.341805152028776e-38
1.412677 -0.030837 -0.106216 2.341805152028776e-38
1.413508 -0.037715 -0.106287 2.341805152028776e-38
1.416299 -0.044664 -0.106507 2.341805152028776e-38
1.418059 -0.051605 -0.106651 2.341805152028776e-38
1.417793 -0.058482 -0.106644 2.341805152028776e-38
1.416497 -0.065312 -0.106562 2.341805152028776e-38
1.417160 -0.072232 -0.106628 2.341805152028776e-38
1.415798 -0.079049 -0.106544 2.341805152028776e-38
1.416394 -0.085975 -0.106609 2.341805152028776e-38
1.416956 -0.092909 -0.106673 2.341805152028776e-38
1.415495 -0.099710 -0.106587 2.341805152028776e-38
1.415990 -0.106649 -0.106649 2.341805152028776e-38
1.417445 -0.113675 -0.106785 2.341805152028776e-38
1.416878 -0.120548 -0.106771 2.341805152028776e-38
1.416278 -0.127419 -0.106756 2.341805152028776e-38
1.415645 -0.134286 -0.106740 2.341805152028776e-38
1.415970 -0.141250 -0.106799 2.341805152028776e-38
1.413286 -0.147908 -0.106631 2.341805152028776e-38
1.411562 -0.154652 -0.106538 2.341805152028776e-38
1.412779 -0.161723 -0.106669 2.341805152028776e-38
1.414950 -0.168928 -0.106873 2.341805152028776e-38
1.410157 -0.175297 -0.106553 2.341805152028776e-38
1.410281 -0.182262 -0.106606 2.341805152028776e-38
1.410370 -0.189232 -0.106658 2.341805152028776e-38
1.410425 -0.196208 -0.106710 2.341805152028776e-38
1.408472 -0.202904 -0.106611 2.341805152028776e-38
1.408459 -0.209880 -0.106660 2.341805152028776e-38
1.408412 -0.216861 -0.106709 2.341805152028776e-38
1.410301 -0.224159 -0.106906 2.341805152028776e-38
1.408215 -0.230835 -0.106804 2.341805152028776e-38
1.408064 -0.237828 -0.106850 2.341805152028776e-38
1.406896 -0.244655 -0.106821 2.341805152028776e-38
1.408640 -0.252002 -0.107015 2.341805152028776e-38
1.409365 -0.259192 -0.107133 2.341805152028776e-38
1.413973 -0.267136 -0.107548 2.341805152028776e-38
1.418537 -0.275130 -0.107962 2.341805152028776e-38
1.487608 -0.296020 -0.113291 2.341805152028776e-38
1.630768 -0.332737 -0.124275 2.341805152028776e-38
1.758961 -0.367788 -0.134134 2.341805152028776e-38
1.737844 0.233229 -0.139938 2.341805152028776e-38
1.655910 0.214061 -0.133283 2.341805152028776e-38
1.549103 0.192618 -0.124635 2.341805152028776e-38
1.462916 0.174699 -0.117654 2.341805152028776e-38
1.429082 0.163631 -0.114890 2.341805152028776e-38
1.419948 0.155610 -0.114114 2.341805152028776e-38
1.414736 0.148097 -0.113656 2.341805152028776e-38
1.414445 0.141133 -0.113595 2.341805152028776e-38
1.414119 0.134175 -0.113533 2.341805152028776e-38
1.414752 0.127313 -0.113550 2.341805152028776e-38
1.415352 0.120449 -0.113566 2.341805152028776e-38
1.415918 0.113581 -0.113581 2.341805152028776e-38
1.415457 0.106636 -0.113515 2.341805152028776e-38
1.416951 0.099838 -0.113608 2.341805152028776e-38
1.414434 0.092767 -0.113382 2.341805152028776e-38
1.413871 0.085844 -0.113313 2.341805152028776e-38
1.413275 0.078928 -0.113244 2.341805152028776e-38
1.414636 0.072122 -0.113334 2.341805152028776e-38
1.412977 0.065166 -0.113183 2.341805152028776e-38
1.412280 0.058269 -0.113111 2.341805152028776e-38
1.412545 0.051417 -0.113118 2.341805152028776e-38
1.412778 0.044564 -0.113125 2.341805152028776e-38
1.410984 0.037657 -0.112970 2.341805152028776e-38
1.414139 0.030877 -0.113214 2.341805152028776e-38
1.415269 0.024033 -0.113297 2.341805152028776e-38
1.415369 0.017167 -0.113300 2.341805152028776e-38
1.412445 0.010278 -0.113063 2.341805152028776e-38
1.412478 0.003426 -0.113063 2.341805152028776e-38
1.412478 -0.003426 -0.113063 2.341805152028776e-38
1.412445 -0.010278 -0.113063 2.341805152028776e-38
1.410385 -0.017106 -0.112901 2.341805152028776e-38
1.412279 -0.023982 -0.113058 2.341805152028776e-38
1.412146 -0.030833 -0.113055 2.341805152028776e-38
1.414970 -0.037763 -0.113290 2.341805152028776e-38
1.415767 -0.044659 -0.113364 2.341805152028776e-38
1.414538 -0.051490 -0.113278 2.341805152028776e-38
1.415268 -0.058393 -0.113351 2.341805152028776e-38
1.417956 -0.065396 -0.113582 2.341805152028776e-38
1.414636 -0.072122 -0.113334 2.341805152028776e-38
1.416261 -0.079095 -0.113484 2.341805152028776e-38
1.415861 -0.085964 -0.113473 2.341805152028776e-38
1.415428 -0.092832 -0.113461 2.341805152028776e-38
1.415957 -0.099768 -0.113529 2.341805152028776e-38
1.417445 -0.106785 -0.113675 2.341805152028776e-38
1.416912 -0.113661 -0.113661 2.341805152028776e-38
1.416345 -0.120533 -0.113646 2.341805152028776e-38
1.414752 -0.127313 -0.113550 2.341805152028776e-38
1.415111 -0.134270 -0.113613 2.341805152028776e-38
1.412461 -0.140935 -0.113436 2.341805152028776e-38
1.411762 -0.147786 -0.113417 2.341805152028776e-38
1.411030 -0.154633 -0.113397 2.341805152028776e-38
1.412246 -0.161703 -0.113536 2.341805152028776e-38
1.410456 -0.168434 -0.113435 2.341805152028776e-38
1.409624 -0.175275 -0.113413 2.341805152028776e-38
1.408759 -0.182111 -0.113390 2.341805152028776e-38
1.410825 -0.189341 -0.113605 2.341805152028776e-38
1.407917 -0.195909 -0.113421 2.341805152028776e-38
1.408926 -0.203021 -0.113554 2.341805152028776e-38
1.406940 -0.209707 -0.113448 2.341805152028776e-38
1.408864 -0.216985 -0.113659 2.341805152028776e-38
1.406813 -0.223661 -0.113551 2.341805152028776e-38
1.408665 -0.230967 -0.113760 2.341805152028776e-38
1.405564 -0.237466 -0.113571 2.341805152028776e-38
1.405380 -0.244453 -0.113619 2.341805152028776e-38
1.406143 -0.251620 -0.113746 2.341805152028776e-38
1.406869 -0.258799 -0.113872 2.341805152028776e-38
1.409518 -0.266362 -0.114155 2.341805152028776e-38
1.409191 -0.273387 -0.114199 2.341805152028776e-38
1.465533 -0.291701 -0.118841 2.341805152028776e-38
1.599868 -0.326516 -0.129820 2.341805152028776e-38
1.729019 -0.361620 -0.140393 2.341805152028776e-38
1.745047 0.234259 -0.149074 2.341805152028776e-38
1.676986 0.216843 -0.143199 2.341805152028776e-38
1.564303 0.194560 -0.133522 2.341805152028776e-38
1.465297 0.175030 -0.125022 2.341805152028776e-38
1.426529 0.163382 -0.121668 2.341805152028776e-38
1.418388 0.155481 -0.120930 2.341805152028776e-38
1.412187 0.147870 -0.120359 2.341805152028776e-38
1.411895 0.140916 -0.120294 2.341805152028776e-38
1.412561 0.134063 -0.120313 2.341805152028776e-38
1.413193 0.127207 -0.120331 2.341805152028776e-38
1.412799 0.120264 -0.120264 2.341805152028776e-38
1.412372 0.113327 -0.120195 2.341805152028776e-38
1.412904 0.106472 -0.120210 2.341805152028776e-38
1.414397 0.099684 -0.120309 2.341805152028776e-38
1.413868 0.092755 -0.120237 2.341805152028776e-38
1.414301 0.085893 -0.120250 2.341805152028776e-38
1.412710 0.078917 -0.120092 2.341805152028776e-38
1.415066 0.072163 -0.120271 2.341805152028776e-38
1.414403 0.065249 -0.120196 2.341805152028776e-38
1.414702 0.058385 -0.120204 2.341805152028776e-38
1.411981 0.051411 -0.119958 2.341805152028776e-38
1.412214 0.044558 -0.119965 2.341805152028776e-38
1.413409 0.037732 -0.120055 2.341805152028776e-38
1.414571 0.030894 -0.120144 2.341805152028776e-38
1.413708 0.024013 -0.120063 2.341805152028776e-38
1.412811 0.017140 -0.119982 2.341805152028776e-38
1.411881 0.010277 -0.119899 2.341805152028776e-38
1.412910 0.003428 -0.119984 2.341805152028776e-38
1.413907 -0.003431 -0.120069 2.341805152028776e-38
1.414870 -0.010299 -0.120153 2.341805152028776e-38
1.413807 -0.017152 -0.120066 2.341805152028776e-38
1.413708 -0.024013 -0.120063 2.341805152028776e-38
1.415567 -0.030916 -0.120229 2.341805152028776e-38
1.415401 -0.037785 -0.120224 2.341805152028776e-38
1.415201 -0.044653 -0.120219 2.341805152028776e-38
1.415964 -0.051556 -0.120297 2.341805152028776e-38
1.416694 -0.058467 -0.120374 2.341805152028776e-38
1.418385 -0.065433 -0.120534 2.341805152028776e-38
1.417056 -0.072264 -0.120440 2.341805152028776e-38
1.416690 -0.079140 -0.120430 2.341805152028776e-38
1.414301 -0.085893 -0.120250 2.341805152028776e-38
1.415857 -0.092885 -0.120406 2.341805152028776e-38
1.415391 -0.099754 -0.120393 2.341805152028776e-38
1.414891 -0.106622 -0.120379 2.341805152028776e-38
1.414358 -0.113486 -0.120364 2.341805152028776e-38
1.416771 -0.120602 -0.120602 2.341805152028776e-38
1.415178 -0.127386 -0.120500 2.341805152028776e-38
1.414545 -0.134252 -0.120482 2.341805152028776e-38
1.412887 -0.141015 -0.120379 2.341805152028776e-38
1.413178 -0.147974 -0.120444 2.341805152028776e-38
1.410464 -0.154612 -0.120254 2.341805152028776e-38
1.410689 -0.161568 -0.120317 2.341805152028776e-38
1.410880 -0.168530 -0.120379 2.341805152028776e-38
1.411036 -0.175498 -0.120440 2.341805152028776e-38
1.412147 -0.182598 -0.120584 2.341805152028776e-38
1.412234 -0.189581 -0.120643 2.341805152028776e-38
1.411299 -0.196432 -0.120616 2.341805152028776e-38
1.409346 -0.203136 -0.120505 2.341805152028776e-38
1.408346 -0.209973 -0.120476 2.341805152028776e-38
1.408298 -0.216956 -0.120531 2.341805152028776e-38
1.406247 -0.223631 -0.120417 2.341805152028776e-38
1.407114 -0.230775 -0.120554 2.341805152028776e-38
1.406963 -0.237767 -0.120606 2.341805152028776e-38
1.406777 -0.244762 -0.120658 2.341805152028776e-38
1.406557 -0.251762 -0.120708 2.341805152028776e-38
1.407281 -0.258945 -0.120841 2.341805152028776e-38
1.406011 -0.265771 -0.120805 2.341805152028776e-38
1.400795 -0.271832 -0.120432 2.341805152028776e-38
1.456145 -0.289911 -0.125270 2.341805152028776e-38
1.592386 -0.325077 -0.137081 2.341805152028776e-38
1.732220 -0.362388 -0.149218 2.341805152028776e-38
1.749241 0.234889 -0.158016 2.341805152028776e-38
1.686151 0.218091 -0.152252 2.341805152028776e-38
1.568580 0.195147 -0.141578 2.341805152028776e-38
1.466652 0.175242 -0.132326 2.341805152028776e-38
1.422954 0.163019 -0.128334 2.341805152028776e-38
1.415806 0.155242 -0.127643 2.341805152028776e-38
1.412579 0.147953 -0.127308 2.341805152028776e-38
1.411296 0.140897 -0.127151 2.341805152028776e-38
1.409979 0.133856 -0.126992 2.341805152028776e-38
1.412594 0.127189 -0.127189 2.341805152028776e-38
1.410216 0.120078 -0.126939 2.341805152028776e-38
1.411773 0.113311 -0.127045 2.341805152028776e-38
1.413298 0.106532 -0.127151 2.341805152028776e-38
1.415785 0.099810 -0.127344 2.341805152028776e-38
1.415257 0.092872 -0.127269 2.341805152028776e-38
1.413702 0.085880 -0.127103 2.341805152028776e-38
1.410123 0.078795 -0.126757 2.341805152028776e-38
1.413472 0.072102 -0.127037 2.341805152028776e-38
1.411815 0.065148 -0.126868 2.341805152028776e-38
1.409128 0.058171 -0.126608 2.341805152028776e-38
1.409393 0.051331 -0.126616 2.341805152028776e-38
1.410621 0.044521 -0.126713 2.341805152028776e-38
1.410820 0.037673 -0.126719 2.341805152028776e-38
1.408994 0.030781 -0.126545 2.341805152028776e-38
1.407135 0.023908 -0.126370 2.341805152028776e-38
1.409226 0.017102 -0.126552 2.341805152028776e-38
1.409292 0.010261 -0.126554 2.341805152028776e-38
1.412313 0.003428 -0.126823 2.341805152028776e-38
1.413309 -0.003430 -0.126912 2.341805152028776e-38
1.413276 -0.010290 -0.126911 2.341805152028776e-38
1.413209 -0.017150 -0.126909 2.341805152028776e-38
1.411118 -0.023975 -0.126727 2.341805152028776e-38
1.411981 -0.030846 -0.126813 2.341805152028776e-38
1.411815 -0.037700 -0.126808 2.341805152028776e-38
1.412612 -0.044583 -0.126891 2.341805152028776e-38
1.414370 -0.051512 -0.127063 2.341805152028776e-38
1.415099 -0.058418 -0.127145 2.341805152028776e-38
1.415795 -0.065332 -0.127225 2.341805152028776e-38
1.414467 -0.072153 -0.127126 2.341805152028776e-38
1.414101 -0.079017 -0.127115 2.341805152028776e-38
1.412708 -0.085820 -0.127014 2.341805152028776e-38
1.414263 -0.092807 -0.127180 2.341805152028776e-38
1.412804 -0.099600 -0.127076 2.341805152028776e-38
1.412305 -0.106457 -0.127061 2.341805152028776e-38
1.412766 -0.113390 -0.127135 2.341805152028776e-38
1.414186 -0.120416 -0.127297 2.341805152028776e-38
1.411602 -0.127100 -0.127100 2.341805152028776e-38
1.413945 -0.134233 -0.127349 2.341805152028776e-38
1.412287 -0.140995 -0.127240 2.341805152028776e-38
1.411588 -0.147849 -0.127219 2.341805152028776e-38
1.408876 -0.154482 -0.127019 2.341805152028776e-38
1.411080 -0.161659 -0.127263 2.341805152028776e-38
1.410281 -0.168506 -0.127240 2.341805152028776e-38
1.411425 -0.175596 -0.127393 2.341805152028776e-38
1.410559 -0.182445 -0.127367 2.341805152028776e-38
1.411633 -0.189555 -0.127519 2.341805152028776e-38
1.409712 -0.196267 -0.127401 2.341805152028776e-38
1.408746 -0.203108 -0.127373 2.341805152028776e-38
1.406761 -0.209796 -0.127254 2.341805152028776e-38
1.407697 -0.216926 -0.127401 2.341805152028776e-38
1.407614 -0.223913 -0.127458 2.341805152028776e-38
1.408480 -0.231065 -0.127603 2.341805152028776e-38
1.403416 -0.237235 -0.127213 2.341805152028776e-38
1.402251 -0.244045 -0.127178 2.341805152028776e-38
1.402034 -0.251024 -0.127231 2.341805152028776e-38
1.405700 -0.258728 -0.127639 2.341805152028776e-38
1.403452 -0.265364 -0.127512 2.341805152028776e-38
1.397262 -0.271224 -0.127029 2.341805152028776e-38
1.451614 -0.289092 -0.132054 2.341805152028776e-38
1.585849 -0.323836 -0.144360 2.341805152028776e-38
1.724652 -0.360908 -0.157101 2.341805152028776e-38
1.739575 0.233661 -0.165687 2.341805152028776e-38
1.670584 0.216142 -0.159048 2.341805152028776e-38
1.561948 0.194381 -0.148644 2.341805152028776e-38
1.466983 0.175334 -0.139552 2.341805152028776e-38
1.420338 0.162768 -0.135063 2.341805152028776e-38
1.415172 0.155219 -0.134523 2.341805152028776e-38
1.410956 0.147827 -0.134076 2.341805152028776e-38
1.410664 0.140876 -0.134004 2.341805152028776e-38
1.411330 0.134025 -0.134025 2.341805152028776e-38
1.413945 0.127349 -0.134233 2.341805152028776e-38
1.411569 0.120229 -0.133969 2.341805152028776e-38
1.413126 0.113453 -0.134081 2.341805152028776e-38
1.412666 0.106516 -0.134004 2.341805152028776e-38
1.415152 0.099796 -0.134208 2.341805152028776e-38
1.412638 0.092728 -0.133940 2.341805152028776e-38
1.410089 0.085687 -0.133671 2.341805152028776e-38
1.411481 0.078895 -0.133778 2.341805152028776e-38
1.411847 0.072040 -0.133789 2.341805152028776e-38
1.410190 0.065093 -0.133611 2.341805152028776e-38
1.410488 0.058245 -0.133621 2.341805152028776e-38
1.410754 0.051396 -0.133629 2.341805152028776e-38
1.409991 0.044514 -0.133542 2.341805152028776e-38
1.406209 0.037561 -0.133171 2.341805152028776e-38
1.407369 0.030755 -0.133271 2.341805152028776e-38
1.407502 0.023921 -0.133275 2.341805152028776e-38
1.409592 0.017111 -0.133467 2.341805152028776e-38
1.411649 0.010281 -0.133657 2.341805152028776e-38
1.412678 0.003430 -0.133753 2.341805152028776e-38
1.414669 -0.003434 -0.133941 2.341805152028776e-38
1.414636 -0.010303 -0.133940 2.341805152028776e-38
1.413574 -0.017159 -0.133844 2.341805152028776e-38
1.412479 -0.024006 -0.133746 2.341805152028776e-38
1.412346 -0.030864 -0.133742 2.341805152028776e-38
1.412180 -0.037721 -0.133737 2.341805152028776e-38
1.413971 -0.044640 -0.133919 2.341805152028776e-38
1.414733 -0.051541 -0.134006 2.341805152028776e-38
1.415462 -0.058450 -0.134092 2.341805152028776e-38
1.416157 -0.065368 -0.134177 2.341805152028776e-38
1.414829 -0.072193 -0.134072 2.341805152028776e-38
1.415457 -0.079117 -0.134155 2.341805152028776e-38
1.415058 -0.085988 -0.134142 2.341805152028776e-38
1.416612 -0.092989 -0.134317 2.341805152028776e-38
1.414158 -0.099726 -0.134114 2.341805152028776e-38
1.412666 -0.106516 -0.134004 2.341805152028776e-38
1.415111 -0.113613 -0.134270 2.341805152028776e-38
1.415537 -0.120567 -0.134346 2.341805152028776e-38
1.413945 -0.127349 -0.134233 2.341805152028776e-38
1.414303 -0.134307 -0.134307 2.341805152028776e-38
1.412645 -0.141073 -0.134192 2.341805152028776e-38
1.410956 -0.147827 -0.134076 2.341805152028776e-38
1.410223 -0.154676 -0.134053 2.341805152028776e-38
1.411436 -0.161748 -0.134217 2.341805152028776e-38
1.411625 -0.168718 -0.134285 2.341805152028776e-38
1.410792 -0.175570 -0.134259 2.341805152028776e-38
1.410913 -0.182545 -0.134326 2.341805152028776e-38
1.410012 -0.189394 -0.134298 2.341805152028776e-38
1.410065 -0.196375 -0.134362 2.341805152028776e-38
1.410083 -0.203362 -0.134425 2.341805152028776e-38
1.410067 -0.210353 -0.134488 2.341805152028776e-38
1.410016 -0.217349 -0.134549 2.341805152028776e-38
1.406981 -0.223879 -0.134328 2.341805152028776e-38
1.405881 -0.230708 -0.134293 2.341805152028776e-38
1.402784 -0.237200 -0.134070 2.341805152028776e-38
1.404562 -0.244521 -0.134314 2.341805152028776e-38
1.405321 -0.251689 -0.134464 2.341805152028776e-38
1.407024 -0.259050 -0.134706 2.341805152028776e-38
1.404775 -0.265694 -0.134572 2.341805152028776e-38
1.397608 -0.271373 -0.133969 2.341805152028776e-38
1.446075 -0.288077 -0.138704 2.341805152028776e-38
1.550014 -0.316614 -0.148771 2.341805152028776e-38
1.650785 -0.345555 -0.158549 2.341805152028776e-38
1.735793 0.233227 -0.173860 2.341805152028776e-38
1.678676 0.217258 -0.168067 2.341805152028776e-38
1.558248 0.193982 -0.155946 2.341805152028776e-38
1.466290 0.175307 -0.146685 2.341805152028776e-38
1.420656 0.162856 -0.142066 2.341805152028776e-38
1.413515 0.155086 -0.141301 2.341805152028776e-38
1.408311 0.147596 -0.140732 2.341805152028776e-38
1.409009 0.140755 -0.140755 2.341805152028776e-38
1.408683 0.133815 -0.140678 2.341805152028776e-38
1.411296 0.127151 -0.140897 2.341805152028776e-38
1.409912 0.120126 -0.140718 2.341805152028776e-38
1.409485 0.113197 -0.140638 2.341805152028776e-38
1.411009 0.106424 -0.140755 2.341805152028776e-38
1.411507 0.099570 -0.140771 2.341805152028776e-38
1.410980 0.092648 -0.140688 2.341805152028776e-38
1.412405 0.085854 -0.140801 2.341805152028776e-38
1.410817 0.078882 -0.140616 2.341805152028776e-38
1.411182 0.072029 -0.140628 2.341805152028776e-38
1.410520 0.065128 -0.140540 2.341805152028776e-38
1.409825 0.058236 -0.140451 2.341805152028776e-38
1.409096 0.051352 -0.140361 2.341805152028776e-38
1.409328 0.044507 -0.140368 2.341805152028776e-38
1.406543 0.037582 -0.140078 2.341805152028776e-38
1.407703 0.030772 -0.140182 2.341805152028776e-38
1.407835 0.023934 -0.140187 2.341805152028776e-38
1.408929 0.017108 -0.140289 2.341805152028776e-38
1.408996 0.010265 -0.140291 2.341805152028776e-38
1.412014 0.003429 -0.140590 2.341805152028776e-38
1.413009 -0.003431 -0.140689 2.341805152028776e-38
1.413971 -0.010301 -0.140787 2.341805152028776e-38
1.413905 -0.017169 -0.140785 2.341805152028776e-38
1.412810 -0.024019 -0.140682 2.341805152028776e-38
1.411682 -0.030859 -0.140579 2.341805152028776e-38
1.412511 -0.037741 -0.140672 2.341805152028776e-38
1.411317 -0.044570 -0.140567 2.341805152028776e-38
1.410090 -0.051388 -0.140460 2.341805152028776e-38
1.410819 -0.058277 -0.140550 2.341805152028776e-38
1.411514 -0.065174 -0.140639 2.341805152028776e-38
1.412176 -0.072080 -0.140727 2.341805152028776e-38
1.411811 -0.078938 -0.140715 2.341805152028776e-38
1.412405 -0.085854 -0.140801 2.341805152028776e-38
1.414952 -0.092909 -0.141084 2.341805152028776e-38
1.414485 -0.099780 -0.141068 2.341805152028776e-38
1.416963 -0.106873 -0.141349 2.341805152028776e-38
1.417420 -0.113834 -0.141430 2.341805152028776e-38
1.413878 -0.120463 -0.141114 2.341805152028776e-38
1.412287 -0.127240 -0.140995 2.341805152028776e-38
1.411655 -0.134098 -0.140975 2.341805152028776e-38
1.409009 -0.140755 -0.140755 2.341805152028776e-38
1.410290 -0.147804 -0.140929 2.341805152028776e-38
1.407580 -0.154435 -0.140707 2.341805152028776e-38
1.409781 -0.161610 -0.140979 2.341805152028776e-38
1.411947 -0.168809 -0.141249 2.341805152028776e-38
1.410125 -0.175542 -0.141122 2.341805152028776e-38
1.408272 -0.182261 -0.140995 2.341805152028776e-38
1.409346 -0.189364 -0.141162 2.341805152028776e-38
1.409398 -0.196345 -0.141230 2.341805152028776e-38
1.411386 -0.203614 -0.141494 2.341805152028776e-38
1.407431 -0.210026 -0.141165 2.341805152028776e-38
1.406398 -0.216860 -0.141131 2.341805152028776e-38
1.406314 -0.223844 -0.141194 2.341805152028776e-38
1.406196 -0.230833 -0.141256 2.341805152028776e-38
1.404081 -0.237495 -0.141120 2.341805152028776e-38
1.405856 -0.244824 -0.141377 2.341805152028776e-38
1.404654 -0.251649 -0.141337 2.341805152028776e-38
1.405376 -0.258829 -0.141493 2.341805152028776e-38
1.405085 -0.265837 -0.141550 2.341805152028776e-38
1.394012 -0.270762 -0.140522 2.341805152028776e-38
1.435627 -0.286087 -0.144809 2.341805152028776e-38
1.521976 -0.310986 -0.153620 2.341805152028776e-38
1.640257 -0.343462 -0.165670 2.341805152028776e-38
1.735917 0.233321 -0.182415 2.341805152028776e-38
1.658115 0.214668 -0.174165 2.341805152028776e-38
1.523917 0.189771 -0.160003 2.341805152028776e-38
1.457662 0.174333 -0.152986 2.341805152028776e-38
1.422916 0.163169 -0.149283 2.341805152028776e-38
1.414791 0.155278 -0.148376 2.341805152028776e-38
1.408602 0.147676 -0.147676 2.341805152028776e-38
1.408311 0.140732 -0.147596 2.341805152028776e-38
1.407985 0.133793 -0.147516 2.341805152028776e-38
1.411588 0.127219 -0.147849 2.341805152028776e-38
1.410205 0.120190 -0.147662 2.341805152028776e-38
1.409779 0.113258 -0.147578 2.341805152028776e-38
1.412295 0.106557 -0.147804 2.341805152028776e-38
1.414778 0.099834 -0.148029 2.341805152028776e-38
1.413260 0.092828 -0.147838 2.341805152028776e-38
1.411707 0.085840 -0.147645 2.341805152028776e-38
1.411113 0.078925 -0.147555 2.341805152028776e-38
1.411478 0.072068 -0.147568 2.341805152028776e-38
1.410817 0.065164 -0.147475 2.341805152028776e-38
1.409128 0.058226 -0.147278 2.341805152028776e-38
1.410388 0.051416 -0.147391 2.341805152028776e-38
1.410620 0.044563 -0.147399 2.341805152028776e-38
1.407836 0.037629 -0.147095 2.341805152028776e-38
1.407008 0.030767 -0.146996 2.341805152028776e-38
1.408134 0.023947 -0.147105 2.341805152028776e-38
1.407239 0.017094 -0.147004 2.341805152028776e-38
1.408300 0.010264 -0.147111 2.341805152028776e-38
1.411317 0.003428 -0.147423 2.341805152028776e-38
1.413306 -0.003433 -0.147631 2.341805152028776e-38
1.414267 -0.010307 -0.147734 2.341805152028776e-38
1.414201 -0.017178 -0.147732 2.341805152028776e-38
1.412112 -0.024015 -0.147520 2.341805152028776e-38
1.410985 -0.030854 -0.147412 2.341805152028776e-38
1.408831 -0.037655 -0.147198 2.341805152028776e-38
1.404655 -0.044374 -0.146776 2.341805152028776e-38
1.405418 -0.051234 -0.146872 2.341805152028776e-38
1.410122 -0.058267 -0.147382 2.341805152028776e-38
1.414791 -0.065347 -0.147891 2.341805152028776e-38
1.412472 -0.072119 -0.147672 2.341805152028776e-38
1.413099 -0.079036 -0.147763 2.341805152028776e-38
1.414685 -0.086021 -0.147957 2.341805152028776e-38
1.415245 -0.092959 -0.148045 2.341805152028776e-38
1.413786 -0.099764 -0.147925 2.341805152028776e-38
1.414278 -0.106706 -0.148012 2.341805152028776e-38
1.412753 -0.113497 -0.147889 2.341805152028776e-38
1.410205 -0.120190 -0.147662 2.341805152028776e-38
1.405645 -0.126683 -0.147226 2.341805152028776e-38
1.405015 -0.133511 -0.147205 2.341805152028776e-38
1.407321 -0.140633 -0.147493 2.341805152028776e-38
1.407613 -0.147572 -0.147572 2.341805152028776e-38
1.407871 -0.154518 -0.147651 2.341805152028776e-38
1.410070 -0.161696 -0.147935 2.341805152028776e-38
1.410259 -0.168664 -0.148011 2.341805152028776e-38
1.409426 -0.175513 -0.147982 2.341805152028776e-38
1.410532 -0.182615 -0.148159 2.341805152028776e-38
1.409631 -0.189466 -0.148128 2.341805152028776e-38
1.409683 -0.196450 -0.148199 2.341805152028776e-38
1.410684 -0.203581 -0.148372 2.341805152028776e-38
1.409682 -0.210432 -0.148337 2.341805152028776e-38
1.407664 -0.217127 -0.148198 2.341805152028776e-38
1.406596 -0.223964 -0.148161 2.341805152028776e-38
1.409421 -0.231440 -0.148536 2.341805152028776e-38
1.407304 -0.238119 -0.148393 2.341805152028776e-38
1.407114 -0.245125 -0.148456 2.341805152028776e-38
1.407869 -0.252310 -0.148621 2.341805152028776e-38
1.407609 -0.259328 -0.148681 2.341805152028776e-38
1.405360 -0.265979 -0.148534 2.341805152028776e-38
1.392339 -0.270527 -0.147249 2.341805152028776e-38
1.436860 -0.286428 -0.152055 2.341805152028776e-38
1.554347 -0.317708 -0.164595 2.341805152028776e-38
1.670589 -0.349931 -0.177024 2.341805152028776e-38
1.726146 0.232089 -0.189891 2.341805152028776e-38
1.618803 0.209651 -0.178006 2.341805152028776e-38
1.530030 0.190598 -0.168175 2.341805152028776e-38
1.462827 0.175011 -0.160725 2.341805152028776e-38
1.423164 0.163255 -0.156308 2.341805152028776e-38
1.415045 0.155359 -0.155359 2.341805152028776e-38
1.405893 0.147443 -0.154301 2.341805152028776e-38
1.405601 0.140510 -0.154218 2.341805152028776e-38
1.407255 0.133770 -0.154350 2.341805152028776e-38
1.409866 0.127108 -0.154591 2.341805152028776e-38
1.409474 0.120170 -0.154504 2.341805152028776e-38
1.409048 0.113238 -0.154416 2.341805152028776e-38
1.409580 0.106389 -0.154435 2.341805152028776e-38
1.412061 0.099676 -0.154670 2.341805152028776e-38
1.409552 0.092617 -0.154361 2.341805152028776e-38
1.408991 0.085705 -0.154268 2.341805152028776e-38
1.408397 0.078800 -0.154174 2.341805152028776e-38
1.408762 0.071954 -0.154188 2.341805152028776e-38
1.407107 0.065015 -0.153982 2.341805152028776e-38
1.407406 0.058175 -0.153993 2.341805152028776e-38
1.407671 0.051334 -0.154003 2.341805152028776e-38
1.409890 0.044555 -0.154229 2.341805152028776e-38
1.409095 0.037676 -0.154127 2.341805152028776e-38
1.407273 0.030783 -0.153916 2.341805152028776e-38
1.404424 0.023892 -0.153594 2.341805152028776e-38
1.407505 0.017103 -0.153924 2.341805152028776e-38
1.406577 0.010255 -0.153818 2.341805152028776e-38
1.409593 0.003425 -0.154145 2.341805152028776e-38
1.409593 -0.003425 -0.154145 2.341805152028776e-38
1.412542 -0.010298 -0.154470 2.341805152028776e-38
1.409493 -0.017127 -0.154142 2.341805152028776e-38
1.410388 -0.023994 -0.154247 2.341805152028776e-38
1.411249 -0.030870 -0.154351 2.341805152028776e-38
1.411083 -0.037729 -0.154344 2.341805152028776e-38
1.406909 -0.044461 -0.153902 2.341805152028776e-38
1.406677 -0.051298 -0.153894 2.341805152028776e-38
1.409392 -0.058257 -0.154210 2.341805152028776e-38
1.413066 -0.065290 -0.154634 2.341805152028776e-38
1.412733 -0.072157 -0.154622 2.341805152028776e-38
1.414352 -0.079133 -0.154826 2.341805152028776e-38
1.414945 -0.086067 -0.154920 2.341805152028776e-38
1.415503 -0.093008 -0.155013 2.341805152028776e-38
1.410078 -0.099536 -0.154453 2.341805152028776e-38
1.412554 -0.106613 -0.154761 2.341805152028776e-38
1.412021 -0.113477 -0.154741 2.341805152028776e-38
1.406502 -0.119916 -0.154178 2.341805152028776e-38
1.400955 -0.126304 -0.153613 2.341805152028776e-38
1.404286 -0.133488 -0.154025 2.341805152028776e-38
1.405601 -0.140510 -0.154218 2.341805152028776e-38
1.408859 -0.147754 -0.154627 2.341805152028776e-38
1.407139 -0.154491 -0.154491 2.341805152028776e-38
1.408350 -0.161555 -0.154681 2.341805152028776e-38
1.408538 -0.168516 -0.154760 2.341805152028776e-38
1.409679 -0.175606 -0.154947 2.341805152028776e-38
1.409798 -0.182583 -0.155023 2.341805152028776e-38
1.405942 -0.189036 -0.154666 2.341805152028776e-38
1.408949 -0.196416 -0.155065 2.341805152028776e-38
1.412901 -0.203972 -0.155572 2.341805152028776e-38
1.406981 -0.210102 -0.154993 2.341805152028776e-38
1.406930 -0.217090 -0.155064 2.341805152028776e-38
1.404881 -0.223769 -0.154917 2.341805152028776e-38
1.405743 -0.230917 -0.155093 2.341805152028776e-38
1.404608 -0.237747 -0.155052 2.341805152028776e-38
1.406379 -0.245083 -0.155334 2.341805152028776e-38
1.405176 -0.251915 -0.155290 2.341805152028776e-38
1.404918 -0.258922 -0.155353 2.341805152028776e-38
1.400717 -0.265193 -0.154983 2.341805152028776e-38
1.390634 -0.270291 -0.153963 2.341805152028776e-38
1.437082 -0.286573 -0.159207 2.341805152028776e-38
1.540870 -0.315064 -0.170818 2.341805152028776e-38
1.614250 -0.338249 -0.179073 2.341805152028776e-38
1.745885 0.234828 -0.200671 2.341805152028776e-38
1.658321 0.214848 -0.190525 2.341805152028776e-38
1.543987 0.192407 -0.177316 2.341805152028776e-38
1.465978 0.175452 -0.168291 2.341805152028776e-38
1.428313 0.163905 -0.163905 2.341805152028776e-38
1.415263 0.155440 -0.162348 2.341805152028776e-38
1.407106 0.147624 -0.161356 2.341805152028776e-38
1.406815 0.140682 -0.161270 2.341805152028776e-38
1.408469 0.133934 -0.161408 2.341805152028776e-38
1.408111 0.126996 -0.161319 2.341805152028776e-38
1.406730 0.119979 -0.161115 2.341805152028776e-38
1.407294 0.113138 -0.161136 2.341805152028776e-38
1.408816 0.106369 -0.161270 2.341805152028776e-38
1.409314 0.099519 -0.161289 2.341805152028776e-38
1.408788 0.092600 -0.161193 2.341805152028776e-38
1.410211 0.085810 -0.161323 2.341805152028776e-38
1.410610 0.078953 -0.161338 2.341805152028776e-38
1.409983 0.072043 -0.161238 2.341805152028776e-38
1.406346 0.065003 -0.160797 2.341805152028776e-38
1.405651 0.058124 -0.160695 2.341805152028776e-38
1.408895 0.051397 -0.161045 2.341805152028776e-38
1.413099 0.044672 -0.161508 2.341805152028776e-38
1.411312 0.037748 -0.161289 2.341805152028776e-38
1.406512 0.030778 -0.160728 2.341805152028776e-38
1.405651 0.023922 -0.160619 2.341805152028776e-38
1.407737 0.017112 -0.160850 2.341805152028776e-38
1.407803 0.010267 -0.160852 2.341805152028776e-38
1.407836 0.003422 -0.160854 2.341805152028776e-38
1.410817 -0.003430 -0.161194 2.341805152028776e-38
1.412771 -0.010303 -0.161420 2.341805152028776e-38
1.410717 -0.017148 -0.161190 2.341805152028776e-38
1.411611 -0.024023 -0.161300 2.341805152028776e-38
1.413465 -0.030930 -0.161522 2.341805152028776e-38
1.417271 -0.037908 -0.161970 2.341805152028776e-38
1.413099 -0.044672 -0.161508 2.341805152028776e-38
1.410880 -0.051470 -0.161272 2.341805152028776e-38
1.412600 -0.058411 -0.161489 2.341805152028776e-38
1.413293 -0.065324 -0.161591 2.341805152028776e-38
1.413952 -0.072245 -0.161692 2.341805152028776e-38
1.414578 -0.079175 -0.161792 2.341805152028776e-38
1.415170 -0.086112 -0.161890 2.341805152028776e-38
1.413745 -0.092926 -0.161760 2.341805152028776e-38
1.411296 -0.099659 -0.161516 2.341805152028776e-38
1.412779 -0.106669 -0.161723 2.341805152028776e-38
1.411255 -0.113457 -0.161590 2.341805152028776e-38
1.408710 -0.120148 -0.161342 2.341805152028776e-38
1.406132 -0.126817 -0.161092 2.341805152028776e-38
1.407480 -0.133840 -0.161295 2.341805152028776e-38
1.407804 -0.140781 -0.161383 2.341805152028776e-38
1.408094 -0.147728 -0.161470 2.341805152028776e-38
1.407362 -0.154572 -0.161442 2.341805152028776e-38
1.409559 -0.161753 -0.161753 2.341805152028776e-38
1.408759 -0.168604 -0.161722 2.341805152028776e-38
1.408912 -0.175574 -0.161804 2.341805152028776e-38
1.409031 -0.182550 -0.161884 2.341805152028776e-38
1.408131 -0.189399 -0.161850 2.341805152028776e-38
1.411134 -0.196792 -0.162267 2.341805152028776e-38
1.410164 -0.203651 -0.162230 2.341805152028776e-38
1.406214 -0.210064 -0.161853 2.341805152028776e-38
1.405180 -0.216899 -0.161814 2.341805152028776e-38
1.405095 -0.223885 -0.161886 2.341805152028776e-38
1.404975 -0.230875 -0.161957 2.341805152028776e-38
1.405800 -0.238036 -0.162140 2.341805152028776e-38
1.405610 -0.245039 -0.162209 2.341805152028776e-38
1.406364 -0.252221 -0.162389 2.341805152028776e-38
1.406103 -0.259236 -0.162455 2.341805152028776e-38
1.403855 -0.265885 -0.162293 2.341805152028776e-38
1.392798 -0.270811 -0.161116 2.341805152028776e-38
1.437269 -0.286716 -0.166366 2.341805152028776e-38
1.520555 -0.311025 -0.176122 2.341805152028776e-38
1.582244 -0.331665 -0.183391 2.341805152028776e-38
1.759656 0.236770 -0.210941 2.341805152028776e-38
1.650486 0.213914 -0.197769 2.341805152028776e-38
1.539168 0.191880 -0.184355 2.341805152028776e-38
1.470076 0.176009 -0.176009 2.341805152028776e-38
1.427503 0.163874 -0.170847 2.341805152028776e-38
1.413474 0.155302 -0.169107 2.341805152028776e-38
1.407296 0.147700 -0.168309 2.341805152028776e-38
1.407006 0.140754 -0.168219 2.341805152028776e-38
1.405694 0.133721 -0.168009 2.341805152028776e-38
1.405336 0.126793 -0.167916 2.341805152028776e-38
1.405933 0.119957 -0.167939 2.341805152028776e-38
1.410456 0.113435 -0.168434 2.341805152028776e-38
1.408018 0.106349 -0.168101 2.341805152028776e-38
1.405545 0.099290 -0.167766 2.341805152028776e-38
1.406009 0.092452 -0.167784 2.341805152028776e-38
1.409414 0.085794 -0.168156 2.341805152028776e-38
1.409812 0.078938 -0.168172 2.341805152028776e-38
1.408195 0.071978 -0.167950 2.341805152028776e-38
1.407534 0.065083 -0.167845 2.341805152028776e-38
1.403865 0.058072 -0.167383 2.341805152028776e-38
1.406114 0.051315 -0.167630 2.341805152028776e-38
1.408331 0.044539 -0.167876 2.341805152028776e-38
1.406544 0.037635 -0.167647 2.341805152028776e-38
1.404724 0.030750 -0.167417 2.341805152028776e-38
1.404857 0.023917 -0.167422 2.341805152028776e-38
1.406942 0.017108 -0.167663 2.341805152028776e-38
1.407008 0.010265 -0.167666 2.341805152028776e-38
1.410020 0.003429 -0.168022 2.341805152028776e-38
1.412006 -0.003434 -0.168259 2.341805152028776e-38
1.414952 -0.010323 -0.168612 2.341805152028776e-38
1.411906 -0.017169 -0.168255 2.341805152028776e-38
1.412799 -0.024053 -0.168369 2.341805152028776e-38
1.414652 -0.030967 -0.168600 2.341805152028776e-38
1.415478 -0.037874 -0.168712 2.341805152028776e-38
1.411308 -0.044633 -0.168231 2.341805152028776e-38
1.410083 -0.051460 -0.168103 2.341805152028776e-38
1.410809 -0.058359 -0.168211 2.341805152028776e-38
1.411502 -0.065266 -0.168318 2.341805152028776e-38
1.411170 -0.072131 -0.168305 2.341805152028776e-38
1.412787 -0.079104 -0.168527 2.341805152028776e-38
1.412387 -0.085975 -0.168511 2.341805152028776e-38
1.414927 -0.093039 -0.168848 2.341805152028776e-38
1.411488 -0.099710 -0.168475 2.341805152028776e-38
1.412969 -0.106723 -0.168692 2.341805152028776e-38
1.413426 -0.113674 -0.168789 2.341805152028776e-38
1.412859 -0.120547 -0.168766 2.341805152028776e-38
1.409292 -0.127150 -0.168388 2.341805152028776e-38
1.410637 -0.134191 -0.168599 2.341805152028776e-38
1.409971 -0.141051 -0.168573 2.341805152028776e-38
1.410259 -0.148011 -0.168664 2.341805152028776e-38
1.408538 -0.154760 -0.168516 2.341805152028776e-38
1.408759 -0.161722 -0.168604 2.341805152028776e-38
1.408946 -0.168691 -0.168691 2.341805152028776e-38
1.409098 -0.175664 -0.168776 2.341805152028776e-38
1.409216 -0.182644 -0.168859 2.341805152028776e-38
1.409299 -0.189628 -0.168941 2.341805152028776e-38
1.407381 -0.196343 -0.168787 2.341805152028776e-38
1.408380 -0.203471 -0.168984 2.341805152028776e-38
1.403450 -0.209731 -0.168473 2.341805152028776e-38
1.405362 -0.217010 -0.168785 2.341805152028776e-38
1.405275 -0.223999 -0.168861 2.341805152028776e-38
1.405154 -0.230993 -0.168935 2.341805152028776e-38
1.403041 -0.237659 -0.168772 2.341805152028776e-38
1.404808 -0.244993 -0.169079 2.341805152028776e-38
1.405561 -0.252173 -0.169267 2.341805152028776e-38
1.406277 -0.259367 -0.169453 2.341805152028776e-38
1.403053 -0.265835 -0.169168 2.341805152028776e-38
1.395901 -0.271519 -0.168410 2.341805152028776e-38
1.435472 -0.286468 -0.173295 2.341805152028776e-38
1.516766 -0.310369 -0.183230 2.341805152028776e-38
1.589113 -0.333233 -0.192099 2.341805152028776e-38
1.756647 0.236459 -0.219262 2.341805152028776e-38
1.658367 0.215020 -0.206906 2.341805152028776e-38
1.541212 0.192210 -0.192210 2.341805152028776e-38
1.462309 0.175149 -0.182298 2.341805152028776e-38
1.426659 0.163842 -0.177786 2.341805152028776e-38
1.414611 0.155489 -0.176221 2.341805152028776e-38
1.407452 0.147775 -0.175268 2.341805152028776e-38
1.408150 0.140925 -0.175296 2.341805152028776e-38
1.405852 0.133789 -0.174955 2.341805152028776e-38
1.406483 0.126947 -0.174981 2.341805152028776e-38
1.411036 0.120440 -0.175498 2.341805152028776e-38
1.412592 0.113652 -0.175644 2.341805152028776e-38
1.406199 0.106254 -0.174805 2.341805152028776e-38
1.407686 0.099480 -0.174948 2.341805152028776e-38
1.408151 0.092630 -0.174967 2.341805152028776e-38
1.409574 0.085837 -0.175108 2.341805152028776e-38
1.410963 0.079033 -0.175248 2.341805152028776e-38
1.410338 0.072116 -0.175140 2.341805152028776e-38
1.410671 0.065253 -0.175154 2.341805152028776e-38
1.406012 0.058183 -0.174550 2.341805152028776e-38
1.406278 0.051342 -0.174561 2.341805152028776e-38
1.409485 0.044593 -0.174940 2.341805152028776e-38
1.405716 0.037628 -0.174456 2.341805152028776e-38
1.405882 0.030788 -0.174463 2.341805152028776e-38
1.406014 0.023947 -0.174468 2.341805152028776e-38
1.409091 0.017141 -0.174842 2.341805152028776e-38
1.410149 0.010292 -0.174968 2.341805152028776e-38
1.410183 0.003431 -0.174969 2.341805152028776e-38
1.415145 -0.003443 -0.175585 2.341805152028776e-38
1.415111 -0.010328 -0.175583 2.341805152028776e-38
1.414052 -0.017202 -0.175457 2.341805152028776e-38
1.414945 -0.024099 -0.175576 2.341805152028776e-38
1.415803 -0.031005 -0.175694 2.341805152028776e-38
1.414645 -0.037867 -0.175564 2.341805152028776e-38
1.411469 -0.044655 -0.175186 2.341805152028776e-38
1.410244 -0.051486 -0.175054 2.341805152028776e-38
1.409979 -0.058348 -0.175043 2.341805152028776e-38
1.410671 -0.065253 -0.175154 2.341805152028776e-38
1.411330 -0.072167 -0.175263 2.341805152028776e-38
1.411954 -0.079089 -0.175371 2.341805152028776e-38
1.414526 -0.086139 -0.175724 2.341805152028776e-38
1.416073 -0.093151 -0.175952 2.341805152028776e-38
1.412636 -0.099830 -0.175563 2.341805152028776e-38
1.413126 -0.106777 -0.175666 2.341805152028776e-38
1.413581 -0.113732 -0.175767 2.341805152028776e-38
1.414992 -0.120777 -0.175989 2.341805152028776e-38
1.413402 -0.127571 -0.175842 2.341805152028776e-38
1.411780 -0.134353 -0.175693 2.341805152028776e-38
1.410125 -0.141122 -0.175542 2.341805152028776e-38
1.412387 -0.148293 -0.175882 2.341805152028776e-38
1.412639 -0.155272 -0.175975 2.341805152028776e-38
1.411870 -0.162144 -0.175943 2.341805152028776e-38
1.412054 -0.169130 -0.176033 2.341805152028776e-38
1.413188 -0.176244 -0.176244 2.341805152028776e-38
1.412318 -0.183118 -0.176208 2.341805152028776e-38
1.410432 -0.189856 -0.176048 2.341805152028776e-38
1.408513 -0.196579 -0.175887 2.341805152028776e-38
1.405581 -0.203147 -0.175601 2.341805152028776e-38
1.405562 -0.210131 -0.175683 2.341805152028776e-38
1.406490 -0.217270 -0.175886 2.341805152028776e-38
1.406402 -0.224268 -0.175964 2.341805152028776e-38
1.405299 -0.231109 -0.175919 2.341805152028776e-38
1.405143 -0.238110 -0.175994 2.341805152028776e-38
1.405929 -0.245286 -0.176191 2.341805152028776e-38
1.406678 -0.252475 -0.176386 2.341805152028776e-38
1.406416 -0.259497 -0.176458 2.341805152028776e-38
1.404168 -0.266152 -0.176283 2.341805152028776e-38
1.398966 -0.272224 -0.175739 2.341805152028776e-38
1.436563 -0.286800 -0.180578 2.341805152028776e-38
1.522667 -0.311701 -0.191527 2.341805152028776e-38
1.604677 -0.336631 -0.201979 2.341805152028776e-38
1.755564 0.236411 -0.227814 2.341805152028776e-38
1.644559 0.213318 -0.213318 2.341805152028776e-38
1.535343 0.191557 -0.199069 2.341805152028776e-38
1.468302 0.175939 -0.190302 2.341805152028776e-38
1.426767 0.163922 -0.184848 2.341805152028776e-38
1.413742 0.155457 -0.183094 2.341805152028776e-38
1.404614 0.147537 -0.181848 2.341805152028776e-38
1.406298 0.140797 -0.182006 2.341805152028776e-38
1.404989 0.133762 -0.181779 2.341805152028776e-38
1.408583 0.127189 -0.182189 2.341805152028776e-38
1.408194 0.120246 -0.182087 2.341805152028776e-38
1.408759 0.113390 -0.182111 2.341805152028776e-38
1.407314 0.106382 -0.181879 2.341805152028776e-38
1.407812 0.099530 -0.181900 2.341805152028776e-38
1.406298 0.092546 -0.181664 2.341805152028776e-38
1.405740 0.085639 -0.181555 2.341805152028776e-38
1.407128 0.078851 -0.181700 2.341805152028776e-38
1.409474 0.072102 -0.181971 2.341805152028776e-38
1.407825 0.065148 -0.181730 2.341805152028776e-38
1.405151 0.058172 -0.181359 2.341805152028776e-38
1.405416 0.051331 -0.181370 2.341805152028776e-38
1.407630 0.044552 -0.181636 2.341805152028776e-38
1.405847 0.037647 -0.181388 2.341805152028776e-38
1.406012 0.030803 -0.181396 2.341805152028776e-38
1.406145 0.023959 -0.181401 2.341805152028776e-38
1.408228 0.017138 -0.181661 2.341805152028776e-38
1.407302 0.010276 -0.181536 2.341805152028776e-38
1.410311 0.003432 -0.181921 2.341805152028776e-38
1.409319 -0.003430 -0.181793 2.341805152028776e-38
1.411269 -0.010305 -0.182048 2.341805152028776e-38
1.411203 -0.017174 -0.182045 2.341805152028776e-38
1.413086 -0.024077 -0.182297 2.341805152028776e-38
1.412953 -0.030955 -0.182291 2.341805152028776e-38
1.412787 -0.037832 -0.182284 2.341805152028776e-38
1.411596 -0.044678 -0.182147 2.341805152028776e-38
1.412354 -0.051585 -0.182265 2.341805152028776e-38
1.410106 -0.058377 -0.181998 2.341805152028776e-38
1.410797 -0.065286 -0.182113 2.341805152028776e-38
1.410464 -0.072152 -0.182099 2.341805152028776e-38
1.410099 -0.079017 -0.182083 2.341805152028776e-38
1.412669 -0.086061 -0.182450 2.341805152028776e-38
1.412236 -0.092937 -0.182431 2.341805152028776e-38
1.410780 -0.099740 -0.182283 2.341805152028776e-38
1.412259 -0.106756 -0.182518 2.341805152028776e-38
1.413702 -0.113788 -0.182750 2.341805152028776e-38
1.414123 -0.120753 -0.182854 2.341805152028776e-38
1.410559 -0.127367 -0.182445 2.341805152028776e-38
1.410913 -0.134326 -0.182545 2.341805152028776e-38
1.411233 -0.141291 -0.182645 2.341805152028776e-38
1.411518 -0.148263 -0.182742 2.341805152028776e-38
1.410784 -0.155132 -0.182711 2.341805152028776e-38
1.412973 -0.162337 -0.183061 2.341805152028776e-38
1.412170 -0.169213 -0.183027 2.341805152028776e-38
1.412318 -0.176208 -0.183118 2.341805152028776e-38
1.409482 -0.182826 -0.182826 2.341805152028776e-38
1.409563 -0.189817 -0.182915 2.341805152028776e-38
1.406663 -0.196402 -0.182620 2.341805152028776e-38
1.406677 -0.203389 -0.182706 2.341805152028776e-38
1.404695 -0.210088 -0.182535 2.341805152028776e-38
1.406602 -0.217378 -0.182873 2.341805152028776e-38
1.405533 -0.224222 -0.182827 2.341805152028776e-38
1.405410 -0.231223 -0.182908 2.341805152028776e-38
1.403296 -0.237896 -0.182732 2.341805152028776e-38
1.405059 -0.245236 -0.183063 2.341805152028776e-38
1.403855 -0.252073 -0.183012 2.341805152028776e-38
1.406520 -0.259624 -0.183468 2.341805152028776e-38
1.405247 -0.266468 -0.183413 2.341805152028776e-38
1.400046 -0.272547 -0.182848 2.341805152028776e-38
1.430808 -0.285771 -0.186986 2.341805152028776e-38
1.499372 -0.307061 -0.196075 2.341805152028776e-38
1.566792 -0.328821 -0.205030 2.341805152028776e-38
1.761317 0.237288 -0.237288 2.341805152028776e-38
1.684791 0.218630 -0.226881 2.341805152028776e-38
1.577638 0.196919 -0.212363 2.341805152028776e-38
1.482126 0.177672 -0.199427 2.341805152028776e-38
1.431764 0.164566 -0.192578 2.341805152028776e-38
1.414809 0.155641 -0.190228 2.341805152028776e-38
1.406674 0.147817 -0.189068 2.341805152028776e-38
1.409346 0.141162 -0.189364 2.341805152028776e-38
1.406066 0.133922 -0.188864 2.341805152028776e-38
1.409659 0.127340 -0.189290 2.341805152028776e-38
1.407296 0.120221 -0.188918 2.341805152028776e-38
1.408849 0.113446 -0.189076 2.341805152028776e-38
1.408394 0.106509 -0.188967 2.341805152028776e-38
1.408893 0.099649 -0.188989 2.341805152028776e-38
1.406391 0.092591 -0.188612 2.341805152028776e-38
1.407812 0.085802 -0.188764 2.341805152028776e-38
1.408211 0.078945 -0.188782 2.341805152028776e-38
1.408576 0.072087 -0.188798 2.341805152028776e-38
1.406929 0.065135 -0.188547 2.341805152028776e-38
1.407227 0.058282 -0.188561 2.341805152028776e-38
1.408484 0.051465 -0.188705 2.341805152028776e-38
1.408716 0.044605 -0.188716 2.341805152028776e-38
1.405943 0.037665 -0.188326 2.341805152028776e-38
1.405118 0.030797 -0.188201 2.341805152028776e-38
1.407232 0.023987 -0.188472 2.341805152028776e-38
1.408323 0.017146 -0.188609 2.341805152028776e-38
1.406407 0.010273 -0.188347 2.341805152028776e-38
1.408423 0.003429 -0.188614 2.341805152028776e-38
1.409414 -0.003432 -0.188747 2.341805152028776e-38
1.412354 -0.010317 -0.189143 2.341805152028776e-38
1.409314 -0.017158 -0.188742 2.341805152028776e-38
1.411196 -0.024055 -0.189003 2.341805152028776e-38
1.413045 -0.030970 -0.189263 2.341805152028776e-38
1.414860 -0.037904 -0.189521 2.341805152028776e-38
1.412679 -0.044731 -0.189246 2.341805152028776e-38
1.413436 -0.051646 -0.189369 2.341805152028776e-38
1.412179 -0.058487 -0.189224 2.341805152028776e-38
1.411879 -0.065364 -0.189211 2.341805152028776e-38
