VERSION .7
FIELDS x y z rgb
SIZE 4 4 4 4
TYPE F F F F
COUNT 1 1 1 1
WIDTH 938
HEIGHT 1
VIEWPOINT 0 0 0 1 0 0 0
POINTS 938
DATA ascii
1.246337 -0.713390 -0.240116 2.341805152028776e-38
1.241488 -0.719833 -0.239944 2.341805152028776e-38
1.235753 -0.725751 -0.239602 2.341805152028776e-38
1.229942 -0.731704 -0.239278 2.341805152028776e-38
1.224103 -0.737616 -0.238946 2.341805152028776e-38
1.221604 -0.745543 -0.239267 2.341805152028776e-38
1.219055 -0.753468 -0.239582 2.341805152028776e-38
1.213111 -0.759296 -0.239230 2.341805152028776e-38
1.207931 -0.765673 -0.239056 2.341805152028776e-38
1.203537 -0.772566 -0.239045 2.341805152028776e-38
1.196622 -0.777822 -0.238532 2.341805152028776e-38
1.190510 -0.783570 -0.238178 2.341805152028776e-38
1.185193 -0.789822 -0.237981 2.341805152028776e-38
1.180629 -0.796635 -0.237956 2.341805152028776e-38
1.175188 -0.802900 -0.237769 2.341805152028776e-38
1.170525 -0.809692 -0.237739 2.341805152028776e-38
1.165823 -0.816458 -0.237703 2.341805152028776e-38
1.161886 -0.823770 -0.237825 2.341805152028776e-38
1.156280 -0.829941 -0.237618 2.341805152028776e-38
1.150605 -0.836125 -0.237418 2.341805152028776e-38
1.144896 -0.842273 -0.237212 2.341805152028776e-38
1.139156 -0.848385 -0.236998 2.341805152028776e-38
1.134170 -0.855053 -0.236942 2.341805152028776e-38
1.129920 -0.862305 -0.237048 2.341805152028776e-38
1.124793 -0.868995 -0.236999 2.341805152028776e-38
1.120403 -0.876265 -0.237107 2.341805152028776e-38
1.115967 -0.883515 -0.237208 2.341805152028776e-38
1.111484 -0.890745 -0.237303 2.341805152028776e-38
1.105422 -0.896712 -0.237062 2.341805152028776e-38
1.099267 -0.902710 -0.236833 2.341805152028776e-38
1.093079 -0.908670 -0.236597 2.341805152028776e-38
1.087614 -0.915224 -0.236519 2.341805152028776e-38
1.080608 -0.920469 -0.236105 2.341805152028776e-38
1.074325 -0.926307 -0.235849 2.341805152028776e-38
1.069444 -0.933460 -0.235929 2.341805152028776e-38
1.065983 -0.941908 -0.236333 2.341805152028776e-38
1.058782 -0.947062 -0.235911 2.341805152028776e-38
1.053752 -0.954151 -0.235973 2.341805152028776e-38
1.049403 -0.961882 -0.236192 2.341805152028776e-38
1.044230 -0.968971 -0.236251 2.341805152028776e-38
1.037549 -0.974707 -0.235982 2.341805152028776e-38
1.031552 -0.981078 -0.235869 2.341805152028776e-38
1.028359 -0.990152 -0.236403 2.341805152028776e-38
1.024387 -0.998535 -0.236766 2.341805152028776e-38
1.017505 -1.004172 -0.236477 2.341805152028776e-38
1.011955 -1.011191 -0.236516 2.341805152028776e-38
1.006358 -1.018180 -0.236547 2.341805152028776e-38
1.001402 -1.025846 -0.236734 2.341805152028776e-38
0.993650 -1.030650 -0.236262 2.341805152028776e-38
0.983128 -1.032566 -0.235139 2.341805152028776e-38
1.442326 -0.733666 -0.278558 2.341805152028776e-38
1.352425 -0.697323 -0.261957 2.341805152028776e-38
1.297908 -0.678276 -0.252134 2.341805152028776e-38
1.274995 -0.675259 -0.248411 2.341805152028776e-38
1.266918 -0.679935 -0.247566 2.341805152028776e-38
1.262290 -0.686428 -0.247393 2.341805152028776e-38
1.257597 -0.692947 -0.247232 2.341805152028776e-38
1.257157 -0.701864 -0.247922 2.341805152028776e-38
1.252367 -0.708374 -0.247756 2.341805152028776e-38
1.245834 -0.713874 -0.247244 2.341805152028776e-38
1.239279 -0.719327 -0.246726 2.341805152028776e-38
1.233531 -0.725260 -0.246380 2.341805152028776e-38
1.228572 -0.731705 -0.246213 2.341805152028776e-38
1.223579 -0.738119 -0.246040 2.341805152028776e-38
1.219393 -0.745016 -0.246029 2.341805152028776e-38
1.215169 -0.751892 -0.246011 2.341805152028776e-38
1.209230 -0.757709 -0.245650 2.341805152028776e-38
1.206545 -0.765664 -0.245982 2.341805152028776e-38
1.199664 -0.770951 -0.245460 2.341805152028776e-38
1.194413 -0.777262 -0.245269 2.341805152028776e-38
1.188307 -0.782998 -0.244902 2.341805152028776e-38
1.183814 -0.789785 -0.244868 2.341805152028776e-38
1.179233 -0.796614 -0.244847 2.341805152028776e-38
1.173793 -0.802872 -0.244652 2.341805152028776e-38
1.168320 -0.809096 -0.244450 2.341805152028776e-38
1.163621 -0.815851 -0.244411 2.341805152028776e-38
1.158883 -0.822581 -0.244365 2.341805152028776e-38
1.154869 -0.829908 -0.244496 2.341805152028776e-38
1.149195 -0.836085 -0.244288 2.341805152028776e-38
1.143488 -0.842226 -0.244074 2.341805152028776e-38
1.138538 -0.848920 -0.244021 2.341805152028776e-38
1.134337 -0.856180 -0.244132 2.341805152028776e-38
1.129279 -0.862856 -0.244075 2.341805152028776e-38
1.122589 -0.868338 -0.243684 2.341805152028776e-38
1.118979 -0.876204 -0.243963 2.341805152028776e-38
1.113769 -0.882835 -0.243896 2.341805152028776e-38
1.109289 -0.890053 -0.243991 2.341805152028776e-38
1.103217 -0.896027 -0.243747 2.341805152028776e-38
1.096305 -0.901388 -0.243341 2.341805152028776e-38
1.090883 -0.907962 -0.243265 2.341805152028776e-38
1.085422 -0.914506 -0.243183 2.341805152028776e-38
1.079172 -0.920378 -0.242925 2.341805152028776e-38
1.072140 -0.925571 -0.242493 2.341805152028776e-38
1.068735 -0.934022 -0.242914 2.341805152028776e-38
1.062315 -0.939855 -0.242653 2.341805152028776e-38
1.056597 -0.946304 -0.242554 2.341805152028776e-38
1.051571 -0.953381 -0.242617 2.341805152028776e-38
1.047224 -0.961101 -0.242840 2.341805152028776e-38
1.040594 -0.966854 -0.242568 2.341805152028776e-38
1.035363 -0.973920 -0.242626 2.341805152028776e-38
1.029371 -0.980280 -0.242508 2.341805152028776e-38
1.024759 -0.987973 -0.242720 2.341805152028776e-38
1.021503 -0.997025 -0.243260 2.341805152028776e-38
1.016018 -1.004049 -0.243302 2.341805152028776e-38
1.009074 -1.009665 -0.243004 2.341805152028776e-38
1.004870 -1.018042 -0.243370 2.341805152028776e-38
0.997848 -1.023583 -0.243058 2.341805152028776e-38
0.990112 -1.028368 -0.242572 2.341805152028776e-38
0.980274 -1.030994 -0.241586 2.341805152028776e-38
1.429364 -0.727886 -0.284148 2.341805152028776e-38
1.350088 -0.696892 -0.269170 2.341805152028776e-38
1.294756 -0.677376 -0.258892 2.341805152028776e-38
1.272739 -0.674803 -0.255236 2.341805152028776e-38
1.267271 -0.680866 -0.254888 2.341805152028776e-38
1.260907 -0.686424 -0.254360 2.341805152028776e-38
1.258786 -0.694387 -0.254725 2.341805152028776e-38
1.257474 -0.702831 -0.255257 2.341805152028776e-38
1.251824 -0.708858 -0.254910 2.341805152028776e-38
1.243582 -0.713377 -0.254032 2.341805152028776e-38
1.237033 -0.718818 -0.253496 2.341805152028776e-38
1.231273 -0.724766 -0.253148 2.341805152028776e-38
1.226317 -0.731198 -0.252974 2.341805152028776e-38
1.221328 -0.737601 -0.252793 2.341805152028776e-38
1.217145 -0.744487 -0.252779 2.341805152028776e-38
1.212087 -0.750833 -0.252584 2.341805152028776e-38
1.207807 -0.757705 -0.252568 2.341805152028776e-38
1.202627 -0.764068 -0.252385 2.341805152028776e-38
1.198241 -0.770932 -0.252368 2.341805152028776e-38
1.192167 -0.776699 -0.251996 2.341805152028776e-38
1.187710 -0.783508 -0.251965 2.341805152028776e-38
1.180747 -0.788666 -0.251409 2.341805152028776e-38
1.176166 -0.795488 -0.251388 2.341805152028776e-38
1.170733 -0.801730 -0.251186 2.341805152028776e-38
1.166077 -0.808498 -0.251150 2.341805152028776e-38
1.160576 -0.814676 -0.250934 2.341805152028776e-38
1.156647 -0.821960 -0.251059 2.341805152028776e-38
1.151819 -0.828722 -0.251024 2.341805152028776e-38
1.146153 -0.834882 -0.250808 2.341805152028776e-38
1.140454 -0.841007 -0.250586 2.341805152028776e-38
1.137879 -0.849451 -0.251052 2.341805152028776e-38
1.131316 -0.854928 -0.250642 2.341805152028776e-38
1.125467 -0.861010 -0.250413 2.341805152028776e-38
1.121126 -0.868280 -0.250531 2.341805152028776e-38
1.115963 -0.874924 -0.250468 2.341805152028776e-38
1.111533 -0.882151 -0.250572 2.341805152028776e-38
1.106288 -0.888741 -0.250494 2.341805152028776e-38
1.100972 -0.895339 -0.250420 2.341805152028776e-38
1.094826 -0.901315 -0.250175 2.341805152028776e-38
1.088648 -0.907251 -0.249922 2.341805152028776e-38
1.083192 -0.913783 -0.249836 2.341805152028776e-38
1.077696 -0.920283 -0.249742 2.341805152028776e-38
1.071394 -0.926132 -0.249475 2.341805152028776e-38
1.065019 -0.931986 -0.249212 2.341805152028776e-38
1.059349 -0.938451 -0.249116 2.341805152028776e-38
1.055106 -0.946199 -0.249359 2.341805152028776e-38
1.049350 -0.952607 -0.249248 2.341805152028776e-38
1.043544 -0.958994 -0.249134 2.341805152028776e-38
1.039086 -0.966745 -0.249372 2.341805152028776e-38
1.032421 -0.972453 -0.249084 2.341805152028776e-38
1.027863 -0.980157 -0.249308 2.341805152028776e-38
1.022542 -0.987158 -0.249351 2.341805152028776e-38
1.018581 -0.995511 -0.249733 2.341805152028776e-38
1.012387 -1.001841 -0.249605 2.341805152028776e-38
1.008241 -1.010226 -0.249988 2.341805152028776e-38
1.001264 -1.015794 -0.249673 2.341805152028776e-38
0.994258 -1.021315 -0.249351 2.341805152028776e-38
0.987904 -1.027500 -0.249194 2.341805152028776e-38
0.977381 -1.029417 -0.248011 2.341805152028776e-38
1.511735 -0.760298 -0.308229 2.341805152028776e-38
1.409373 -0.718529 -0.288180 2.341805152028776e-38
1.345090 -0.695103 -0.275835 2.341805152028776e-38
1.293311 -0.677386 -0.265989 2.341805152028776e-38
1.273053 -0.675728 -0.262589 2.341805152028776e-38
1.264116 -0.679930 -0.261511 2.341805152028776e-38
1.260334 -0.686913 -0.261515 2.341805152028776e-38
1.259930 -0.695825 -0.262246 2.341805152028776e-38
1.257749 -0.703795 -0.262610 2.341805152028776e-38
1.251239 -0.709340 -0.262071 2.341805152028776e-38
1.243000 -0.713857 -0.261167 2.341805152028776e-38
1.237297 -0.719797 -0.260796 2.341805152028776e-38
1.230672 -0.725268 -0.260264 2.341805152028776e-38
1.225714 -0.731699 -0.260082 2.341805152028776e-38
1.220723 -0.738099 -0.259894 2.341805152028776e-38
1.215699 -0.744468 -0.259698 2.341805152028776e-38
1.210642 -0.750807 -0.259496 2.341805152028776e-38
1.206344 -0.757698 -0.259485 2.341805152028776e-38
1.201995 -0.764582 -0.259474 2.341805152028776e-38
1.197607 -0.771444 -0.259454 2.341805152028776e-38
1.192356 -0.777745 -0.259248 2.341805152028776e-38
1.187071 -0.784014 -0.259035 2.341805152028776e-38
1.181727 -0.790288 -0.258828 2.341805152028776e-38
1.175507 -0.796014 -0.258446 2.341805152028776e-38
1.169261 -0.801696 -0.258057 2.341805152028776e-38
1.165413 -0.809019 -0.258197 2.341805152028776e-38
1.160714 -0.815760 -0.258152 2.341805152028776e-38
1.155161 -0.821924 -0.257926 2.341805152028776e-38
1.150330 -0.828683 -0.257889 2.341805152028776e-38
1.145460 -0.835416 -0.257844 2.341805152028776e-38
1.141342 -0.842706 -0.257971 2.341805152028776e-38
1.135602 -0.848801 -0.257733 2.341805152028776e-38
1.129828 -0.854862 -0.257489 2.341805152028776e-38
1.123963 -0.860956 -0.257258 2.341805152028776e-38
1.119622 -0.868219 -0.257377 2.341805152028776e-38
1.115233 -0.875463 -0.257489 2.341805152028776e-38
1.110028 -0.882075 -0.257415 2.341805152028776e-38
1.104784 -0.888658 -0.257333 2.341805152028776e-38
1.099450 -0.895269 -0.257261 2.341805152028776e-38
1.093306 -0.901237 -0.257007 2.341805152028776e-38
1.088641 -0.908427 -0.257102 2.341805152028776e-38
1.083177 -0.914961 -0.257011 2.341805152028776e-38
1.076179 -0.920184 -0.256557 2.341805152028776e-38
1.069861 -0.926045 -0.256285 2.341805152028776e-38
1.064967 -0.933188 -0.256370 2.341805152028776e-38
1.058554 -0.939002 -0.256091 2.341805152028776e-38
1.052109 -0.944774 -0.255805 2.341805152028776e-38
1.047090 -0.951829 -0.255868 2.341805152028776e-38
1.042720 -0.959554 -0.256109 2.341805152028776e-38
1.037535 -0.966631 -0.256174 2.341805152028776e-38
1.033020 -0.974358 -0.256410 2.341805152028776e-38
1.027025 -0.980708 -0.256283 2.341805152028776e-38
1.022407 -0.988391 -0.256503 2.341805152028776e-38
1.017011 -0.995385 -0.256542 2.341805152028776e-38
1.011517 -1.002400 -0.256587 2.341805152028776e-38
1.005975 -1.009387 -0.256624 2.341805152028776e-38
0.999695 -1.015645 -0.256476 2.341805152028776e-38
0.994748 -1.023276 -0.256675 2.341805152028776e-38
0.987693 -1.028764 -0.256336 2.341805152028776e-38
0.977158 -1.030691 -0.255122 2.341805152028776e-38
1.339831 -1.467753 -0.356251 2.341805152028776e-38
1.496858 -0.753683 -0.313695 2.341805152028776e-38
1.392882 -0.710956 -0.292747 2.341805152028776e-38
1.330457 -0.688343 -0.280436 2.341805152028776e-38
1.288346 -0.675567 -0.272349 2.341805152028776e-38
1.269852 -0.674806 -0.269223 2.341805152028776e-38
1.264388 -0.680855 -0.268850 2.341805152028776e-38
1.258857 -0.686929 -0.268495 2.341805152028776e-38
1.256729 -0.694882 -0.268874 2.341805152028776e-38
1.256266 -0.703797 -0.269614 2.341805152028776e-38
1.248904 -0.708849 -0.268874 2.341805152028776e-38
1.241525 -0.713844 -0.268127 2.341805152028776e-38
1.234956 -0.719310 -0.267569 2.341805152028776e-38
1.229183 -0.725268 -0.267204 2.341805152028776e-38
1.224227 -0.731691 -0.267015 2.341805152028776e-38
1.218396 -0.737575 -0.266635 2.341805152028776e-38
1.213376 -0.743933 -0.266432 2.341805152028776e-38
1.208316 -0.750271 -0.266225 2.341805152028776e-38
1.204009 -0.757165 -0.266218 2.341805152028776e-38
1.198835 -0.763509 -0.266019 2.341805152028776e-38
1.194453 -0.770354 -0.265997 2.341805152028776e-38
1.189209 -0.776638 -0.265783 2.341805152028776e-38
1.184752 -0.783433 -0.265746 2.341805152028776e-38
1.177759 -0.788626 -0.265171 2.341805152028776e-38
1.173179 -0.795433 -0.265144 2.341805152028776e-38
1.169369 -0.802773 -0.265294 2.341805152028776e-38
1.163900 -0.808975 -0.265068 2.341805152028776e-38
1.158398 -0.815143 -0.264835 2.341805152028776e-38
1.153631 -0.821889 -0.264793 2.341805152028776e-38
1.149598 -0.829215 -0.264936 2.341805152028776e-38
1.144724 -0.835945 -0.264888 2.341805152028776e-38
1.139021 -0.842064 -0.264649 2.341805152028776e-38
1.134073 -0.848737 -0.264586 2.341805152028776e-38
1.127499 -0.854219 -0.264156 2.341805152028776e-38
1.121639 -0.860301 -0.263917 2.341805152028776e-38
1.118077 -0.868154 -0.264221 2.341805152028776e-38
1.113688 -0.875390 -0.264333 2.341805152028776e-38
1.107714 -0.881383 -0.264072 2.341805152028776e-38
1.102468 -0.887961 -0.263988 2.341805152028776e-38
1.097126 -0.894574 -0.263916 2.341805152028776e-38
1.092504 -0.901782 -0.264020 2.341805152028776e-38
1.085571 -0.907077 -0.263566 2.341805152028776e-38
1.080116 -0.913594 -0.263471 2.341805152028776e-38
1.074621 -0.920080 -0.263369 2.341805152028776e-38
1.068287 -0.925953 -0.263094 2.341805152028776e-38
1.061914 -0.931792 -0.262813 2.341805152028776e-38
1.055511 -0.937589 -0.262525 2.341805152028776e-38
1.049807 -0.944003 -0.262412 2.341805152028776e-38
1.044791 -0.951045 -0.262475 2.341805152028776e-38
1.039682 -0.958111 -0.262543 2.341805152028776e-38
1.035225 -0.965842 -0.262791 2.341805152028776e-38
1.030712 -0.973556 -0.263031 2.341805152028776e-38
1.025433 -0.980574 -0.263081 2.341805152028776e-38
1.020106 -0.987565 -0.263123 2.341805152028776e-38
1.014697 -0.994565 -0.263167 2.341805152028776e-38
1.007810 -1.000183 -0.262847 2.341805152028776e-38
1.003668 -1.008543 -0.263247 2.341805152028776e-38
0.998083 -1.015490 -0.263275 2.341805152028776e-38
0.993135 -1.023114 -0.263478 2.341805152028776e-38
0.986064 -1.028611 -0.263133 2.341805152028776e-38
0.974861 -1.029817 -0.261703 2.341805152028776e-38
0.999274 -1.069000 -0.269879 2.341805152028776e-38
1.350155 -1.481307 -0.369128 2.341805152028776e-38
1.388627 -0.709637 -0.299793 2.341805152028776e-38
1.324533 -0.686097 -0.286781 2.341805152028776e-38
1.284219 -0.674202 -0.278859 2.341805152028776e-38
1.270085 -0.675726 -0.276592 2.341805152028776e-38
1.262879 -0.680862 -0.275836 2.341805152028776e-38
1.256479 -0.686471 -0.275286 2.341805152028776e-38
1.255210 -0.694888 -0.275860 2.341805152028776e-38
1.252174 -0.702354 -0.276050 2.341805152028776e-38
1.247386 -0.708840 -0.275854 2.341805152028776e-38
1.241713 -0.714807 -0.275462 2.341805152028776e-38
1.235123 -0.720305 -0.274899 2.341805152028776e-38
1.228501 -0.725765 -0.274332 2.341805152028776e-38
1.223543 -0.732186 -0.274136 2.341805152028776e-38
1.219391 -0.739085 -0.274121 2.341805152028776e-38
1.213527 -0.744936 -0.273721 2.341805152028776e-38
1.208443 -0.751303 -0.273516 2.341805152028776e-38
1.203300 -0.757675 -0.273317 2.341805152028776e-38
1.198123 -0.764017 -0.273110 2.341805152028776e-38
1.192913 -0.770326 -0.272896 2.341805152028776e-38
1.188492 -0.777141 -0.272863 2.341805152028776e-38
1.183203 -0.783405 -0.272639 2.341805152028776e-38
1.177022 -0.789148 -0.272239 2.341805152028776e-38
1.172438 -0.795953 -0.272209 2.341805152028776e-38
1.167815 -0.802733 -0.272171 2.341805152028776e-38
1.163153 -0.809489 -0.272126 2.341805152028776e-38
1.157649 -0.815654 -0.271885 2.341805152028776e-38
1.152860 -0.822421 -0.271846 2.341805152028776e-38
1.148027 -0.829169 -0.271802 2.341805152028776e-38
1.143154 -0.835892 -0.271751 2.341805152028776e-38
1.139031 -0.843172 -0.271880 2.341805152028776e-38
1.132504 -0.848668 -0.271436 2.341805152028776e-38
1.127479 -0.855352 -0.271377 2.341805152028776e-38
1.123171 -0.862632 -0.271506 2.341805152028776e-38
1.118042 -0.869291 -0.271439 2.341805152028776e-38
1.113646 -0.876528 -0.271552 2.341805152028776e-38
1.107666 -0.882523 -0.271281 2.341805152028776e-38
1.102394 -0.889124 -0.271200 2.341805152028776e-38
1.097807 -0.896359 -0.271312 2.341805152028776e-38
1.092415 -0.902947 -0.271228 2.341805152028776e-38
1.086231 -0.908875 -0.270948 2.341805152028776e-38
1.080015 -0.914763 -0.270660 2.341805152028776e-38
1.075247 -0.921903 -0.270745 2.341805152028776e-38
1.068896 -0.927789 -0.270462 2.341805152028776e-38
1.062514 -0.933633 -0.270172 2.341805152028776e-38
1.056100 -0.939437 -0.269875 2.341805152028776e-38
1.050385 -0.945856 -0.269757 2.341805152028776e-38
1.043905 -0.951580 -0.269444 2.341805152028776e-38
1.039495 -0.959328 -0.269704 2.341805152028776e-38
1.034310 -0.966389 -0.269769 2.341805152028776e-38
1.029078 -0.973425 -0.269827 2.341805152028776e-38
1.023798 -0.980435 -0.269876 2.341805152028776e-38
1.019177 -0.988103 -0.270104 2.341805152028776e-38
1.012342 -0.993740 -0.269778 2.341805152028776e-38
1.008946 -1.002809 -0.270382 2.341805152028776e-38
1.002015 -1.008391 -0.270044 2.341805152028776e-38
0.997805 -1.016732 -0.270444 2.341805152028776e-38
0.992164 -1.023651 -0.270463 2.341805152028776e-38
0.985751 -1.029871 -0.270298 2.341805152028776e-38
0.974548 -1.031079 -0.268829 2.341805152028776e-38
1.363374 -0.697588 -0.302164 2.341805152028776e-38
1.312484 -0.680686 -0.291723 2.341805152028776e-38
1.280059 -0.672835 -0.285338 2.341805152028776e-38
1.265946 -0.674337 -0.283012 2.341805152028776e-38
1.260458 -0.680414 -0.282633 2.341805152028776e-38
1.254064 -0.686011 -0.282065 2.341805152028776e-38
1.251079 -0.693464 -0.282264 2.341805152028776e-38
1.247194 -0.700428 -0.282262 2.341805152028776e-38
1.243271 -0.707372 -0.282252 2.341805152028776e-38
1.236747 -0.712846 -0.281661 2.341805152028776e-38
1.231857 -0.719317 -0.281472 2.341805152028776e-38
1.226089 -0.725261 -0.281082 2.341805152028776e-38
1.221135 -0.731669 -0.280878 2.341805152028776e-38
1.216147 -0.738047 -0.280666 2.341805152028776e-38
1.211126 -0.744395 -0.280446 2.341805152028776e-38
1.205195 -0.750258 -0.280050 2.341805152028776e-38
1.200888 -0.757136 -0.280037 2.341805152028776e-38
1.195716 -0.763465 -0.279822 2.341805152028776e-38
1.191334 -0.770295 -0.279793 2.341805152028776e-38
1.186093 -0.776565 -0.279563 2.341805152028776e-38
1.181607 -0.783385 -0.279534 2.341805152028776e-38
1.175427 -0.789120 -0.279121 2.341805152028776e-38
1.170844 -0.795917 -0.279088 2.341805152028776e-38
1.165413 -0.802133 -0.278853 2.341805152028776e-38
1.160754 -0.808877 -0.278804 2.341805152028776e-38
1.154439 -0.814482 -0.278367 2.341805152028776e-38
1.150451 -0.821809 -0.278521 2.341805152028776e-38
1.145621 -0.828545 -0.278474 2.341805152028776e-38
1.141543 -0.835834 -0.278611 2.341805152028776e-38
1.135843 -0.841938 -0.278355 2.341805152028776e-38
1.130111 -0.848007 -0.278091 2.341805152028776e-38
1.125070 -0.854701 -0.278035 2.341805152028776e-38
1.120765 -0.861969 -0.278165 2.341805152028776e-38
1.116414 -0.869218 -0.278287 2.341805152028776e-38
1.111246 -0.875840 -0.278208 2.341805152028776e-38
1.106039 -0.882434 -0.278121 2.341805152028776e-38
1.101512 -0.889666 -0.278235 2.341805152028776e-38
1.096160 -0.896277 -0.278155 2.341805152028776e-38
1.090769 -0.902857 -0.278066 2.341805152028776e-38
1.083082 -0.907516 -0.277392 2.341805152028776e-38
1.079121 -0.915292 -0.277673 2.341805152028776e-38
1.073585 -0.921810 -0.277571 2.341805152028776e-38
1.066495 -0.927044 -0.277087 2.341805152028776e-38
1.060119 -0.932876 -0.276787 2.341805152028776e-38
1.054443 -0.939320 -0.276673 2.341805152028776e-38
1.050187 -0.947046 -0.276934 2.341805152028776e-38
1.043683 -0.952790 -0.276617 2.341805152028776e-38
1.037820 -0.959207 -0.276497 2.341805152028776e-38
1.031918 -0.965590 -0.276370 2.341805152028776e-38
1.026690 -0.972614 -0.276427 2.341805152028776e-38
1.021414 -0.979611 -0.276476 2.341805152028776e-38
1.017495 -0.987955 -0.276901 2.341805152028776e-38
1.012748 -0.995662 -0.277143 2.341805152028776e-38
1.007248 -1.002658 -0.277185 2.341805152028776e-38
1.000319 -1.008233 -0.276837 2.341805152028776e-38
0.994733 -1.015164 -0.276863 2.341805152028776e-38
0.989100 -1.022066 -0.276881 2.341805152028776e-38
0.982678 -1.028287 -0.276715 2.341805152028776e-38
0.972841 -1.030906 -0.275589 2.341805152028776e-38
1.506347 -0.761281 -0.341548 2.341805152028776e-38
1.364307 -0.698943 -0.310226 2.341805152028776e-38
1.304769 -0.677530 -0.297540 2.341805152028776e-38
1.277602 -0.672377 -0.292185 2.341805152028776e-38
1.266096 -0.675254 -0.290394 2.341805152028776e-38
1.258864 -0.680429 -0.289618 2.341805152028776e-38
1.253332 -0.686489 -0.289232 2.341805152028776e-38
1.248629 -0.692988 -0.289035 2.341805152028776e-38
1.243893 -0.699459 -0.288831 2.341805152028776e-38
1.241678 -0.707357 -0.289215 2.341805152028776e-38
1.236836 -0.713832 -0.289015 2.341805152028776e-38
1.230249 -0.719317 -0.288422 2.341805152028776e-38
1.225326 -0.725752 -0.288217 2.341805152028776e-38
1.219530 -0.731652 -0.287806 2.341805152028776e-38
1.214544 -0.738023 -0.287586 2.341805152028776e-38
1.209511 -0.744382 -0.287366 2.341805152028776e-38
1.205238 -0.751284 -0.287357 2.341805152028776e-38
1.200097 -0.757641 -0.287142 2.341805152028776e-38
1.193272 -0.762911 -0.286523 2.341805152028776e-38
1.188070 -0.769195 -0.286292 2.341805152028776e-38
1.184476 -0.776523 -0.286451 2.341805152028776e-38
1.180787 -0.783903 -0.286625 2.341805152028776e-38
1.175420 -0.790183 -0.286398 2.341805152028776e-38
1.170830 -0.796981 -0.286361 2.341805152028776e-38
1.165394 -0.803199 -0.286118 2.341805152028776e-38
1.160730 -0.809944 -0.286065 2.341805152028776e-38
1.155992 -0.816707 -0.286020 2.341805152028776e-38
1.150395 -0.822904 -0.285778 2.341805152028776e-38
1.144765 -0.829066 -0.285529 2.341805152028776e-38
1.140683 -0.836353 -0.285668 2.341805152028776e-38
1.133407 -0.841285 -0.285007 2.341805152028776e-38
1.127661 -0.847363 -0.284741 2.341805152028776e-38
1.124963 -0.855827 -0.285276 2.341805152028776e-38
1.121427 -0.863694 -0.285604 2.341805152028776e-38
1.115519 -0.869743 -0.285331 2.341805152028776e-38
1.110348 -0.876362 -0.285247 2.341805152028776e-38
1.105135 -0.882956 -0.285157 2.341805152028776e-38
1.100586 -0.890204 -0.285278 2.341805152028776e-38
1.094473 -0.896190 -0.284995 2.341805152028776e-38
1.088328 -0.902137 -0.284705 2.341805152028776e-38
1.082151 -0.908044 -0.284406 2.341805152028776e-38
1.077437 -0.915182 -0.284495 2.341805152028776e-38
1.071138 -0.921073 -0.284197 2.341805152028776e-38
1.064795 -0.926938 -0.283896 2.341805152028776e-38
1.059891 -0.934059 -0.283981 2.341805152028776e-38
1.054940 -0.941157 -0.284058 2.341805152028776e-38
1.049942 -0.948231 -0.284127 2.341805152028776e-38
1.044136 -0.954657 -0.284002 2.341805152028776e-38
1.038982 -0.961746 -0.284074 2.341805152028776e-38
1.033064 -0.968138 -0.283942 2.341805152028776e-38
1.027108 -0.974496 -0.283801 2.341805152028776e-38
1.021819 -0.981499 -0.283848 2.341805152028776e-38
1.017162 -0.989183 -0.284091 2.341805152028776e-38
1.012405 -0.996890 -0.284336 2.341805152028776e-38
1.004814 -1.001810 -0.283789 2.341805152028776e-38
0.999271 -1.008765 -0.283822 2.341805152028776e-38
0.993680 -1.015692 -0.283847 2.341805152028776e-38
0.988713 -1.023307 -0.284062 2.341805152028776e-38
0.982275 -1.029535 -0.283892 2.341805152028776e-38
0.970418 -1.030014 -0.282149 2.341805152028776e-38
1.354738 -0.694932 -0.315878 2.341805152028776e-38
1.293556 -0.672564 -0.302476 2.341805152028776e-38
1.274242 -0.671459 -0.298817 2.341805152028776e-38
1.262730 -0.674352 -0.296994 2.341805152028776e-38
1.257230 -0.680441 -0.296603 2.341805152028776e-38
1.252559 -0.686965 -0.296406 2.341805152028776e-38
1.243575 -0.691082 -0.295186 2.341805152028776e-38
1.240557 -0.698487 -0.295380 2.341805152028776e-38
1.235792 -0.704916 -0.295162 2.341805152028776e-38
1.231794 -0.711877 -0.295168 2.341805152028776e-38
1.226912 -0.718323 -0.294964 2.341805152028776e-38
1.221996 -0.724741 -0.294751 2.341805152028776e-38
1.217047 -0.731129 -0.294531 2.341805152028776e-38
1.212901 -0.737996 -0.294505 2.341805152028776e-38
1.208683 -0.744889 -0.294491 2.341805152028776e-38
1.202746 -0.750751 -0.294073 2.341805152028776e-38
1.200920 -0.759188 -0.294662 2.341805152028776e-38
1.195738 -0.765520 -0.294431 2.341805152028776e-38
1.188880 -0.770755 -0.293786 2.341805152028776e-38
1.182804 -0.776498 -0.293344 2.341805152028776e-38
1.178294 -0.783334 -0.293319 2.341805152028776e-38
1.172931 -0.789601 -0.293083 2.341805152028776e-38
1.168345 -0.796387 -0.293043 2.341805152028776e-38
1.164526 -0.803704 -0.293197 2.341805152028776e-38
1.159055 -0.809886 -0.292937 2.341805152028776e-38
1.154298 -0.816666 -0.292897 2.341805152028776e-38
1.149498 -0.823425 -0.292850 2.341805152028776e-38
1.145451 -0.830734 -0.292997 2.341805152028776e-38
1.143726 -0.839765 -0.293745 2.341805152028776e-38
1.135648 -0.844133 -0.292862 2.341805152028776e-38
1.128302 -0.849072 -0.292191 2.341805152028776e-38
1.121695 -0.854575 -0.291722 2.341805152028776e-38
1.116614 -0.861228 -0.291651 2.341805152028776e-38
1.113037 -0.869059 -0.291976 2.341805152028776e-38
1.107870 -0.875666 -0.291889 2.341805152028776e-38
1.101876 -0.881657 -0.291599 2.341805152028776e-38
1.098095 -0.889504 -0.291922 2.341805152028776e-38
1.091987 -0.895477 -0.291631 2.341805152028776e-38
1.085094 -0.900786 -0.291129 2.341805152028776e-38
1.078926 -0.906677 -0.290821 2.341805152028776e-38
1.074212 -0.913804 -0.290911 2.341805152028776e-38
1.069395 -0.920971 -0.291013 2.341805152028776e-38
1.063053 -0.926828 -0.290703 2.341805152028776e-38
1.057414 -0.933292 -0.290586 2.341805152028776e-38
1.053197 -0.941030 -0.290864 2.341805152028776e-38
1.046746 -0.946782 -0.290529 2.341805152028776e-38
1.040929 -0.953212 -0.290405 2.341805152028776e-38
1.035064 -0.959616 -0.290275 2.341805152028776e-38
1.029874 -0.966658 -0.290339 2.341805152028776e-38
1.025347 -0.974349 -0.290595 2.341805152028776e-38
1.020058 -0.981343 -0.290642 2.341805152028776e-38
1.013976 -0.987670 -0.290491 2.341805152028776e-38
1.007133 -0.993297 -0.290138 2.341805152028776e-38
1.001646 -1.000263 -0.290179 2.341805152028776e-38
0.996800 -1.007898 -0.290411 2.341805152028776e-38
0.992583 -1.016215 -0.290836 2.341805152028776e-38
0.985550 -1.021728 -0.290458 2.341805152028776e-38
0.979798 -1.028648 -0.290482 2.341805152028776e-38
0.971313 -1.032684 -0.289697 2.341805152028776e-38
1.096170 -1.180237 -0.328919 2.341805152028776e-38
1.339733 -1.479478 -0.406976 2.341805152028776e-38
1.510349 -0.765298 -0.359897 2.341805152028776e-38
1.345148 -0.690917 -0.321443 2.341805152028776e-38
1.290136 -0.671660 -0.309177 2.341805152028776e-38
1.271713 -0.670994 -0.305636 2.341805152028776e-38
1.261918 -0.674830 -0.304198 2.341805152028776e-38
1.256417 -0.680916 -0.303793 2.341805152028776e-38
1.251745 -0.687436 -0.303589 2.341805152028776e-38
1.244475 -0.692502 -0.302752 2.341805152028776e-38
1.240595 -0.699434 -0.302740 2.341805152028776e-38
1.237504 -0.706866 -0.302942 2.341805152028776e-38
1.231802 -0.712857 -0.302530 2.341805152028776e-38
1.226071 -0.718811 -0.302109 2.341805152028776e-38
1.221995 -0.725724 -0.302096 2.341805152028776e-38
1.217041 -0.732114 -0.301867 2.341805152028776e-38
1.212888 -0.738986 -0.301839 2.341805152028776e-38
1.206981 -0.744880 -0.301416 2.341805152028776e-38
1.205194 -0.753325 -0.302024 2.341805152028776e-38
1.205002 -0.762824 -0.303040 2.341805152028776e-38
1.194860 -0.766014 -0.301553 2.341805152028776e-38
1.188002 -0.771246 -0.300890 2.341805152028776e-38
1.181905 -0.777013 -0.300445 2.341805152028776e-38
1.176577 -0.783304 -0.300209 2.341805152028776e-38
1.172839 -0.790656 -0.300380 2.341805152028776e-38
1.168246 -0.797443 -0.300336 2.341805152028776e-38
1.163615 -0.804206 -0.300283 2.341805152028776e-38
1.159728 -0.811528 -0.300438 2.341805152028776e-38
1.153362 -0.817187 -0.299980 2.341805152028776e-38
1.147764 -0.823372 -0.299721 2.341805152028776e-38
1.147674 -0.833547 -0.300907 2.341805152028776e-38
1.148292 -0.844331 -0.302291 2.341805152028776e-38
1.138622 -0.847560 -0.300970 2.341805152028776e-38
1.128895 -0.850777 -0.299666 2.341805152028776e-38
1.121502 -0.855692 -0.298977 2.341805152028776e-38
1.116414 -0.862346 -0.298901 2.341805152028776e-38
1.112828 -0.870178 -0.299231 2.341805152028776e-38
1.107655 -0.876786 -0.299139 2.341805152028776e-38
1.102399 -0.883414 -0.299054 2.341805152028776e-38
1.096325 -0.889417 -0.298762 2.341805152028776e-38
1.090219 -0.895382 -0.298461 2.341805152028776e-38
1.083329 -0.900682 -0.297944 2.341805152028776e-38
1.077163 -0.906564 -0.297627 2.341805152028776e-38
1.072428 -0.913706 -0.297724 2.341805152028776e-38
1.066869 -0.920225 -0.297619 2.341805152028776e-38
1.061270 -0.926713 -0.297506 2.341805152028776e-38
1.057098 -0.934465 -0.297796 2.341805152028776e-38
1.052872 -0.942203 -0.298079 2.341805152028776e-38
1.044953 -0.946654 -0.297324 2.341805152028776e-38
1.039849 -0.953745 -0.297404 2.341805152028776e-38
1.036131 -0.962143 -0.297888 2.341805152028776e-38
1.030211 -0.968524 -0.297744 2.341805152028776e-38
1.024252 -0.974870 -0.297592 2.341805152028776e-38
1.016845 -0.979823 -0.297020 2.341805152028776e-38
1.011453 -0.986836 -0.297075 2.341805152028776e-38
1.005312 -0.993138 -0.296918 2.341805152028776e-38
1.000517 -1.000788 -0.297162 2.341805152028776e-38
0.996353 -1.009115 -0.297603 2.341805152028776e-38
0.990758 -1.016030 -0.297625 2.341805152028776e-38
0.983707 -1.021553 -0.297241 2.341805152028776e-38
0.977280 -1.027755 -0.297059 2.341805152028776e-38
0.976844 -1.040341 -0.298712 2.341805152028776e-38
1.000247 -1.078805 -0.307725 2.341805152028776e-38
1.266885 -1.401497 -0.394596 2.341805152028776e-38
1.491789 -0.756911 -0.364136 2.341805152028776e-38
1.333801 -0.686005 -0.326494 2.341805152028776e-38
1.280617 -0.667591 -0.314368 2.341805152028776e-38
1.266537 -0.669186 -0.311819 2.341805152028776e-38
1.257619 -0.673460 -0.310559 2.341805152028776e-38
1.254704 -0.680922 -0.310780 2.341805152028776e-38
1.248321 -0.686492 -0.310141 2.341805152028776e-38
1.245328 -0.693919 -0.310346 2.341805152028776e-38
1.243994 -0.702298 -0.310968 2.341805152028776e-38
1.237471 -0.707842 -0.310334 2.341805152028776e-38
1.230920 -0.713345 -0.309696 2.341805152028776e-38
1.224346 -0.718800 -0.309049 2.341805152028776e-38
1.219430 -0.725206 -0.308820 2.341805152028776e-38
1.215318 -0.732087 -0.308795 2.341805152028776e-38
1.211143 -0.738981 -0.308776 2.341805152028776e-38
1.206070 -0.745380 -0.308553 2.341805152028776e-38
1.202620 -0.752785 -0.308746 2.341805152028776e-38
1.199124 -0.760179 -0.308931 2.341805152028776e-38
1.189828 -0.763865 -0.307620 2.341805152028776e-38
1.183802 -0.769607 -0.307152 2.341805152028776e-38
1.180148 -0.776987 -0.307341 2.341805152028776e-38
1.174821 -0.783270 -0.307097 2.341805152028776e-38
1.170272 -0.790067 -0.307057 2.341805152028776e-38
1.166489 -0.797392 -0.307220 2.341805152028776e-38
1.161858 -0.804147 -0.307163 2.341805152028776e-38
1.157949 -0.811487 -0.307329 2.341805152028776e-38
1.150789 -0.816572 -0.306645 2.341805152028776e-38
1.145196 -0.822744 -0.306378 2.341805152028776e-38
1.143521 -0.831756 -0.307163 2.341805152028776e-38
1.140994 -0.840200 -0.307728 2.341805152028776e-38
1.132118 -0.843998 -0.306595 2.341805152028776e-38
1.126319 -0.850123 -0.306320 2.341805152028776e-38
1.119711 -0.855618 -0.305823 2.341805152028776e-38
1.115397 -0.862862 -0.305955 2.341805152028776e-38
1.110266 -0.869485 -0.305866 2.341805152028776e-38
1.105094 -0.876083 -0.305770 2.341805152028776e-38
1.099062 -0.882106 -0.305477 2.341805152028776e-38
1.096031 -0.890557 -0.306022 2.341805152028776e-38
1.088410 -0.895281 -0.305287 2.341805152028776e-38
1.079270 -0.898697 -0.304122 2.341805152028776e-38
1.070875 -0.902668 -0.303160 2.341805152028776e-38
1.067629 -0.911065 -0.303688 2.341805152028776e-38
1.064304 -0.919474 -0.304213 2.341805152028776e-38
1.060181 -0.927236 -0.304517 2.341805152028776e-38
1.055272 -0.934336 -0.304600 2.341805152028776e-38
1.050316 -0.941413 -0.304675 2.341805152028776e-38
1.045280 -0.948500 -0.304753 2.341805152028776e-38
1.039444 -0.954934 -0.304621 2.341805152028776e-38
1.032852 -0.960670 -0.304269 2.341805152028776e-38
1.027653 -0.967703 -0.304331 2.341805152028776e-38
1.022407 -0.974711 -0.304383 2.341805152028776e-38
1.017096 -0.981709 -0.304432 2.341805152028776e-38
1.010987 -0.988046 -0.304277 2.341805152028776e-38
1.004840 -0.994348 -0.304113 2.341805152028776e-38
0.998653 -1.000614 -0.303941 2.341805152028776e-38
0.993114 -1.007540 -0.303970 2.341805152028776e-38
0.986844 -1.013739 -0.303780 2.341805152028776e-38
0.981143 -1.020667 -0.303811 2.341805152028776e-38
0.977415 -1.029693 -0.304461 2.341805152028776e-38
0.975618 -1.040855 -0.305730 2.341805152028776e-38
0.986340 -1.065673 -0.310967 2.341805152028776e-38
1.894380 -0.936427 -0.470800 2.341805152028776e-38
1.508036 -0.766205 -0.376890 2.341805152028776e-38
1.335454 -0.687792 -0.334701 2.341805152028776e-38
1.278867 -0.667583 -0.321429 2.341805152028776e-38
1.265642 -0.669660 -0.319053 2.341805152028776e-38
1.257589 -0.674392 -0.317978 2.341805152028776e-38
1.252952 -0.680924 -0.317764 2.341805152028776e-38
1.247428 -0.686957 -0.317325 2.341805152028776e-38
1.246136 -0.695332 -0.317966 2.341805152028776e-38
1.243073 -0.702782 -0.318175 2.341805152028776e-38
1.235700 -0.707843 -0.317309 2.341805152028776e-38
1.229152 -0.713338 -0.316653 2.341805152028776e-38
1.224265 -0.719775 -0.316423 2.341805152028776e-38
1.220184 -0.726682 -0.316402 2.341805152028776e-38
1.216063 -0.733569 -0.316373 2.341805152028776e-38
1.211025 -0.739991 -0.316146 2.341805152028776e-38
1.205947 -0.746390 -0.315914 2.341805152028776e-38
1.200836 -0.752760 -0.315673 2.341805152028776e-38
1.195691 -0.759099 -0.315425 2.341805152028776e-38
1.189692 -0.764879 -0.314950 2.341805152028776e-38
1.183642 -0.770651 -0.314481 2.341805152028776e-38
1.179980 -0.778032 -0.314671 2.341805152028776e-38
1.174649 -0.784316 -0.314417 2.341805152028776e-38
1.170093 -0.791114 -0.314373 2.341805152028776e-38
1.166304 -0.798440 -0.314537 2.341805152028776e-38
1.161662 -0.805201 -0.314478 2.341805152028776e-38
1.156929 -0.812003 -0.314435 2.341805152028776e-38
1.148974 -0.816519 -0.313516 2.341805152028776e-38
1.144175 -0.823253 -0.313456 2.341805152028776e-38
1.140125 -0.830536 -0.313605 2.341805152028776e-38
1.136816 -0.838383 -0.313962 2.341805152028776e-38
1.130282 -0.843937 -0.313462 2.341805152028776e-38
1.124485 -0.850053 -0.313177 2.341805152028776e-38
1.120205 -0.857320 -0.313318 2.341805152028776e-38
1.115879 -0.864569 -0.313449 2.341805152028776e-38
1.109202 -0.869992 -0.312922 2.341805152028776e-38
1.103241 -0.876003 -0.312613 2.341805152028776e-38
1.098732 -0.883241 -0.312743 2.341805152028776e-38
1.093419 -0.889844 -0.312648 2.341805152028776e-38
1.088820 -0.897038 -0.312760 2.341805152028776e-38
1.078926 -0.899834 -0.311349 2.341805152028776e-38
1.072762 -0.905702 -0.311015 2.341805152028776e-38
1.069478 -0.914129 -0.311557 2.341805152028776e-38
1.065392 -0.921913 -0.311874 2.341805152028776e-38
1.059049 -0.927753 -0.311533 2.341805152028776e-38
1.054866 -0.935497 -0.311832 2.341805152028776e-38
1.049901 -0.942574 -0.311906 2.341805152028776e-38
1.043390 -0.948369 -0.311558 2.341805152028776e-38
1.037555 -0.954795 -0.311421 2.341805152028776e-38
1.031680 -0.961187 -0.311274 2.341805152028776e-38
1.029318 -0.970896 -0.312196 2.341805152028776e-38
1.023344 -0.977243 -0.312032 2.341805152028776e-38
1.017995 -0.984271 -0.312086 2.341805152028776e-38
1.011173 -0.989933 -0.311709 2.341805152028776e-38
1.005013 -0.996239 -0.311539 2.341805152028776e-38
0.998815 -1.002509 -0.311360 2.341805152028776e-38
0.991893 -1.008047 -0.310957 2.341805152028776e-38
0.987640 -1.016362 -0.311411 2.341805152028776e-38
0.981245 -1.022594 -0.311224 2.341805152028776e-38
0.977499 -1.031623 -0.311886 2.341805152028776e-38
0.976349 -1.043502 -0.313395 2.341805152028776e-38
1.840207 -0.910936 -0.468050 2.341805152028776e-38
1.506808 -0.766652 -0.385398 2.341805152028776e-38
1.334458 -0.688235 -0.342277 2.341805152028776e-38
1.277062 -0.667597 -0.328500 2.341805152028776e-38
1.263844 -0.669675 -0.326072 2.341805152028776e-38
1.255797 -0.674399 -0.324969 2.341805152028776e-38
1.252018 -0.681388 -0.324970 2.341805152028776e-38
1.245639 -0.686947 -0.324295 2.341805152028776e-38
1.242642 -0.694363 -0.324501 2.341805152028776e-38
1.238713 -0.701347 -0.324504 2.341805152028776e-38
1.233043 -0.707357 -0.324060 2.341805152028776e-38
1.228189 -0.713818 -0.323830 2.341805152028776e-38
1.223300 -0.720251 -0.323591 2.341805152028776e-38
1.217541 -0.726156 -0.323122 2.341805152028776e-38
1.213407 -0.733053 -0.323099 2.341805152028776e-38
1.207536 -0.738960 -0.322645 2.341805152028776e-38
1.203294 -0.745856 -0.322626 2.341805152028776e-38
1.198187 -0.752212 -0.322377 2.341805152028776e-38
1.193869 -0.759061 -0.322341 2.341805152028776e-38
1.187873 -0.764833 -0.321853 2.341805152028776e-38
1.182620 -0.771158 -0.321604 2.341805152028776e-38
1.178140 -0.777998 -0.321572 2.341805152028776e-38
1.174432 -0.785357 -0.321754 2.341805152028776e-38
1.168255 -0.791063 -0.321261 2.341805152028776e-38
1.163660 -0.797829 -0.321204 2.341805152028776e-38
1.159000 -0.804605 -0.321151 2.341805152028776e-38
1.153473 -0.810833 -0.320883 2.341805152028776e-38
1.146324 -0.815896 -0.320162 2.341805152028776e-38
1.141529 -0.822617 -0.320098 2.341805152028776e-38
1.137482 -0.829887 -0.320247 2.341805152028776e-38
1.133383 -0.837148 -0.320390 2.341805152028776e-38
1.126843 -0.842703 -0.319883 2.341805152028776e-38
1.122609 -0.849978 -0.320032 2.341805152028776e-38
1.117555 -0.856643 -0.319951 2.341805152028776e-38
1.111691 -0.862683 -0.319640 2.341805152028776e-38
1.105795 -0.868687 -0.319320 2.341805152028776e-38
1.100584 -0.875312 -0.319231 2.341805152028776e-38
1.096078 -0.882536 -0.319361 2.341805152028776e-38
1.092281 -0.890358 -0.319704 2.341805152028776e-38
1.085421 -0.895685 -0.319152 2.341805152028776e-38
1.079285 -0.901590 -0.318813 2.341805152028776e-38
1.073090 -0.907487 -0.318476 2.341805152028776e-38
1.069050 -0.915284 -0.318807 2.341805152028776e-38
1.064218 -0.922429 -0.318907 2.341805152028776e-38
1.058606 -0.928908 -0.318777 2.341805152028776e-38
1.053684 -0.936005 -0.318859 2.341805152028776e-38
1.047979 -0.942436 -0.318715 2.341805152028776e-38
1.042180 -0.948890 -0.318580 2.341805152028776e-38
1.036341 -0.955311 -0.318437 2.341805152028776e-38
1.031176 -0.962365 -0.318505 2.341805152028776e-38
1.025964 -0.969393 -0.318564 2.341805152028776e-38
1.020000 -0.975723 -0.318394 2.341805152028776e-38
1.013235 -0.981396 -0.318013 2.341805152028776e-38
1.007825 -0.988398 -0.318066 2.341805152028776e-38
1.002368 -0.995374 -0.318109 2.341805152028776e-38
0.995487 -1.000939 -0.317704 2.341805152028776e-38
0.990627 -1.008548 -0.317949 2.341805152028776e-38
0.984307 -1.014776 -0.317758 2.341805152028776e-38
0.978597 -1.021695 -0.317785 2.341805152028776e-38
0.974852 -1.030711 -0.318459 2.341805152028776e-38
0.975693 -1.044714 -0.320655 2.341805152028776e-38
1.813171 -0.898847 -0.471771 2.341805152028776e-38
1.509002 -0.768862 -0.394821 2.341805152028776e-38
1.337746 -0.690908 -0.350996 2.341805152028776e-38
1.276936 -0.668520 -0.336028 2.341805152028776e-38
1.264588 -0.671055 -0.333771 2.341805152028776e-38
1.256539 -0.675785 -0.332640 2.341805152028776e-38
1.250187 -0.681382 -0.331955 2.341805152028776e-38
1.245517 -0.687875 -0.331716 2.341805152028776e-38
1.241650 -0.694836 -0.331706 2.341805152028776e-38
1.236014 -0.700870 -0.331257 2.341805152028776e-38
1.232039 -0.707836 -0.331253 2.341805152028776e-38
1.227183 -0.714294 -0.331014 2.341805152028776e-38
1.222293 -0.720723 -0.330767 2.341805152028776e-38
1.216534 -0.726624 -0.330284 2.341805152028776e-38
1.212374 -0.733549 -0.330271 2.341805152028776e-38
1.206503 -0.739453 -0.329803 2.341805152028776e-38
1.202258 -0.746344 -0.329780 2.341805152028776e-38
1.197974 -0.753215 -0.329749 2.341805152028776e-38
1.192829 -0.759542 -0.329482 2.341805152028776e-38
1.186817 -0.765331 -0.328989 2.341805152028776e-38
1.182371 -0.772194 -0.328962 2.341805152028776e-38
1.178697 -0.779572 -0.329152 2.341805152028776e-38
1.173360 -0.785852 -0.328881 2.341805152028776e-38
1.167183 -0.791554 -0.328374 2.341805152028776e-38
1.162586 -0.798317 -0.328312 2.341805152028776e-38
1.157900 -0.805117 -0.328266 2.341805152028776e-38
1.151575 -0.810780 -0.327762 2.341805152028776e-38
1.146016 -0.816965 -0.327475 2.341805152028776e-38
1.140425 -0.823116 -0.327180 2.341805152028776e-38
1.136374 -0.830382 -0.327329 2.341805152028776e-38
1.132248 -0.837666 -0.327483 2.341805152028776e-38
1.127267 -0.844384 -0.327414 2.341805152028776e-38
1.121470 -0.850488 -0.327111 2.341805152028776e-38
1.116412 -0.857148 -0.327024 2.341805152028776e-38
1.109778 -0.862586 -0.326477 2.341805152028776e-38
1.105406 -0.869795 -0.326603 2.341805152028776e-38
1.100936 -0.877043 -0.326742 2.341805152028776e-38
1.095660 -0.883661 -0.326645 2.341805152028776e-38
1.091099 -0.890866 -0.326766 2.341805152028776e-38
1.084990 -0.896810 -0.326425 2.341805152028776e-38
1.078849 -0.902716 -0.326076 2.341805152028776e-38
1.074112 -0.909896 -0.326189 2.341805152028776e-38
1.070054 -0.917701 -0.326523 2.341805152028776e-38
1.064471 -0.924217 -0.326396 2.341805152028776e-38
1.057384 -0.929415 -0.325810 2.341805152028776e-38
1.053186 -0.937154 -0.326116 2.341805152028776e-38
1.048176 -0.944260 -0.326199 2.341805152028776e-38
1.042365 -0.950718 -0.326059 2.341805152028776e-38
1.035799 -0.956483 -0.325684 2.341805152028776e-38
1.030626 -0.963536 -0.325751 2.341805152028776e-38
1.025405 -0.970564 -0.325808 2.341805152028776e-38
1.019419 -0.976907 -0.325636 2.341805152028776e-38
1.011941 -0.981909 -0.325022 2.341805152028776e-38
1.007222 -0.989589 -0.325298 2.341805152028776e-38
1.001755 -0.996565 -0.325339 2.341805152028776e-38
0.995555 -1.002821 -0.325147 2.341805152028776e-38
0.989998 -1.009737 -0.325170 2.341805152028776e-38
0.984326 -1.016685 -0.325202 2.341805152028776e-38
0.976583 -1.021494 -0.324555 2.341805152028776e-38
0.974840 -1.032626 -0.325912 2.341805152028776e-38
1.807933 -0.897566 -0.481016 2.341805152028776e-38
1.483412 -0.756920 -0.396871 2.341805152028776e-38
1.329727 -0.687794 -0.356770 2.341805152028776e-38
1.274182 -0.668083 -0.342879 2.341805152028776e-38
1.260131 -0.669692 -0.340106 2.341805152028776e-38
1.253809 -0.675322 -0.339410 2.341805152028776e-38
1.249171 -0.681838 -0.339171 2.341805152028776e-38
1.243649 -0.687857 -0.338691 2.341805152028776e-38
1.238061 -0.693892 -0.338229 2.341805152028776e-38
1.233279 -0.700388 -0.337998 2.341805152028776e-38
1.230993 -0.708311 -0.338454 2.341805152028776e-38
1.224455 -0.713785 -0.337742 2.341805152028776e-38
1.219569 -0.720202 -0.337486 2.341805152028776e-38
1.214639 -0.726605 -0.337228 2.341805152028776e-38
1.211299 -0.734042 -0.337450 2.341805152028776e-38
1.206257 -0.740450 -0.337200 2.341805152028776e-38
1.201180 -0.746829 -0.336941 2.341805152028776e-38
1.196070 -0.753177 -0.336674 2.341805152028776e-38
1.190107 -0.758972 -0.336166 2.341805152028776e-38
1.183260 -0.764251 -0.335440 2.341805152028776e-38
1.178820 -0.771095 -0.335409 2.341805152028776e-38
1.175152 -0.778455 -0.335600 2.341805152028776e-38
1.169014 -0.784175 -0.335088 2.341805152028776e-38
1.164459 -0.790948 -0.335030 2.341805152028776e-38
1.160651 -0.798268 -0.335204 2.341805152028776e-38
1.155160 -0.804512 -0.334925 2.341805152028776e-38
1.150431 -0.811282 -0.334870 2.341805152028776e-38
1.144079 -0.816898 -0.334342 2.341805152028776e-38
1.139278 -0.823611 -0.334269 2.341805152028776e-38
1.133653 -0.829724 -0.333955 2.341805152028776e-38
1.131070 -0.838179 -0.334582 2.341805152028776e-38
1.124529 -0.843725 -0.334046 2.341805152028776e-38
1.119512 -0.850404 -0.333964 2.341805152028776e-38
1.113684 -0.856462 -0.333642 2.341805152028776e-38
1.108591 -0.863082 -0.333542 2.341805152028776e-38
1.104193 -0.870312 -0.333677 2.341805152028776e-38
1.099718 -0.877556 -0.333815 2.341805152028776e-38
1.094439 -0.884169 -0.333714 2.341805152028776e-38
1.089120 -0.890754 -0.333603 2.341805152028776e-38
1.082264 -0.896068 -0.333021 2.341805152028776e-38
1.077609 -0.903222 -0.333127 2.341805152028776e-38
1.072113 -0.909780 -0.333014 2.341805152028776e-38
1.066578 -0.916308 -0.332891 2.341805152028776e-38
1.060269 -0.922167 -0.332529 2.341805152028776e-38
1.056119 -0.929915 -0.332848 2.341805152028776e-38
1.051188 -0.937002 -0.332927 2.341805152028776e-38
1.046154 -0.944121 -0.333017 2.341805152028776e-38
1.041063 -0.951227 -0.333101 2.341805152028776e-38
1.035210 -0.957647 -0.332946 2.341805152028776e-38
1.030028 -0.964700 -0.333010 2.341805152028776e-38
1.024799 -0.971728 -0.333066 2.341805152028776e-38
1.018080 -0.977418 -0.332665 2.341805152028776e-38
1.010602 -0.982415 -0.332036 2.341805152028776e-38
1.004489 -0.988725 -0.331856 2.341805152028776e-38
0.999027 -0.995686 -0.331896 2.341805152028776e-38
0.993517 -1.002621 -0.331926 2.341805152028776e-38
0.987259 -1.008850 -0.331724 2.341805152028776e-38
0.979559 -1.013687 -0.331069 2.341805152028776e-38
0.974526 -1.021286 -0.331320 2.341805152028776e-38
0.974110 -1.033826 -0.333160 2.341805152028776e-38
0.976228 -1.049254 -0.335900 2.341805152028776e-38
1.493317 -0.763099 -0.408361 2.341805152028776e-38
1.327718 -0.687815 -0.364137 2.341805152028776e-38
1.272251 -0.668094 -0.349954 2.341805152028776e-38
1.259073 -0.670151 -0.347356 2.341805152028776e-38
1.253608 -0.676238 -0.346879 2.341805152028776e-38
1.247261 -0.681824 -0.346157 2.341805152028776e-38
1.240879 -0.687382 -0.345436 2.341805152028776e-38
1.236980 -0.694371 -0.345441 2.341805152028776e-38
1.233886 -0.701824 -0.345674 2.341805152028776e-38
1.229063 -0.708297 -0.345426 2.341805152028776e-38
1.224207 -0.714742 -0.345168 2.341805152028776e-38
1.219318 -0.721160 -0.344902 2.341805152028776e-38
1.215193 -0.728096 -0.344888 2.341805152028776e-38
1.211013 -0.735034 -0.344874 2.341805152028776e-38
1.205138 -0.740934 -0.344378 2.341805152028776e-38
1.200060 -0.747308 -0.344110 2.341805152028776e-38
1.195770 -0.754171 -0.344069 2.341805152028776e-38
1.190613 -0.760503 -0.343789 2.341805152028776e-38
1.184563 -0.766333 -0.343289 2.341805152028776e-38
1.178486 -0.772122 -0.342781 2.341805152028776e-38
1.173191 -0.778407 -0.342499 2.341805152028776e-38
1.168669 -0.785203 -0.342445 2.341805152028776e-38
1.164109 -0.791976 -0.342383 2.341805152028776e-38
1.159469 -0.798775 -0.342332 2.341805152028776e-38
1.153977 -0.805014 -0.342045 2.341805152028776e-38
1.150038 -0.812341 -0.342220 2.341805152028776e-38
1.143683 -0.817957 -0.341678 2.341805152028776e-38
1.138876 -0.824670 -0.341600 2.341805152028776e-38
1.134796 -0.831953 -0.341756 2.341805152028776e-38
1.129068 -0.838108 -0.341452 2.341805152028776e-38
1.124084 -0.844813 -0.341373 2.341805152028776e-38
1.119060 -0.851491 -0.341286 2.341805152028776e-38
1.113997 -0.858143 -0.341189 2.341805152028776e-38
1.108128 -0.864170 -0.340848 2.341805152028776e-38
1.102935 -0.870824 -0.340757 2.341805152028776e-38
1.098456 -0.878063 -0.340895 2.341805152028776e-38
1.093174 -0.884671 -0.340788 2.341805152028776e-38
1.087101 -0.890635 -0.340436 2.341805152028776e-38
1.080996 -0.896562 -0.340075 2.341805152028776e-38
1.075569 -0.903110 -0.339954 2.341805152028776e-38
1.070814 -0.910289 -0.340070 2.341805152028776e-38
1.065276 -0.916812 -0.339941 2.341805152028776e-38
