VERSION .7
FIELDS x y z rgb
SIZE 4 4 4 4
TYPE F F F F
COUNT 1 1 1 1
WIDTH 957
HEIGHT 1
VIEWPOINT 0 0 0 1 0 0 0
POINTS 957
DATA ascii
1.233719 0.675774 -0.030259 2.341805152028776e-38
1.237402 0.669007 -0.030257 2.341805152028776e-38
1.243665 0.663685 -0.030321 2.341805152028776e-38
1.246369 0.656451 -0.030298 2.341805152028776e-38
1.248144 0.648746 -0.030252 2.341805152028776e-38
1.252540 0.642410 -0.030271 2.341805152028776e-38
1.255995 0.635628 -0.030268 2.341805152028776e-38
1.259387 0.628882 -0.030267 2.341805152028776e-38
1.262743 0.622117 -0.030265 2.341805152028776e-38
1.267860 0.616208 -0.030305 2.341805152028776e-38
1.273852 0.610694 -0.030366 2.341805152028776e-38
1.275286 0.603032 -0.030320 2.341805152028776e-38
1.280273 0.597116 -0.030362 2.341805152028776e-38
1.285233 0.591165 -0.030403 2.341805152028776e-38
1.289256 0.584765 -0.030421 2.341805152028776e-38
1.289596 0.576706 -0.030353 2.341805152028776e-38
1.294446 0.570711 -0.030393 2.341805152028776e-38
1.297410 0.563940 -0.030392 2.341805152028776e-38
1.295744 0.555185 -0.030283 2.341805152028776e-38
1.360335 0.574466 -0.031719 2.341805152028776e-38
1.374394 0.571961 -0.031973 2.341805152028776e-38
0.634356 0.590567 -0.022635 2.341805152028776e-38
0.696051 0.640170 -0.024708 2.341805152028776e-38
0.781306 0.709884 -0.027593 2.341805152028776e-38
0.909832 0.816647 -0.031968 2.341805152028776e-38
1.005995 0.892056 -0.035171 2.341805152028776e-38
1.045159 0.915654 -0.036362 2.341805152028776e-38
1.058185 0.915915 -0.036637 2.341805152028776e-38
1.068974 0.914105 -0.036832 2.341805152028776e-38
1.075196 0.908327 -0.036869 2.341805152028776e-38
1.081363 0.902536 -0.036907 2.341805152028776e-38
1.086690 0.896115 -0.036919 2.341805152028776e-38
1.091979 0.889663 -0.036929 2.341805152028776e-38
1.095672 0.881925 -0.036887 2.341805152028776e-38
1.100876 0.875420 -0.036895 2.341805152028776e-38
1.103660 0.867060 -0.036825 2.341805152028776e-38
1.108717 0.860585 -0.036834 2.341805152028776e-38
1.115321 0.855297 -0.036895 2.341805152028776e-38
1.122699 0.850565 -0.036981 2.341805152028776e-38
1.123657 0.840984 -0.036856 2.341805152028776e-38
1.126930 0.833233 -0.036810 2.341805152028776e-38
1.131730 0.826702 -0.036817 2.341805152028776e-38
1.138114 0.821312 -0.036875 2.341805152028776e-38
1.139589 0.812395 -0.036775 2.341805152028776e-38
1.143451 0.805215 -0.036753 2.341805152028776e-38
1.148888 0.799189 -0.036783 2.341805152028776e-38
1.157555 0.795442 -0.036919 2.341805152028776e-38
1.159600 0.787131 -0.036844 2.341805152028776e-38
1.165739 0.781606 -0.036900 2.341805152028776e-38
1.170185 0.774933 -0.036902 2.341805152028776e-38
1.173738 0.767717 -0.036877 2.341805152028776e-38
1.175533 0.759453 -0.036802 2.341805152028776e-38
1.180643 0.753344 -0.036830 2.341805152028776e-38
1.184030 0.746136 -0.036805 2.341805152028776e-38
1.188222 0.739441 -0.036805 2.341805152028776e-38
1.192358 0.732754 -0.036805 2.341805152028776e-38
1.198988 0.727652 -0.036886 2.341805152028776e-38
1.203025 0.720957 -0.036886 2.341805152028776e-38
1.208745 0.715259 -0.036938 2.341805152028776e-38
1.208398 0.705989 -0.036805 2.341805152028776e-38
1.214895 0.700771 -0.036883 2.341805152028776e-38
1.222208 0.696052 -0.036988 2.341805152028776e-38
1.226892 0.689804 -0.037014 2.341805152028776e-38
1.229796 0.682556 -0.036986 2.341805152028776e-38
1.231781 0.674816 -0.036930 2.341805152028776e-38
1.238098 0.669483 -0.037007 2.341805152028776e-38
1.242600 0.663215 -0.037032 2.341805152028776e-38
1.242648 0.654589 -0.036926 2.341805152028776e-38
1.247074 0.648288 -0.036949 2.341805152028776e-38
1.252357 0.642414 -0.036998 2.341805152028776e-38
1.258491 0.636983 -0.037073 2.341805152028776e-38
1.259207 0.628883 -0.036993 2.341805152028776e-38
1.262562 0.622119 -0.036991 2.341805152028776e-38
1.268579 0.616648 -0.037066 2.341805152028776e-38
1.272770 0.610267 -0.037088 2.341805152028776e-38
1.273300 0.602178 -0.037005 2.341805152028776e-38
1.278283 0.596273 -0.037057 2.341805152028776e-38
1.282330 0.589914 -0.037080 2.341805152028776e-38
1.288167 0.584356 -0.037156 2.341805152028776e-38
1.292155 0.577935 -0.037177 2.341805152028776e-38
1.297013 0.571922 -0.037226 2.341805152028776e-38
1.301818 0.565934 -0.037277 2.341805152028776e-38
1.296487 0.555581 -0.037039 2.341805152028776e-38
1.358309 0.573692 -0.038715 2.341805152028776e-38
1.376977 0.573118 -0.039157 2.341805152028776e-38
0.629086 0.585788 -0.026534 2.341805152028776e-38
0.691474 0.636099 -0.029015 2.341805152028776e-38
0.782603 0.711217 -0.032671 2.341805152028776e-38
0.916315 0.822644 -0.038058 2.341805152028776e-38
1.008756 0.894693 -0.041688 2.341805152028776e-38
1.044921 0.915639 -0.042972 2.341805152028776e-38
1.058702 0.916556 -0.043328 2.341805152028776e-38
1.068733 0.914092 -0.043528 2.341805152028776e-38
1.074955 0.908315 -0.043572 2.341805152028776e-38
1.081125 0.902523 -0.043616 2.341805152028776e-38
1.085681 0.895467 -0.043600 2.341805152028776e-38
1.090965 0.889020 -0.043612 2.341805152028776e-38
1.095433 0.881915 -0.043593 2.341805152028776e-38
1.099856 0.874789 -0.043572 2.341805152028776e-38
1.103425 0.867049 -0.043520 2.341805152028776e-38
1.108481 0.860575 -0.043531 2.341805152028776e-38
1.115086 0.855289 -0.043603 2.341805152028776e-38
1.119276 0.848143 -0.043580 2.341805152028776e-38
1.120221 0.838582 -0.043433 2.341805152028776e-38
1.125091 0.832036 -0.043440 2.341805152028776e-38
1.131498 0.826694 -0.043510 2.341805152028776e-38
1.137071 0.820721 -0.043548 2.341805152028776e-38
1.137729 0.811230 -0.043399 2.341805152028776e-38
1.143219 0.805211 -0.043435 2.341805152028776e-38
1.148659 0.799183 -0.043470 2.341805152028776e-38
1.156501 0.794871 -0.043601 2.341805152028776e-38
1.160197 0.787689 -0.043574 2.341805152028776e-38
1.164678 0.781047 -0.043578 2.341805152028776e-38
1.167455 0.773275 -0.043518 2.341805152028776e-38
1.173511 0.767713 -0.043582 2.341805152028776e-38
1.177825 0.761077 -0.043586 2.341805152028776e-38
1.182101 0.754417 -0.043589 2.341805152028776e-38
1.185495 0.747201 -0.043559 2.341805152028776e-38
1.191390 0.741555 -0.043621 2.341805152028776e-38
1.192986 0.733275 -0.043528 2.341805152028776e-38
1.197909 0.727132 -0.043561 2.341805152028776e-38
1.202801 0.720957 -0.043593 2.341805152028776e-38
1.207661 0.714751 -0.043623 2.341805152028776e-38
1.209037 0.706496 -0.043528 2.341805152028776e-38
1.214673 0.700770 -0.043589 2.341805152028776e-38
1.221117 0.695558 -0.043682 2.341805152028776e-38
1.224927 0.688826 -0.043682 2.341805152028776e-38
1.228700 0.682073 -0.043680 2.341805152028776e-38
1.234189 0.676261 -0.043738 2.341805152028776e-38
1.237000 0.669007 -0.043704 2.341805152028776e-38
1.241499 0.662746 -0.043734 2.341805152028776e-38
1.243313 0.655058 -0.043671 2.341805152028776e-38
1.246855 0.648292 -0.043667 2.341805152028776e-38
1.251249 0.641963 -0.043694 2.341805152028776e-38
1.255598 0.635630 -0.043721 2.341805152028776e-38
1.258990 0.628885 -0.043719 2.341805152028776e-38
1.265035 0.623448 -0.043810 2.341805152028776e-38
1.267463 0.616216 -0.043775 2.341805152028776e-38
1.270750 0.609408 -0.043770 2.341805152028776e-38
1.272183 0.601751 -0.043703 2.341805152028776e-38
1.277163 0.595852 -0.043763 2.341805152028776e-38
1.282116 0.589917 -0.043822 2.341805152028776e-38
1.288862 0.584773 -0.043942 2.341805152028776e-38
1.291940 0.577941 -0.043937 2.341805152028776e-38
1.295887 0.571519 -0.043963 2.341805152028776e-38
1.297939 0.564342 -0.043931 2.341805152028776e-38
1.294439 0.554796 -0.043711 2.341805152028776e-38
1.356247 0.572918 -0.045693 2.341805152028776e-38
1.391518 0.579269 -0.046773 2.341805152028776e-38
0.633300 0.589861 -0.030829 2.341805152028776e-38
0.697904 0.642175 -0.033799 2.341805152028776e-38
0.794961 0.722631 -0.038302 2.341805152028776e-38
0.924245 0.829974 -0.044305 2.341805152028776e-38
1.013720 0.899317 -0.048350 2.341805152028776e-38
1.048401 0.918915 -0.049761 2.341805152028776e-38
1.060688 0.918502 -0.050100 2.341805152028776e-38
1.069211 0.914727 -0.050260 2.341805152028776e-38
1.076200 0.909592 -0.050346 2.341805152028776e-38
1.081614 0.903147 -0.050361 2.341805152028776e-38
1.086173 0.896088 -0.050342 2.341805152028776e-38
1.093011 0.890901 -0.050428 2.341805152028776e-38
1.097490 0.883784 -0.050406 2.341805152028776e-38
1.101924 0.876645 -0.050382 2.341805152028776e-38
1.106294 0.869507 -0.050358 2.341805152028776e-38
1.108996 0.861177 -0.050263 2.341805152028776e-38
1.114811 0.855279 -0.050311 2.341805152028776e-38
1.119002 0.848135 -0.050285 2.341805152028776e-38
1.120747 0.839174 -0.050150 2.341805152028776e-38
1.127230 0.833809 -0.050229 2.341805152028776e-38
1.132841 0.827865 -0.050275 2.341805152028776e-38
1.136799 0.820714 -0.050248 2.341805152028776e-38
1.140713 0.813545 -0.050219 2.341805152028776e-38
1.143765 0.805783 -0.050152 2.341805152028776e-38
1.148391 0.799176 -0.050157 2.341805152028776e-38
1.156233 0.794865 -0.050308 2.341805152028776e-38
1.160756 0.788246 -0.050314 2.341805152028776e-38
1.166070 0.782157 -0.050353 2.341805152028776e-38
1.168854 0.774378 -0.050284 2.341805152028776e-38
1.174082 0.768255 -0.050322 2.341805152028776e-38
1.180078 0.762701 -0.050399 2.341805152028776e-38
1.186048 0.757104 -0.050474 2.341805152028776e-38
1.191148 0.750931 -0.050511 2.341805152028776e-38
1.193670 0.743140 -0.050439 2.341805152028776e-38
1.192724 0.733271 -0.050224 2.341805152028776e-38
1.197647 0.727130 -0.050262 2.341805152028776e-38
1.202539 0.720957 -0.050299 2.341805152028776e-38
1.209119 0.715770 -0.050406 2.341805152028776e-38
1.209638 0.707003 -0.050261 2.341805152028776e-38
1.215280 0.701268 -0.050330 2.341805152028776e-38
1.219990 0.695063 -0.050367 2.341805152028776e-38
1.229895 0.691767 -0.050617 2.341805152028776e-38
1.230189 0.683047 -0.050471 2.341805152028776e-38
1.233930 0.676265 -0.050468 2.341805152028776e-38
1.238502 0.669958 -0.050499 2.341805152028776e-38
1.243006 0.663688 -0.050535 2.341805152028776e-38
1.243942 0.655526 -0.050425 2.341805152028776e-38
1.245713 0.647835 -0.050350 2.341805152028776e-38
1.250104 0.641512 -0.050381 2.341805152028776e-38
1.255346 0.635630 -0.050447 2.341805152028776e-38
1.258738 0.628887 -0.050445 2.341805152028776e-38
1.262093 0.622126 -0.050443 2.341805152028776e-38
1.269007 0.617095 -0.050582 2.341805152028776e-38
1.272300 0.610279 -0.050576 2.341805152028776e-38
1.276451 0.603889 -0.050605 2.341805152028776e-38
1.280536 0.597545 -0.050639 2.341805152028776e-38
1.283682 0.590757 -0.050636 2.341805152028776e-38
1.288612 0.584778 -0.050703 2.341805152028776e-38
1.289865 0.577131 -0.050626 2.341805152028776e-38
1.292896 0.570309 -0.050619 2.341805152028776e-38
1.295859 0.563547 -0.050618 2.341805152028776e-38
1.295111 0.555193 -0.050472 2.341805152028776e-38
1.355990 0.572923 -0.052723 2.341805152028776e-38
1.370036 0.570441 -0.053147 2.341805152028776e-38
0.635294 0.591890 -0.035060 2.341805152028776e-38
0.704302 0.648250 -0.038668 2.341805152028776e-38
0.805063 0.732025 -0.043973 2.341805152028776e-38
0.934366 0.839304 -0.050776 2.341805152028776e-38
1.016400 0.901948 -0.054957 2.341805152028776e-38
1.048834 0.919553 -0.056435 2.341805152028776e-38
1.061123 0.919137 -0.056819 2.341805152028776e-38
1.069649 0.915359 -0.057000 2.341805152028776e-38
1.075879 0.909577 -0.057058 2.341805152028776e-38
1.081296 0.903129 -0.057075 2.341805152028776e-38
1.086626 0.896708 -0.057094 2.341805152028776e-38
1.091918 0.890255 -0.057111 2.341805152028776e-38
1.096394 0.883144 -0.057085 2.341805152028776e-38
1.101605 0.876633 -0.057099 2.341805152028776e-38
1.105979 0.869492 -0.057071 2.341805152028776e-38
1.110261 0.862390 -0.057045 2.341805152028776e-38
1.114497 0.855267 -0.057018 2.341805152028776e-38
1.117891 0.847521 -0.056948 2.341805152028776e-38
1.118834 0.837968 -0.056755 2.341805152028776e-38
1.124511 0.832015 -0.056804 2.341805152028776e-38
1.132530 0.827855 -0.056978 2.341805152028776e-38
1.138109 0.821876 -0.057028 2.341805152028776e-38
1.139590 0.812958 -0.056874 2.341805152028776e-38
1.143456 0.805778 -0.056839 2.341805152028776e-38
1.148906 0.799738 -0.056885 2.341805152028776e-38
1.159220 0.797123 -0.057178 2.341805152028776e-38
1.162102 0.789363 -0.057103 2.341805152028776e-38
1.165763 0.782153 -0.057067 2.341805152028776e-38
1.169380 0.774928 -0.057029 2.341805152028776e-38
1.174615 0.768796 -0.057072 2.341805152028776e-38
1.178935 0.762154 -0.057078 2.341805152028776e-38
1.181533 0.754413 -0.057000 2.341805152028776e-38
1.185772 0.747732 -0.057002 2.341805152028776e-38
1.189974 0.741028 -0.057002 2.341805152028776e-38
1.190724 0.732221 -0.056839 2.341805152028776e-38
1.199057 0.728166 -0.057045 2.341805152028776e-38
1.203954 0.721985 -0.057087 2.341805152028776e-38
1.208819 0.715772 -0.057127 2.341805152028776e-38
1.209339 0.707006 -0.056963 2.341805152028776e-38
1.214119 0.700767 -0.057000 2.341805152028776e-38
1.219694 0.695063 -0.057082 2.341805152028776e-38
1.226985 0.690299 -0.057244 2.341805152028776e-38
1.228145 0.682080 -0.057120 2.341805152028776e-38
1.233633 0.676270 -0.057197 2.341805152028776e-38
1.235573 0.668531 -0.057111 2.341805152028776e-38
1.241832 0.663219 -0.057232 2.341805152028776e-38
1.245417 0.656461 -0.057230 2.341805152028776e-38
1.248080 0.649222 -0.057185 2.341805152028776e-38
1.249812 0.641518 -0.057098 2.341805152028776e-38
1.255949 0.636082 -0.057214 2.341805152028776e-38
1.259343 0.629336 -0.057212 2.341805152028776e-38
1.264493 0.623455 -0.057290 2.341805152028776e-38
1.268718 0.617100 -0.057326 2.341805152028776e-38
1.274713 0.611582 -0.057441 2.341805152028776e-38
1.275262 0.603463 -0.057312 2.341805152028776e-38
1.278439 0.596702 -0.057310 2.341805152028776e-38
1.281580 0.589925 -0.057307 2.341805152028776e-38
1.285596 0.583545 -0.057343 2.341805152028776e-38
1.286843 0.575914 -0.057255 2.341805152028776e-38
1.292614 0.570310 -0.057368 2.341805152028776e-38
1.297409 0.564346 -0.057448 2.341805152028776e-38
1.296667 0.555984 -0.057283 2.341805152028776e-38
1.345572 0.568650 -0.059307 2.341805152028776e-38
1.351292 0.562765 -0.059422 2.341805152028776e-38
0.641646 0.598002 -0.039589 2.341805152028776e-38
0.707728 0.651616 -0.043441 2.341805152028776e-38
0.806998 0.734023 -0.049281 2.341805152028776e-38
0.938498 0.843291 -0.057020 2.341805152028776e-38
1.019787 0.905240 -0.061647 2.341805152028776e-38
1.052232 0.922823 -0.063298 2.341805152028776e-38
1.063028 0.921079 -0.063638 2.341805152028776e-38
1.070805 0.916639 -0.063795 2.341805152028776e-38
1.076279 0.910204 -0.063815 2.341805152028776e-38
1.080938 0.903108 -0.063788 2.341805152028776e-38
1.083957 0.894781 -0.063674 2.341805152028776e-38
1.088463 0.887712 -0.063647 2.341805152028776e-38
1.095258 0.882502 -0.063755 2.341805152028776e-38
1.101247 0.876620 -0.063815 2.341805152028776e-38
1.106411 0.870093 -0.063829 2.341805152028776e-38
1.109118 0.861762 -0.063710 2.341805152028776e-38
1.112559 0.854038 -0.063634 2.341805152028776e-38
1.116742 0.846906 -0.063602 2.341805152028776e-38
1.119282 0.838558 -0.063476 2.341805152028776e-38
1.125769 0.833191 -0.063577 2.341805152028776e-38
1.132182 0.827844 -0.063680 2.341805152028776e-38
1.136950 0.821281 -0.063691 2.341805152028776e-38
1.138428 0.812371 -0.063519 2.341805152028776e-38
1.143924 0.806348 -0.063571 2.341805152028776e-38
1.152661 0.802582 -0.063804 2.341805152028776e-38
1.159697 0.797681 -0.063949 2.341805152028776e-38
1.160104 0.788234 -0.063730 2.341805152028776e-38
1.165418 0.782149 -0.063780 2.341805152028776e-38
1.169868 0.775478 -0.063784 2.341805152028776e-38
1.174274 0.768789 -0.063786 2.341805152028776e-38
1.173561 0.758895 -0.063520 2.341805152028776e-38
1.176983 0.751721 -0.063479 2.341805152028776e-38
1.183742 0.746665 -0.063617 2.341805152028776e-38
1.190481 0.741557 -0.063754 2.341805152028776e-38
1.195493 0.735357 -0.063798 2.341805152028776e-38
1.200427 0.729201 -0.063847 2.341805152028776e-38
1.205330 0.723012 -0.063894 2.341805152028776e-38
1.209341 0.716282 -0.063894 2.341805152028776e-38
1.209866 0.707513 -0.063710 2.341805152028776e-38
1.214652 0.701264 -0.063751 2.341805152028776e-38
1.221965 0.696547 -0.063934 2.341805152028776e-38
1.227522 0.690790 -0.064024 2.341805152028776e-38
1.229559 0.683053 -0.063931 2.341805152028776e-38
1.233300 0.676276 -0.063927 2.341805152028776e-38
1.236123 0.669006 -0.063875 2.341805152028776e-38
1.242383 0.663691 -0.064011 2.341805152028776e-38
1.245088 0.656464 -0.063963 2.341805152028776e-38
1.246865 0.648766 -0.063868 2.341805152028776e-38
1.250372 0.641982 -0.063862 2.341805152028776e-38
1.258297 0.637437 -0.064081 2.341805152028776e-38
1.259911 0.629785 -0.063989 2.341805152028776e-38
1.264168 0.623459 -0.064031 2.341805152028776e-38
1.269291 0.617543 -0.064116 2.341805152028776e-38
1.273486 0.611158 -0.064155 2.341805152028776e-38
1.274037 0.603036 -0.064009 2.341805152028776e-38
1.275402 0.595437 -0.063917 2.341805152028776e-38
1.279444 0.589094 -0.063959 2.341805152028776e-38
1.284365 0.583138 -0.064044 2.341805152028776e-38
1.290169 0.577555 -0.064173 2.341805152028776e-38
1.295951 0.571927 -0.064299 2.341805152028776e-38
1.298923 0.565145 -0.064298 2.341805152028776e-38
1.292677 0.554413 -0.063842 2.341805152028776e-38
1.336963 0.565155 -0.065877 2.341805152028776e-38
1.356496 0.565077 -0.066686 2.341805152028776e-38
0.641393 0.597983 -0.043755 2.341805152028776e-38
0.707451 0.651596 -0.048012 2.341805152028776e-38
0.811116 0.738035 -0.054766 2.341805152028776e-38
0.937391 0.842601 -0.062970 2.341805152028776e-38
1.019398 0.905213 -0.068134 2.341805152028776e-38
1.051081 0.922139 -0.069909 2.341805152028776e-38
1.061872 0.920401 -0.070285 2.341805152028776e-38
1.070403 0.916617 -0.070509 2.341805152028776e-38
1.075114 0.909539 -0.070481 2.341805152028776e-38
1.079774 0.902445 -0.070451 2.341805152028776e-38
1.084330 0.895396 -0.070424 2.341805152028776e-38
1.090388 0.889587 -0.070496 2.341805152028776e-38
1.095638 0.883112 -0.070515 2.341805152028776e-38
1.100068 0.875983 -0.070481 2.341805152028776e-38
1.103663 0.868222 -0.070396 2.341805152028776e-38
1.108726 0.861745 -0.070415 2.341805152028776e-38
1.112959 0.854631 -0.070381 2.341805152028776e-38
1.117146 0.847497 -0.070346 2.341805152028776e-38
1.122887 0.841542 -0.070408 2.341805152028776e-38
1.130198 0.836742 -0.070569 2.341805152028776e-38
1.136631 0.831369 -0.070683 2.341805152028776e-38
1.138182 0.822441 -0.070495 2.341805152028776e-38
1.138855 0.812942 -0.070254 2.341805152028776e-38
1.145170 0.807493 -0.070362 2.341805152028776e-38
1.151457 0.802001 -0.070469 2.341805152028776e-38
1.155198 0.794842 -0.070429 2.341805152028776e-38
1.158895 0.787666 -0.070387 2.341805152028776e-38
1.164205 0.781588 -0.070444 2.341805152028776e-38
1.168652 0.774923 -0.070448 2.341805152028776e-38
1.173895 0.768782 -0.070500 2.341805152028776e-38
1.174861 0.759974 -0.070306 2.341805152028776e-38
1.181656 0.754944 -0.070461 2.341805152028776e-38
1.187587 0.749328 -0.070565 2.341805152028776e-38
1.191797 0.742614 -0.070565 2.341805152028776e-38
1.195119 0.735353 -0.070513 2.341805152028776e-38
1.200906 0.729716 -0.070618 2.341805152028776e-38
1.206668 0.724039 -0.070720 2.341805152028776e-38
1.209826 0.716793 -0.070670 2.341805152028776e-38
1.212078 0.709030 -0.070567 2.341805152028776e-38
1.216011 0.702263 -0.070562 2.341805152028776e-38
1.220727 0.696052 -0.070614 2.341805152028776e-38
1.227151 0.690792 -0.070764 2.341805152028776e-38
1.230062 0.683542 -0.070711 2.341805152028776e-38
1.233805 0.676762 -0.070706 2.341805152028776e-38
1.235755 0.669010 -0.070599 2.341805152028776e-38
1.242017 0.663692 -0.070749 2.341805152028776e-38
1.245606 0.656933 -0.070747 2.341805152028776e-38
1.248271 0.649694 -0.070692 2.341805152028776e-38
1.252672 0.643358 -0.070736 2.341805152028776e-38
1.259713 0.638348 -0.070928 2.341805152028776e-38
1.261337 0.630680 -0.070825 2.341805152028776e-38
1.264702 0.623905 -0.070822 2.341805152028776e-38
1.268031 0.617112 -0.070816 2.341805152028776e-38
1.272223 0.610734 -0.070859 2.341805152028776e-38
1.273676 0.603047 -0.070749 2.341805152028776e-38
1.276856 0.596285 -0.070746 2.341805152028776e-38
1.280902 0.589934 -0.070792 2.341805152028776e-38
1.286736 0.584384 -0.070937 2.341805152028776e-38
1.290723 0.577972 -0.070979 2.341805152028776e-38
1.292852 0.570727 -0.070919 2.341805152028776e-38
1.295822 0.563951 -0.070916 2.341805152028776e-38
1.291408 0.554023 -0.070512 2.341805152028776e-38
1.329241 0.562049 -0.072411 2.341805152028776e-38
1.356129 0.565085 -0.073707 2.341805152028776e-38
0.644036 0.600686 -0.048139 2.341805152028776e-38
0.713755 0.657664 -0.053075 2.341805152028776e-38
0.815198 0.742045 -0.060308 2.341805152028776e-38
0.942931 0.847918 -0.069403 2.341805152028776e-38
1.021956 0.907836 -0.074840 2.341805152028776e-38
1.050643 0.922111 -0.076565 2.341805152028776e-38
1.062939 0.921683 -0.077086 2.341805152028776e-38
1.070719 0.917243 -0.077277 2.341805152028776e-38
1.076196 0.910807 -0.077301 2.341805152028776e-38
1.081635 0.904341 -0.077323 2.341805152028776e-38
1.088512 0.899188 -0.077458 2.341805152028776e-38
1.093819 0.892723 -0.077482 2.341805152028776e-38
1.097532 0.884973 -0.077393 2.341805152028776e-38
1.100412 0.876589 -0.077247 2.341805152028776e-38
1.106369 0.870672 -0.077318 2.341805152028776e-38
1.109082 0.862340 -0.077174 2.341805152028776e-38
1.114903 0.856440 -0.077248 2.341805152028776e-38
1.118306 0.848691 -0.077154 2.341805152028776e-38
1.127249 0.845124 -0.077442 2.341805152028776e-38
1.133781 0.839699 -0.077563 2.341805152028776e-38
1.137814 0.832534 -0.077523 2.341805152028776e-38
1.139373 0.823599 -0.077317 2.341805152028776e-38
1.142492 0.815834 -0.077219 2.341805152028776e-38
1.148823 0.810363 -0.077338 2.341805152028776e-38
1.151852 0.802563 -0.077234 2.341805152028776e-38
1.157244 0.796530 -0.077300 2.341805152028776e-38
1.160125 0.788781 -0.077200 2.341805152028776e-38
1.164613 0.782139 -0.077207 2.341805152028776e-38
1.169062 0.775472 -0.077211 2.341805152028776e-38
1.175144 0.769874 -0.077324 2.341805152028776e-38
1.181151 0.764307 -0.077441 2.341805152028776e-38
1.187129 0.758704 -0.077556 2.341805152028776e-38
1.190547 0.751458 -0.077505 2.341805152028776e-38
1.195617 0.745255 -0.077561 2.341805152028776e-38
1.198954 0.737972 -0.077504 2.341805152028776e-38
1.202200 0.730750 -0.077453 2.341805152028776e-38
1.206255 0.724038 -0.077455 2.341805152028776e-38
1.210272 0.717303 -0.077455 2.341805152028776e-38
1.212528 0.709537 -0.077343 2.341805152028776e-38
1.217329 0.703268 -0.077393 2.341805152028776e-38
1.222922 0.697535 -0.077504 2.341805152028776e-38
1.232833 0.694223 -0.077888 2.341805152028776e-38
1.231399 0.684516 -0.077556 2.341805152028776e-38
1.233397 0.676768 -0.077441 2.341805152028776e-38
1.236226 0.669494 -0.077379 2.341805152028776e-38
1.244256 0.665106 -0.077652 2.341805152028776e-38
1.247852 0.658334 -0.077650 2.341805152028776e-38
1.251411 0.651544 -0.077645 2.341805152028776e-38
1.254934 0.644735 -0.077638 2.341805152028776e-38
1.260200 0.638809 -0.077739 2.341805152028776e-38
1.260046 0.630236 -0.077516 2.341805152028776e-38
1.261618 0.622584 -0.077402 2.341805152028776e-38
1.264939 0.615808 -0.077397 2.341805152028776e-38
1.270025 0.609879 -0.077498 2.341805152028776e-38
1.274181 0.603486 -0.077543 2.341805152028776e-38
1.280082 0.597978 -0.077703 2.341805152028776e-38
1.282323 0.590775 -0.077645 2.341805152028776e-38
1.286342 0.584391 -0.077694 2.341805152028776e-38
1.287596 0.576756 -0.077575 2.341805152028776e-38
1.300679 0.574369 -0.078169 2.341805152028776e-38
1.305504 0.568337 -0.078274 2.341805152028776e-38
1.295610 0.555996 -0.077502 2.341805152028776e-38
1.330684 0.562834 -0.079418 2.341805152028776e-38
1.343745 0.560100 -0.080014 2.341805152028776e-38
0.645192 0.602025 -0.052441 2.341805152028776e-38
0.710483 0.654933 -0.057450 2.341805152028776e-38
0.820721 0.747397 -0.066024 2.341805152028776e-38
0.946203 0.851229 -0.075732 2.341805152028776e-38
1.022231 0.908470 -0.081404 2.341805152028776e-38
1.051664 0.923397 -0.083339 2.341805152028776e-38
1.061703 0.921000 -0.083727 2.341805152028776e-38
1.070235 0.917216 -0.083994 2.341805152028776e-38
1.074951 0.910138 -0.083961 2.341805152028776e-38
1.081917 0.904959 -0.084104 2.341805152028776e-38
1.086494 0.897890 -0.084072 2.341805152028776e-38
1.091793 0.891437 -0.084098 2.341805152028776e-38
1.096277 0.884325 -0.084061 2.341805152028776e-38
1.102276 0.878437 -0.084141 2.341805152028776e-38
1.105107 0.870038 -0.083981 2.341805152028776e-38
1.109399 0.862932 -0.083943 2.341805152028776e-38
1.113639 0.855814 -0.083903 2.341805152028776e-38
1.117039 0.848072 -0.083802 2.341805152028776e-38
1.124380 0.843314 -0.083995 2.341805152028776e-38
1.130099 0.837312 -0.084067 2.341805152028776e-38
1.130902 0.827802 -0.083786 2.341805152028776e-38
1.139715 0.824171 -0.084099 2.341805152028776e-38
1.143650 0.816984 -0.084052 2.341805152028776e-38
1.148356 0.810355 -0.084062 2.341805152028776e-38
1.152205 0.803129 -0.084009 2.341805152028776e-38
1.156783 0.796519 -0.084021 2.341805152028776e-38
1.158839 0.788211 -0.083852 2.341805152028776e-38
1.164981 0.782690 -0.083980 2.341805152028776e-38
1.168602 0.775468 -0.083925 2.341805152028776e-38
1.173849 0.769325 -0.083987 2.341805152028776e-38
1.178181 0.762673 -0.083995 2.341805152028776e-38
1.181626 0.755473 -0.083941 2.341805152028776e-38
1.188403 0.750390 -0.084124 2.341805152028776e-38
1.196854 0.746312 -0.084424 2.341805152028776e-38
1.197647 0.737452 -0.084184 2.341805152028776e-38
1.197485 0.728153 -0.083889 2.341805152028776e-38
1.201526 0.721467 -0.083892 2.341805152028776e-38
1.209821 0.717304 -0.084191 2.341805152028776e-38
1.214662 0.711054 -0.084248 2.341805152028776e-38
1.216878 0.703274 -0.084124 2.341805152028776e-38
1.224211 0.698523 -0.084363 2.341805152028776e-38
1.228907 0.692264 -0.084422 2.341805152028776e-38
1.225719 0.681609 -0.083942 2.341805152028776e-38
1.230327 0.675333 -0.083997 2.341805152028776e-38
1.236659 0.669978 -0.084168 2.341805152028776e-38
1.244696 0.665577 -0.084464 2.341805152028776e-38
1.247412 0.658338 -0.084402 2.341805152028776e-38
1.250971 0.651550 -0.084398 2.341805152028776e-38
1.252718 0.643830 -0.084271 2.341805152028776e-38
1.258869 0.638369 -0.084440 2.341805152028776e-38
1.261397 0.631132 -0.084376 2.341805152028776e-38
1.268345 0.626124 -0.084611 2.341805152028776e-38
1.269891 0.618437 -0.084486 2.341805152028776e-38
1.272290 0.611185 -0.084418 2.341805152028776e-38
1.275551 0.604352 -0.084407 2.341805152028776e-38
1.277844 0.597135 -0.084341 2.341805152028776e-38
1.282801 0.591197 -0.084457 2.341805152028776e-38
1.285004 0.583985 -0.084391 2.341805152028776e-38
1.291722 0.578807 -0.084621 2.341805152028776e-38
1.299334 0.573978 -0.084908 2.341805152028776e-38
1.295926 0.564354 -0.084484 2.341805152028776e-38
1.290601 0.554031 -0.083944 2.341805152028776e-38
1.331170 0.563229 -0.086385 2.341805152028776e-38
1.347915 0.562030 -0.087272 2.341805152028776e-38
0.650697 0.607447 -0.057147 2.341805152028776e-38
0.726994 0.670468 -0.063518 2.341805152028776e-38
0.832845 0.758794 -0.072394 2.341805152028776e-38
0.950917 0.855872 -0.082237 2.341805152028776e-38
1.024700 0.911093 -0.088170 2.341805152028776e-38
1.052644 0.924680 -0.090131 2.341805152028776e-38
1.062689 0.922276 -0.090551 2.341805152028776e-38
1.070469 0.917837 -0.090775 2.341805152028776e-38
1.075189 0.910757 -0.090740 2.341805152028776e-38
1.080628 0.904295 -0.090766 2.341805152028776e-38
1.085976 0.897862 -0.090795 2.341805152028776e-38
1.092821 0.892674 -0.090952 2.341805152028776e-38
1.097312 0.885556 -0.090913 2.341805152028776e-38
1.101758 0.878417 -0.090871 2.341805152028776e-38
1.106158 0.871256 -0.090826 2.341805152028776e-38
1.109675 0.863523 -0.090720 2.341805152028776e-38
1.113129 0.855794 -0.090613 2.341805152028776e-38
1.118119 0.849262 -0.090633 2.341805152028776e-38
1.122272 0.842102 -0.090585 2.341805152028776e-38
1.127182 0.835517 -0.090598 2.341805152028776e-38
1.132814 0.829554 -0.090680 2.341805152028776e-38
1.140018 0.824741 -0.090890 2.341805152028776e-38
1.145581 0.818713 -0.090968 2.341805152028776e-38
1.149481 0.811497 -0.090915 2.341805152028776e-38
1.150881 0.802552 -0.090665 2.341805152028776e-38
1.155462 0.795940 -0.090677 2.341805152028776e-38
1.159991 0.789324 -0.090688 2.341805152028776e-38
1.163654 0.782126 -0.090633 2.341805152028776e-38
1.166441 0.774360 -0.090510 2.341805152028776e-38
1.172515 0.768777 -0.090642 2.341805152028776e-38
1.172663 0.759410 -0.090326 2.341805152028776e-38
1.180293 0.754929 -0.090592 2.341805152028776e-38
1.189597 0.751453 -0.090983 2.341805152028776e-38
1.195512 0.745784 -0.091114 2.341805152028776e-38
1.192905 0.734838 -0.090596 2.341805152028776e-38
1.197852 0.728668 -0.090664 2.341805152028776e-38
1.204461 0.723521 -0.090861 2.341805152028776e-38
1.212767 0.719341 -0.091184 2.341805152028776e-38
1.213313 0.710553 -0.090924 2.341805152028776e-38
1.216391 0.703280 -0.090854 2.341805152028776e-38
1.221128 0.697038 -0.090918 2.341805152028776e-38
1.225815 0.690796 -0.090983 2.341805152028776e-38
1.225239 0.681613 -0.090658 2.341805152028776e-38
1.231596 0.676300 -0.090846 2.341805152028776e-38
1.236177 0.669988 -0.090903 2.341805152028776e-38
1.245099 0.666049 -0.091286 2.341805152028776e-38
1.246935 0.658341 -0.091155 2.341805152028776e-38
1.250494 0.651556 -0.091150 2.341805152028776e-38
1.254017 0.644752 -0.091143 2.341805152028776e-38
1.258392 0.638380 -0.091197 2.341805152028776e-38
1.270742 0.636047 -0.091836 2.341805152028776e-38
1.280400 0.632315 -0.092284 2.341805152028776e-38
1.276596 0.621941 -0.091762 2.341805152028776e-38
1.274518 0.612492 -0.091366 2.341805152028776e-38
1.276883 0.605220 -0.091290 2.341805152028776e-38
1.283708 0.600096 -0.091540 2.341805152028776e-38
1.291398 0.595380 -0.091859 2.341805152028776e-38
1.294532 0.588535 -0.091852 2.341805152028776e-38
1.289435 0.578001 -0.091263 2.341805152028776e-38
1.294303 0.571974 -0.091380 2.341805152028776e-38
1.296381 0.564754 -0.091308 2.341805152028776e-38
1.291062 0.554429 -0.090725 2.341805152028776e-38
1.341729 0.567904 -0.094070 2.341805152028776e-38
1.374150 0.573180 -0.096123 2.341805152028776e-38
0.678042 0.633296 -0.063992 2.341805152028776e-38
0.749323 0.691411 -0.070354 2.341805152028776e-38
0.840500 0.766156 -0.078511 2.341805152028776e-38
0.951142 0.856507 -0.088394 2.341805152028776e-38
1.023401 0.910398 -0.094629 2.341805152028776e-38
1.052833 0.925301 -0.096873 2.341805152028776e-38
1.062879 0.922896 -0.097324 2.341805152028776e-38
1.070662 0.918455 -0.097565 2.341805152028776e-38
1.075386 0.911374 -0.097527 2.341805152028776e-38
1.080064 0.904269 -0.097486 2.341805152028776e-38
1.085418 0.897831 -0.097517 2.341805152028776e-38
1.090717 0.891383 -0.097548 2.341805152028776e-38
1.095202 0.884278 -0.097506 2.341805152028776e-38
1.100420 0.877773 -0.097530 2.341805152028776e-38
1.104816 0.870620 -0.097482 2.341805152028776e-38
1.109125 0.863498 -0.097438 2.341805152028776e-38
1.112579 0.855772 -0.097323 2.341805152028776e-38
1.118363 0.849847 -0.097413 2.341805152028776e-38
1.122520 0.842685 -0.097362 2.341805152028776e-38
1.127433 0.836099 -0.097377 2.341805152028776e-38
1.133075 0.830125 -0.097464 2.341805152028776e-38
1.139473 0.824725 -0.097621 2.341805152028776e-38
1.144223 0.818120 -0.097636 2.341805152028776e-38
1.148121 0.810912 -0.097579 2.341805152028776e-38
1.151973 0.803686 -0.097518 2.341805152028776e-38
1.157389 0.797625 -0.097600 2.341805152028776e-38
1.159454 0.789313 -0.097405 2.341805152028776e-38
1.163944 0.782675 -0.097414 2.341805152028776e-38
1.166735 0.774907 -0.097283 2.341805152028776e-38
1.171144 0.768228 -0.097286 2.341805152028776e-38
1.173809 0.760486 -0.097155 2.341805152028776e-38
1.180603 0.755461 -0.097371 2.341805152028776e-38
1.187377 0.750384 -0.097584 2.341805152028776e-38
1.193286 0.744727 -0.097724 2.341805152028776e-38
1.194073 0.735887 -0.097446 2.341805152028776e-38
1.199032 0.729700 -0.097517 2.341805152028776e-38
1.206501 0.725060 -0.097799 2.341805152028776e-38
1.211382 0.718833 -0.097869 2.341805152028776e-38
1.211927 0.710052 -0.097590 2.341805152028776e-38
1.215865 0.703287 -0.097585 2.341805152028776e-38
1.219743 0.696541 -0.097583 2.341805152028776e-38
1.225296 0.690796 -0.097722 2.341805152028776e-38
1.228208 0.683557 -0.097651 2.341805152028776e-38
1.231952 0.676787 -0.097646 2.341805152028776e-38
1.237412 0.670948 -0.097776 2.341805152028776e-38
1.244584 0.666049 -0.098048 2.341805152028776e-38
1.247303 0.658810 -0.097977 2.341805152028776e-38
1.251750 0.652484 -0.098042 2.341805152028776e-38
1.252616 0.644304 -0.097826 2.341805152028776e-38
1.259657 0.639295 -0.098093 2.341805152028776e-38
1.271124 0.636496 -0.098708 2.341805152028776e-38
1.272731 0.628784 -0.098566 2.341805152028776e-38
1.268015 0.618015 -0.097937 2.341805152028776e-38
1.269514 0.610341 -0.097789 2.341805152028776e-38
1.274573 0.604378 -0.097916 2.341805152028776e-38
1.278687 0.597985 -0.097975 2.341805152028776e-38
1.283647 0.592043 -0.098110 2.341805152028776e-38
1.286763 0.585239 -0.098104 2.341805152028776e-38
1.291664 0.579236 -0.098233 2.341805152028776e-38
1.295626 0.572794 -0.098290 2.341805152028776e-38
1.297716 0.565552 -0.098210 2.341805152028776e-38
1.293320 0.555615 -0.097653 2.341805152028776e-38
1.351324 0.572189 -0.101801 2.341805152028776e-38
1.364423 0.569348 -0.102553 2.341805152028776e-38
0.699501 0.653692 -0.070608 2.341805152028776e-38
0.765735 0.706938 -0.076895 2.341805152028776e-38
0.848113 0.773515 -0.084731 2.341805152028776e-38
0.955774 0.861145 -0.095002 2.341805152028776e-38
1.025787 0.913016 -0.101446 2.341805152028776e-38
1.052982 0.925920 -0.103623 2.341805152028776e-38
1.063782 0.924167 -0.104179 2.341805152028776e-38
1.070058 0.918421 -0.104290 2.341805152028776e-38
1.075542 0.911988 -0.104323 2.341805152028776e-38
1.080224 0.904882 -0.104280 2.341805152028776e-38
1.085589 0.898434 -0.104313 2.341805152028776e-38
1.090892 0.891985 -0.104345 2.341805152028776e-38
1.095380 0.884877 -0.104301 2.341805152028776e-38
1.101381 0.878993 -0.104401 2.341805152028776e-38
1.105002 0.871216 -0.104277 2.341805152028776e-38
1.110895 0.865310 -0.104376 2.341805152028776e-38
1.115151 0.858182 -0.104328 2.341805152028776e-38
1.119361 0.851034 -0.104277 2.341805152028776e-38
1.122728 0.843267 -0.104148 2.341805152028776e-38
1.127645 0.836679 -0.104165 2.341805152028776e-38
1.133296 0.830694 -0.104257 2.341805152028776e-38
1.138889 0.824708 -0.104351 2.341805152028776e-38
1.144450 0.818686 -0.104441 2.341805152028776e-38
1.152424 0.814354 -0.104751 2.341805152028776e-38
1.153026 0.804820 -0.104391 2.341805152028776e-38
1.156812 0.797610 -0.104329 2.341805152028776e-38
1.161351 0.790986 -0.104343 2.341805152028776e-38
1.164196 0.783223 -0.104206 2.341805152028776e-38
1.168652 0.776557 -0.104213 2.341805152028776e-38
1.174737 0.770961 -0.104366 2.341805152028776e-38
1.176589 0.762645 -0.104150 2.341805152028776e-38
1.182554 0.757067 -0.104307 2.341805152028776e-38
1.186808 0.750380 -0.104313 2.341805152028776e-38
1.191024 0.743670 -0.104316 2.341805152028776e-38
1.194353 0.736413 -0.104241 2.341805152028776e-38
1.200173 0.730731 -0.104390 2.341805152028776e-38
1.207646 0.726085 -0.104691 2.341805152028776e-38
1.210817 0.718833 -0.104619 2.341805152028776e-38
1.212224 0.710560 -0.104395 2.341805152028776e-38
1.215303 0.703293 -0.104316 2.341805152028776e-38
1.220919 0.697528 -0.104461 2.341805152028776e-38
1.227345 0.692267 -0.104684 2.341805152028776e-38
1.230266 0.685016 -0.104608 2.341805152028776e-38
1.234018 0.678235 -0.104603 2.341805152028776e-38
1.237732 0.671434 -0.104595 2.341805152028776e-38
1.244912 0.666520 -0.104884 2.341805152028776e-38
1.246753 0.658813 -0.104734 2.341805152028776e-38
1.251199 0.652490 -0.104804 2.341805152028776e-38
1.252066 0.644313 -0.104574 2.341805152028776e-38
1.260884 0.640210 -0.105008 2.341805152028776e-38
1.265226 0.633817 -0.105071 2.341805152028776e-38
1.265926 0.625696 -0.104846 2.341805152028776e-38
1.266575 0.617585 -0.104618 2.341805152028776e-38
1.268072 0.609919 -0.104461 2.341805152028776e-38
1.268623 0.601827 -0.104227 2.341805152028776e-38
1.273634 0.595874 -0.104362 2.341805152028776e-38
1.281298 0.591212 -0.104729 2.341805152028776e-38
1.288041 0.586073 -0.105019 2.341805152028776e-38
1.292946 0.580063 -0.105158 2.341805152028776e-38
1.293263 0.572001 -0.104923 2.341805152028776e-38
1.298099 0.565952 -0.105057 2.341805152028776e-38
1.293709 0.556012 -0.104463 2.341805152028776e-38
1.347101 0.570640 -0.108527 2.341805152028776e-38
1.354666 0.565516 -0.108888 2.341805152028776e-38
0.703428 0.657743 -0.075629 2.341805152028776e-38
0.768916 0.710285 -0.082244 2.341805152028776e-38
0.854947 0.780199 -0.090977 2.341805152028776e-38
0.958141 0.863778 -0.101440 2.341805152028776e-38
1.024408 0.912316 -0.107908 2.341805152028776e-38
1.052341 0.925877 -0.110303 2.341805152028776e-38
1.062385 0.923473 -0.110817 2.341805152028776e-38
1.069412 0.918384 -0.111013 2.341805152028776e-38
1.074137 0.911309 -0.110971 2.341805152028776e-38
1.080343 0.905492 -0.111083 2.341805152028776e-38
1.084951 0.898399 -0.111038 2.341805152028776e-38
1.089482 0.891321 -0.110995 2.341805152028776e-38
1.094742 0.884848 -0.111027 2.341805152028776e-38
1.099964 0.878345 -0.111055 2.341805152028776e-38
1.104365 0.871194 -0.111002 2.341805152028776e-38
1.109478 0.864669 -0.111028 2.341805152028776e-38
1.113730 0.857548 -0.110977 2.341805152028776e-38
1.119524 0.851615 -0.111080 2.341805152028776e-38
1.122896 0.843847 -0.110944 2.341805152028776e-38
1.127015 0.836663 -0.110883 2.341805152028776e-38
1.131869 0.830082 -0.110902 2.341805152028776e-38
1.139073 0.825274 -0.111159 2.341805152028776e-38
1.143016 0.818090 -0.111099 2.341805152028776e-38
1.147728 0.811464 -0.111113 2.341805152028776e-38
1.150768 0.803669 -0.110967 2.341805152028776e-38
1.154556 0.796462 -0.110900 2.341805152028776e-38
1.156616 0.788166 -0.110679 2.341805152028776e-38
1.162755 0.782656 -0.110848 2.341805152028776e-38
1.168037 0.776551 -0.110936 2.341805152028776e-38
1.172455 0.769863 -0.110941 2.341805152028776e-38
1.174309 0.761549 -0.110710 2.341805152028776e-38
1.181946 0.757059 -0.111035 2.341805152028776e-38
1.186200 0.750375 -0.111042 2.341805152028776e-38
1.191262 0.744196 -0.111124 2.341805152028776e-38
1.195443 0.737461 -0.111124 2.341805152028776e-38
1.200424 0.731243 -0.111203 2.341805152028776e-38
1.204481 0.724540 -0.111208 2.341805152028776e-38
1.210215 0.718832 -0.111368 2.341805152028776e-38
1.211624 0.710563 -0.111131 2.341805152028776e-38
1.212977 0.702300 -0.110890 2.341805152028776e-38
1.219460 0.697030 -0.111121 2.341805152028776e-38
1.226751 0.692267 -0.111438 2.341805152028776e-38
1.228801 0.684534 -0.111279 2.341805152028776e-38
1.233423 0.678241 -0.111353 2.341805152028776e-38
1.235386 0.670492 -0.111187 2.341805152028776e-38
1.243445 0.666049 -0.111572 2.341805152028776e-38
1.244402 0.657884 -0.111334 2.341805152028776e-38
1.250611 0.652496 -0.111567 2.341805152028776e-38
1.253252 0.645235 -0.111480 2.341805152028776e-38
1.259406 0.639771 -0.111706 2.341805152028776e-38
1.260188 0.631585 -0.111456 2.341805152028776e-38
1.264452 0.625258 -0.111532 2.341805152028776e-38
1.266892 0.618030 -0.111448 2.341805152028776e-38
1.269291 0.610794 -0.111360 2.341805152028776e-38
1.270748 0.603123 -0.111190 2.341805152028776e-38
1.275771 0.597146 -0.111332 2.341805152028776e-38
1.281631 0.591634 -0.111565 2.341805152028776e-38
1.285653 0.585254 -0.111638 2.341805152028776e-38
1.287824 0.578033 -0.111550 2.341805152028776e-38
1.290866 0.571208 -0.111538 2.341805152028776e-38
1.294787 0.564767 -0.111601 2.341805152028776e-38
1.292229 0.555622 -0.111124 2.341805152028776e-38
1.348351 0.571425 -0.115687 2.341805152028776e-38
1.367877 0.571289 -0.117097 2.341805152028776e-38
0.685491 0.641365 -0.078215 2.341805152028776e-38
0.760352 0.702806 -0.086310 2.341805152028776e-38
0.852907 0.778815 -0.096320 2.341805152028776e-38
0.959727 0.865739 -0.107832 2.341805152028776e-38
1.025966 0.914265 -0.114693 2.341805152028776e-38
1.053156 0.927148 -0.117149 2.341805152028776e-38
1.061701 0.923430 -0.117527 2.341805152028776e-38
1.068727 0.918344 -0.117736 2.341805152028776e-38
1.074211 0.911918 -0.117775 2.341805152028776e-38
1.080420 0.906100 -0.117894 2.341805152028776e-38
1.085041 0.898996 -0.117846 2.341805152028776e-38
1.090347 0.892549 -0.117884 2.341805152028776e-38
1.094065 0.884817 -0.117751 2.341805152028776e-38
1.100065 0.878939 -0.117865 2.341805152028776e-38
1.104469 0.871787 -0.117809 2.341805152028776e-38
1.110380 0.865864 -0.117919 2.341805152028776e-38
1.116219 0.859954 -0.118033 2.341805152028776e-38
1.121233 0.853402 -0.118060 2.341805152028776e-38
1.121430 0.843228 -0.117582 2.341805152028776e-38
1.125547 0.836052 -0.117517 2.341805152028776e-38
1.131209 0.830058 -0.117620 2.341805152028776e-38
1.135990 0.823499 -0.117643 2.341805152028776e-38
1.138303 0.815172 -0.117412 2.341805152028776e-38
1.144626 0.809723 -0.117595 2.341805152028776e-38
1.150106 0.803659 -0.117691 2.341805152028776e-38
1.153083 0.795878 -0.117535 2.341805152028776e-38
1.156788 0.788713 -0.117468 2.341805152028776e-38
1.161275 0.782089 -0.117481 2.341805152028776e-38
1.165725 0.775439 -0.117491 2.341805152028776e-38
1.170969 0.769312 -0.117581 2.341805152028776e-38
1.175337 0.762622 -0.117585 2.341805152028776e-38
1.180462 0.756512 -0.117680 2.341805152028776e-38
1.186396 0.750903 -0.117855 2.341805152028776e-38
1.191460 0.744723 -0.117942 2.341805152028776e-38
1.193949 0.736939 -0.117776 2.341805152028776e-38
1.199785 0.731235 -0.117941 2.341805152028776e-38
1.205550 0.725563 -0.118115 2.341805152028776e-38
1.209576 0.718831 -0.118118 2.341805152028776e-38
1.210126 0.710061 -0.117783 2.341805152028776e-38
1.215789 0.704305 -0.117946 2.341805152028776e-38
1.223155 0.699500 -0.118273 2.341805152028776e-38
1.228722 0.693736 -0.118443 2.341805152028776e-38
1.231651 0.686477 -0.118358 2.341805152028776e-38
1.235411 0.679689 -0.118354 2.341805152028776e-38
1.238258 0.672404 -0.118262 2.341805152028776e-38
1.244575 0.666993 -0.118501 2.341805152028776e-38
1.247303 0.659750 -0.118417 2.341805152028776e-38
1.251753 0.653424 -0.118497 2.341805152028776e-38
1.254399 0.646157 -0.118406 2.341805152028776e-38
1.259669 0.640235 -0.118562 2.341805152028776e-38
1.262239 0.632936 -0.118464 2.341805152028776e-38
1.267408 0.627029 -0.118627 2.341805152028776e-38
1.269858 0.619785 -0.118538 2.341805152028776e-38
1.271369 0.612101 -0.118362 2.341805152028776e-38
1.274634 0.605275 -0.118350 2.341805152028776e-38
1.277863 0.598431 -0.118334 2.341805152028776e-38
1.281022 0.591639 -0.118328 2.341805152028776e-38
1.285951 0.585675 -0.118489 2.341805152028776e-38
1.286307 0.577635 -0.118229 2.341805152028776e-38
1.289347 0.570819 -0.118217 2.341805152028776e-38
1.293265 0.564386 -0.118285 2.341805152028776e-38
1.292547 0.556019 -0.117943 2.341805152028776e-38
1.352316 0.573376 -0.123118 2.341805152028776e-38
1.385635 0.578983 -0.125866 2.341805152028776e-38
0.671187 0.628391 -0.081012 2.341805152028776e-38
0.746651 0.690591 -0.089656 2.341805152028776e-38
0.847159 0.774070 -0.101203 2.341805152028776e-38
0.953879 0.861024 -0.113373 2.341805152028776e-38
1.024507 0.913560 -0.121153 2.341805152028776e-38
1.050938 0.925782 -0.123660 2.341805152028776e-38
1.060976 0.923384 -0.124237 2.341805152028776e-38
1.068001 0.918302 -0.124459 2.341805152028776e-38
1.074244 0.912525 -0.124588 2.341805152028776e-38
1.079694 0.906065 -0.124626 2.341805152028776e-38
1.083556 0.898319 -0.124486 2.341805152028776e-38
1.088858 0.891880 -0.124527 2.341805152028776e-38
1.094122 0.885410 -0.124563 2.341805152028776e-38
1.099347 0.878909 -0.124596 2.341805152028776e-38
1.104533 0.872378 -0.124625 2.341805152028776e-38
1.109670 0.865831 -0.124653 2.341805152028776e-38
1.113930 0.858708 -0.124597 2.341805152028776e-38
1.117352 0.850962 -0.124449 2.341805152028776e-38
1.117538 0.840810 -0.123944 2.341805152028776e-38
1.124040 0.835440 -0.124142 2.341805152028776e-38
1.129706 0.829443 -0.124249 2.341805152028776e-38
1.133678 0.822307 -0.124185 2.341805152028776e-38
1.135176 0.813413 -0.123853 2.341805152028776e-38
1.142300 0.808558 -0.124135 2.341805152028776e-38
1.147774 0.802506 -0.124237 2.341805152028776e-38
1.152392 0.795859 -0.124248 2.341805152028776e-38
1.154452 0.787574 -0.124001 2.341805152028776e-38
1.158933 0.780963 -0.124016 2.341805152028776e-38
1.165035 0.775431 -0.124203 2.341805152028776e-38
1.171943 0.770402 -0.124475 2.341805152028776e-38
1.175490 0.763151 -0.124390 2.341805152028776e-38
1.181455 0.757578 -0.124579 2.341805152028776e-38
1.185712 0.750896 -0.124588 2.341805152028776e-38
1.190776 0.744720 -0.124682 2.341805152028776e-38
1.192417 0.736417 -0.124418 2.341805152028776e-38
1.199106 0.731232 -0.124680 2.341805152028776e-38
1.203166 0.724530 -0.124687 2.341805152028776e-38
1.207186 0.717812 -0.124690 2.341805152028776e-38
1.209451 0.710063 -0.124513 2.341805152028776e-38
1.215975 0.704810 -0.124775 2.341805152028776e-38
1.221614 0.699012 -0.124944 2.341805152028776e-38
1.226317 0.692755 -0.125034 2.341805152028776e-38
1.228371 0.685024 -0.124857 2.341805152028776e-38
1.232123 0.678254 -0.124853 2.341805152028776e-38
1.237588 0.672414 -0.125022 2.341805152028776e-38
1.243904 0.667006 -0.125275 2.341805152028776e-38
1.246641 0.659752 -0.125184 2.341805152028776e-38
1.251090 0.653429 -0.125269 2.341805152028776e-38
1.253737 0.646166 -0.125173 2.341805152028776e-38
1.257230 0.639345 -0.125163 2.341805152028776e-38
1.261577 0.632953 -0.125237 2.341805152028776e-38
1.265861 0.626591 -0.125318 2.341805152028776e-38
1.269204 0.619792 -0.125313 2.341805152028776e-38
1.272510 0.612976 -0.125305 2.341805152028776e-38
1.273981 0.605289 -0.125116 2.341805152028776e-38
1.277210 0.598449 -0.125100 2.341805152028776e-38
1.280378 0.591642 -0.125090 2.341805152028776e-38
1.283493 0.584856 -0.125085 2.341805152028776e-38
1.285663 0.577646 -0.124988 2.341805152028776e-38
1.290525 0.571640 -0.125152 2.341805152028776e-38
1.294446 0.565201 -0.125224 2.341805152028776e-38
1.291913 0.556021 -0.124684 2.341805152028776e-38
1.348903 0.572215 -0.129889 2.341805152028776e-38
1.378526 0.576303 -0.132442 2.341805152028776e-38
0.649610 0.608608 -0.082703 2.341805152028776e-38
0.726362 0.672287 -0.091997 2.341805152028776e-38
0.834771 0.763275 -0.105186 2.341805152028776e-38
0.950956 0.858975 -0.119217 2.341805152028776e-38
1.023010 0.912851 -0.127603 2.341805152028776e-38
1.050177 0.925730 -0.130337 2.341805152028776e-38
1.060211 0.923336 -0.130946 2.341805152028776e-38
1.068745 0.919556 -0.131365 2.341805152028776e-38
1.074236 0.913128 -0.131410 2.341805152028776e-38
1.080452 0.907309 -0.131543 2.341805152028776e-38
1.084332 0.899547 -0.131395 2.341805152028776e-38
1.090411 0.893734 -0.131531 2.341805152028776e-38
1.094138 0.886000 -0.131384 2.341805152028776e-38
1.099366 0.879499 -0.131419 2.341805152028776e-38
1.103775 0.872350 -0.131358 2.341805152028776e-38
1.108921 0.865795 -0.131385 2.341805152028776e-38
1.113970 0.859284 -0.131420 2.341805152028776e-38
1.117396 0.851538 -0.131265 2.341805152028776e-38
1.119975 0.843182 -0.131012 2.341805152028776e-38
1.125690 0.837203 -0.131128 2.341805152028776e-38
1.130571 0.830596 -0.131147 2.341805152028776e-38
1.136163 0.824622 -0.131266 2.341805152028776e-38
1.139295 0.816874 -0.131103 2.341805152028776e-38
1.144000 0.810268 -0.131122 2.341805152028776e-38
1.147036 0.802494 -0.130951 2.341805152028776e-38
1.151658 0.795845 -0.130962 2.341805152028776e-38
1.155369 0.788680 -0.130887 2.341805152028776e-38
1.159856 0.782063 -0.130903 2.341805152028776e-38
1.165134 0.775973 -0.131008 2.341805152028776e-38
1.169549 0.769302 -0.131017 2.341805152028776e-38
1.171421 0.760979 -0.130741 2.341805152028776e-38
1.179895 0.757029 -0.131218 2.341805152028776e-38
1.184990 0.750889 -0.131321 2.341805152028776e-38
1.190897 0.745245 -0.131514 2.341805152028776e-38
1.193390 0.737464 -0.131329 2.341805152028776e-38
1.200083 0.732274 -0.131607 2.341805152028776e-38
1.202453 0.724524 -0.131425 2.341805152028776e-38
1.208184 0.718828 -0.131616 2.341805152028776e-38
1.210455 0.711073 -0.131431 2.341805152028776e-38
1.216122 0.705315 -0.131614 2.341805152028776e-38
