VERSION .7
FIELDS x y z rgb
SIZE 4 4 4 4
TYPE F F F F
COUNT 1 1 1 1
WIDTH 964
HEIGHT 1
VIEWPOINT 0 0 0 1 0 0 0
POINTS 964
DATA ascii
1.326656 -0.188639 0.354112 2.341805152028776e-38
1.329533 -0.195808 0.355109 2.341805152028776e-38
1.328548 -0.202429 0.355081 2.341805152028776e-38
1.329441 -0.209350 0.355562 2.341805152028776e-38
1.326480 -0.215666 0.355019 2.341805152028776e-38
1.323490 -0.221960 0.354474 2.341805152028776e-38
1.321423 -0.228397 0.354181 2.341805152028776e-38
1.322181 -0.235329 0.354652 2.341805152028776e-38
1.320050 -0.241755 0.354353 2.341805152028776e-38
1.320728 -0.248722 0.354844 2.341805152028776e-38
1.318515 -0.255167 0.354583 2.341805152028776e-38
1.319115 -0.262165 0.355085 2.341805152028776e-38
1.317784 -0.268794 0.355073 2.341805152028776e-38
1.313580 -0.274825 0.354292 2.341805152028776e-38
1.335819 -0.286502 0.360655 2.341805152028776e-38
1.408969 -0.309619 0.380796 2.341805152028776e-38
1.984014 0.251758 0.518325 2.341805152028776e-38
1.899698 0.231499 0.496070 2.341805152028776e-38
1.745047 0.203883 0.455484 2.341805152028776e-38
1.632505 0.182541 0.425928 2.341805152028776e-38
1.498624 0.160058 0.390840 2.341805152028776e-38
1.389605 0.141456 0.362267 2.341805152028776e-38
1.350776 0.130748 0.352013 2.341805152028776e-38
1.348505 0.123791 0.351298 2.341805152028776e-38
1.343307 0.116609 0.349826 2.341805152028776e-38
1.342894 0.109877 0.349608 2.341805152028776e-38
1.343411 0.103230 0.349651 2.341805152028776e-38
1.344860 0.096651 0.349943 2.341805152028776e-38
1.346277 0.090060 0.350233 2.341805152028776e-38
1.346697 0.083397 0.350268 2.341805152028776e-38
1.344186 0.076568 0.349548 2.341805152028776e-38
1.344540 0.069916 0.349578 2.341805152028776e-38
1.344862 0.063262 0.349605 2.341805152028776e-38
1.345153 0.056607 0.349630 2.341805152028776e-38
1.346378 0.049986 0.349903 2.341805152028776e-38
1.345636 0.043293 0.349671 2.341805152028776e-38
1.339057 0.036450 0.347928 2.341805152028776e-38
1.341153 0.029867 0.348444 2.341805152028776e-38
1.339346 0.023197 0.347952 2.341805152028776e-38
1.339442 0.016570 0.347961 2.341805152028776e-38
1.339506 0.009942 0.347966 2.341805152028776e-38
1.341474 0.003319 0.348472 2.341805152028776e-38
1.343410 -0.003324 0.348974 2.341805152028776e-38
1.344345 -0.009978 0.349223 2.341805152028776e-38
1.342345 -0.016605 0.348715 2.341805152028776e-38
1.341281 -0.023230 0.348455 2.341805152028776e-38
1.341153 -0.029867 0.348444 2.341805152028776e-38
1.342927 -0.036555 0.348933 2.341805152028776e-38
1.339832 -0.043106 0.348163 2.341805152028776e-38
1.336706 -0.049627 0.347390 2.341805152028776e-38
1.335482 -0.056200 0.347116 2.341805152028776e-38
1.336161 -0.062853 0.347343 2.341805152028776e-38
1.334874 -0.069413 0.347065 2.341805152028776e-38
1.337421 -0.076182 0.347789 2.341805152028776e-38
1.337036 -0.082799 0.347756 2.341805152028776e-38
1.338551 -0.089543 0.348223 2.341805152028776e-38
1.338102 -0.096165 0.348185 2.341805152028776e-38
1.337620 -0.102785 0.348144 2.341805152028776e-38
1.335177 -0.109245 0.347599 2.341805152028776e-38
1.336556 -0.116023 0.348068 2.341805152028776e-38
1.335011 -0.122552 0.347782 2.341805152028776e-38
1.334397 -0.129162 0.347745 2.341805152028776e-38
1.334714 -0.135869 0.347957 2.341805152028776e-38
1.334998 -0.142582 0.348166 2.341805152028776e-38
1.334287 -0.149195 0.348122 2.341805152028776e-38
1.332582 -0.155693 0.347824 2.341805152028776e-38
1.331806 -0.162295 0.347776 2.341805152028776e-38
1.329078 -0.168651 0.347223 2.341805152028776e-38
1.325361 -0.174858 0.346416 2.341805152028776e-38
1.328329 -0.181952 0.347364 2.341805152028776e-38
1.329342 -0.188809 0.347806 2.341805152028776e-38
1.329357 -0.195551 0.348014 2.341805152028776e-38
1.330288 -0.202457 0.348491 2.341805152028776e-38
1.327358 -0.208778 0.347963 2.341805152028776e-38
1.328220 -0.215698 0.348435 2.341805152028776e-38
1.328091 -0.222474 0.348654 2.341805152028776e-38
1.326021 -0.228928 0.348369 2.341805152028776e-38
1.323919 -0.235369 0.348081 2.341805152028776e-38
1.322739 -0.241972 0.348042 2.341805152028776e-38
1.321526 -0.248571 0.347999 2.341805152028776e-38
1.320277 -0.255172 0.347962 2.341805152028776e-38
1.320880 -0.262173 0.348458 2.341805152028776e-38
1.317651 -0.268418 0.347950 2.341805152028776e-38
1.312497 -0.274245 0.346937 2.341805152028776e-38
1.338558 -0.286723 0.354187 2.341805152028776e-38
1.410861 -0.309642 0.373706 2.341805152028776e-38
2.008633 0.254638 0.514270 2.341805152028776e-38
1.906905 0.232155 0.487999 2.341805152028776e-38
1.753024 0.204619 0.448420 2.341805152028776e-38
1.631673 0.182272 0.417201 2.341805152028776e-38
1.490875 0.159077 0.381045 2.341805152028776e-38
1.390391 0.141400 0.355224 2.341805152028776e-38
1.355370 0.131066 0.346148 2.341805152028776e-38
1.348268 0.123654 0.344225 2.341805152028776e-38
1.345954 0.116735 0.343535 2.341805152028776e-38
1.345537 0.110000 0.343334 2.341805152028776e-38
1.344121 0.103198 0.342884 2.341805152028776e-38
1.346538 0.096690 0.343418 2.341805152028776e-38
1.346990 0.090032 0.343455 2.341805152028776e-38
1.346442 0.083312 0.343244 2.341805152028776e-38
1.345862 0.076599 0.343029 2.341805152028776e-38
1.346217 0.069944 0.343059 2.341805152028776e-38
1.345571 0.063242 0.342839 2.341805152028776e-38
1.344893 0.056548 0.342617 2.341805152028776e-38
1.346119 0.049935 0.342885 2.341805152028776e-38
1.344407 0.043217 0.342411 2.341805152028776e-38
1.341694 0.036491 0.341687 2.341805152028776e-38
1.341855 0.029857 0.341700 2.341805152028776e-38
1.340046 0.023190 0.341217 2.341805152028776e-38
1.339173 0.016552 0.340978 2.341805152028776e-38
1.339237 0.009932 0.340984 2.341805152028776e-38
1.343145 0.003320 0.341973 2.341805152028776e-38
1.343145 -0.003320 0.341973 2.341805152028776e-38
1.342144 -0.009953 0.341724 2.341805152028776e-38
1.341111 -0.016576 0.341472 2.341805152028776e-38
1.341983 -0.023223 0.341711 2.341805152028776e-38
1.342824 -0.029879 0.341947 2.341805152028776e-38
1.342663 -0.036517 0.341933 2.341805152028776e-38
1.339564 -0.043061 0.341177 2.341805152028776e-38
1.338372 -0.049647 0.340912 2.341805152028776e-38
1.337147 -0.056223 0.340644 2.341805152028776e-38
1.336859 -0.062833 0.340620 2.341805152028776e-38
1.335571 -0.069391 0.340346 2.341805152028776e-38
1.337154 -0.076103 0.340810 2.341805152028776e-38
1.336770 -0.082713 0.340778 2.341805152028776e-38
1.340221 -0.089580 0.341729 2.341805152028776e-38
1.338805 -0.096135 0.341445 2.341805152028776e-38
1.339290 -0.102827 0.341652 2.341805152028776e-38
1.336844 -0.109290 0.341116 2.341805152028776e-38
1.339195 -0.116149 0.341810 2.341805152028776e-38
1.338617 -0.122769 0.341761 2.341805152028776e-38
1.337041 -0.129293 0.341467 2.341805152028776e-38
1.335431 -0.135811 0.341183 2.341805152028776e-38
1.334752 -0.142419 0.341143 2.341805152028776e-38
1.335005 -0.149132 0.341346 2.341805152028776e-38
1.334262 -0.155740 0.341302 2.341805152028776e-38
1.332524 -0.162227 0.341008 2.341805152028776e-38
1.331717 -0.168824 0.340959 2.341805152028776e-38
1.327995 -0.175038 0.340169 2.341805152028776e-38
1.327126 -0.181615 0.340115 2.341805152028776e-38
1.329103 -0.188596 0.340796 2.341805152028776e-38
1.330085 -0.195461 0.341229 2.341805152028776e-38
1.328158 -0.201905 0.340921 2.341805152028776e-38
1.329062 -0.208804 0.341378 2.341805152028776e-38
1.330883 -0.215882 0.342090 2.341805152028776e-38
1.330755 -0.222666 0.342307 2.341805152028776e-38
1.326772 -0.228797 0.341538 2.341805152028776e-38
1.325624 -0.235406 0.341504 2.341805152028776e-38
1.323490 -0.241837 0.341222 2.341805152028776e-38
1.324183 -0.248792 0.341675 2.341805152028776e-38
1.323888 -0.255579 0.341878 2.341805152028776e-38
1.321657 -0.261994 0.341587 2.341805152028776e-38
1.320329 -0.268619 0.341577 2.341805152028776e-38
1.316119 -0.274652 0.340833 2.341805152028776e-38
1.341265 -0.286940 0.347703 2.341805152028776e-38
1.407983 -0.308623 0.365381 2.341805152028776e-38
1.986086 0.251543 0.498154 2.341805152028776e-38
1.893848 0.230348 0.474799 2.341805152028776e-38
1.745550 0.203554 0.437425 2.341805152028776e-38
1.616328 0.180387 0.404869 2.341805152028776e-38
1.487889 0.158610 0.372550 2.341805152028776e-38
1.392099 0.141449 0.348447 2.341805152028776e-38
1.356065 0.131024 0.339318 2.341805152028776e-38
1.352818 0.123969 0.338402 2.341805152028776e-38
1.351468 0.117117 0.337966 2.341805152028776e-38
1.347184 0.110044 0.336802 2.341805152028776e-38
1.350603 0.103611 0.337570 2.341805152028776e-38
1.350120 0.096868 0.337368 2.341805152028776e-38
1.349605 0.090133 0.337163 2.341805152028776e-38
1.347120 0.083285 0.336472 2.341805152028776e-38
1.347507 0.076629 0.336503 2.341805152028776e-38
1.347862 0.069972 0.336532 2.341805152028776e-38
1.347215 0.063268 0.336317 2.341805152028776e-38
1.346536 0.056571 0.336099 2.341805152028776e-38
1.346794 0.049919 0.336120 2.341805152028776e-38
1.347989 0.043296 0.336380 2.341805152028776e-38
1.343333 0.036505 0.335186 2.341805152028776e-38
1.342523 0.029848 0.334957 2.341805152028776e-38
1.340711 0.023182 0.334483 2.341805152028776e-38
1.341778 0.016571 0.334733 2.341805152028776e-38
1.343783 0.009957 0.335223 2.341805152028776e-38
1.344785 0.003321 0.335467 2.341805152028776e-38
1.345755 -0.003324 0.335709 2.341805152028776e-38
1.345723 -0.009971 0.335707 2.341805152028776e-38
1.342748 -0.016583 0.334975 2.341805152028776e-38
1.343622 -0.023232 0.335210 2.341805152028776e-38
1.344463 -0.029891 0.335441 2.341805152028776e-38
1.343333 -0.036505 0.335186 2.341805152028776e-38
1.342170 -0.043110 0.334928 2.341805152028776e-38
1.340976 -0.049703 0.334668 2.341805152028776e-38
1.340719 -0.056327 0.334647 2.341805152028776e-38
1.339461 -0.062903 0.334381 2.341805152028776e-38
1.337203 -0.069419 0.333871 2.341805152028776e-38
1.340726 -0.076244 0.334810 2.341805152028776e-38
1.339372 -0.082806 0.334536 2.341805152028776e-38
1.339923 -0.089486 0.334744 2.341805152028776e-38
1.339474 -0.096104 0.334707 2.341805152028776e-38
1.340928 -0.102868 0.335152 2.341805152028776e-38
1.340414 -0.109491 0.335110 2.341805152028776e-38
1.341801 -0.116279 0.335548 2.341805152028776e-38
1.339290 -0.122729 0.335018 2.341805152028776e-38
1.337714 -0.129251 0.334726 2.341805152028776e-38
1.336107 -0.135759 0.334432 2.341805152028776e-38
1.336398 -0.142461 0.334618 2.341805152028776e-38
1.336653 -0.149175 0.334814 2.341805152028776e-38
1.337838 -0.156009 0.335254 2.341805152028776e-38
1.338024 -0.162743 0.335450 2.341805152028776e-38
1.335289 -0.169118 0.334920 2.341805152028776e-38
1.331562 -0.175344 0.334145 2.341805152028776e-38
1.331653 -0.182063 0.334335 2.341805152028776e-38
1.331710 -0.188789 0.334521 2.341805152028776e-38
1.332693 -0.195662 0.334946 2.341805152028776e-38
1.329804 -0.201967 0.334404 2.341805152028776e-38
1.331680 -0.209001 0.335065 2.341805152028776e-38
1.331601 -0.215752 0.335246 2.341805152028776e-38
1.332432 -0.222694 0.335703 2.341805152028776e-38
1.328445 -0.228828 0.334951 2.341805152028776e-38
1.326341 -0.235270 0.334680 2.341805152028776e-38
1.328026 -0.242396 0.335370 2.341805152028776e-38
1.326810 -0.249010 0.335334 2.341805152028776e-38
1.324610 -0.255437 0.335054 2.341805152028776e-38
1.323330 -0.262039 0.335012 2.341805152028776e-38
1.322018 -0.268637 0.334967 2.341805152028776e-38
1.316861 -0.274460 0.333982 2.341805152028776e-38
1.345840 -0.287558 0.341686 2.341805152028776e-38
1.413591 -0.309467 0.359267 2.341805152028776e-38
1.527558 -0.342472 0.388648 2.341805152028776e-38
1.971141 0.249419 0.484166 2.341805152028776e-38
1.876852 0.228069 0.460792 2.341805152028776e-38
1.731254 0.201705 0.424867 2.341805152028776e-38
1.610549 0.179590 0.395098 2.341805152028776e-38
1.479048 0.157541 0.362710 2.341805152028776e-38
1.385071 0.140621 0.339549 2.341805152028776e-38
1.357692 0.131075 0.332729 2.341805152028776e-38
1.355408 0.124106 0.332068 2.341805152028776e-38
1.353088 0.117163 0.331404 2.341805152028776e-38
1.350735 0.110245 0.330736 2.341805152028776e-38
1.351252 0.103577 0.330778 2.341805152028776e-38
1.350769 0.096836 0.330580 2.341805152028776e-38
1.348313 0.089974 0.329905 2.341805152028776e-38
1.348733 0.083318 0.329938 2.341805152028776e-38
1.348150 0.076604 0.329732 2.341805152028776e-38
1.349475 0.070000 0.329998 2.341805152028776e-38
1.349798 0.063338 0.330024 2.341805152028776e-38
1.351059 0.056715 0.330284 2.341805152028776e-38
1.350346 0.050010 0.330068 2.341805152028776e-38
1.350572 0.043345 0.330086 2.341805152028776e-38
1.344940 0.036520 0.328677 2.341805152028776e-38
1.343158 0.029838 0.328216 2.341805152028776e-38
1.343286 0.023208 0.328226 2.341805152028776e-38
1.343383 0.016577 0.328234 2.341805152028776e-38
1.343447 0.009947 0.328239 2.341805152028776e-38
1.346393 0.003323 0.328953 2.341805152028776e-38
1.346393 -0.003323 0.328953 2.341805152028776e-38
1.347332 -0.009975 0.329188 2.341805152028776e-38
1.345325 -0.016601 0.328708 2.341805152028776e-38
1.346200 -0.023258 0.328938 2.341805152028776e-38
1.345100 -0.029881 0.328690 2.341805152028776e-38
1.344940 -0.036520 0.328677 2.341805152028776e-38
1.342805 -0.043095 0.328187 2.341805152028776e-38
1.340639 -0.049651 0.327695 2.341805152028776e-38
1.339412 -0.056227 0.327437 2.341805152028776e-38
1.339123 -0.062837 0.327414 2.341805152028776e-38
1.339773 -0.069496 0.327625 2.341805152028776e-38
1.340391 -0.076164 0.327834 2.341805152028776e-38
1.340006 -0.082779 0.327803 2.341805152028776e-38
1.340559 -0.089457 0.328007 2.341805152028776e-38
1.339141 -0.096003 0.327734 2.341805152028776e-38
1.339629 -0.102686 0.327933 2.341805152028776e-38
1.341052 -0.109455 0.328366 2.341805152028776e-38
1.343410 -0.116325 0.329033 2.341805152028776e-38
1.340896 -0.122777 0.328512 2.341805152028776e-38
1.339318 -0.129301 0.328227 2.341805152028776e-38
1.337710 -0.135813 0.327938 2.341805152028776e-38
1.338002 -0.142517 0.328121 2.341805152028776e-38
1.339228 -0.149335 0.328538 2.341805152028776e-38
1.339454 -0.156057 0.328716 2.341805152028776e-38
1.338679 -0.162672 0.328663 2.341805152028776e-38
1.335942 -0.169044 0.328144 2.341805152028776e-38
1.333175 -0.175394 0.327622 2.341805152028776e-38
1.333267 -0.182116 0.327809 2.341805152028776e-38
1.334287 -0.188980 0.328229 2.341805152028776e-38
1.332388 -0.195437 0.327937 2.341805152028776e-38
1.329498 -0.201735 0.327406 2.341805152028776e-38
1.331378 -0.208763 0.328056 2.341805152028776e-38
1.332262 -0.215660 0.328466 2.341805152028776e-38
1.333111 -0.222571 0.328874 2.341805152028776e-38
1.328170 -0.228526 0.327886 2.341805152028776e-38
1.327980 -0.235300 0.328095 2.341805152028776e-38
1.328712 -0.242255 0.328537 2.341805152028776e-38
1.327498 -0.248867 0.328505 2.341805152028776e-38
1.324342 -0.255108 0.327996 2.341805152028776e-38
1.323064 -0.261704 0.327958 2.341805152028776e-38
1.321754 -0.268295 0.327916 2.341805152028776e-38
1.318508 -0.274486 0.327399 2.341805152028776e-38
1.348487 -0.287767 0.335163 2.341805152028776e-38
1.428665 -0.312383 0.355470 2.341805152028776e-38
1.549401 -0.346946 0.385929 2.341805152028776e-38
1.976370 0.249859 0.475223 2.341805152028776e-38
1.866511 0.226625 0.448626 2.341805152028776e-38
1.726527 0.200995 0.414819 2.341805152028776e-38
1.601809 0.178474 0.384712 2.341805152028776e-38
1.479819 0.157498 0.355287 2.341805152028776e-38
1.389601 0.140970 0.333514 2.341805152028776e-38
1.362191 0.131406 0.326830 2.341805152028776e-38
1.358936 0.124331 0.325949 2.341805152028776e-38
1.353708 0.117124 0.324601 2.341805152028776e-38
1.354259 0.110446 0.324644 2.341805152028776e-38
1.352838 0.103617 0.324220 2.341805152028776e-38
1.351383 0.096804 0.323793 2.341805152028776e-38
1.345042 0.089685 0.322202 2.341805152028776e-38
1.343519 0.082930 0.321770 2.341805152028776e-38
1.347788 0.076524 0.322730 2.341805152028776e-38
1.352999 0.070127 0.323920 2.341805152028776e-38
1.352351 0.063408 0.323713 2.341805152028776e-38
1.351670 0.056697 0.323504 2.341805152028776e-38
1.352900 0.050065 0.323756 2.341805152028776e-38
1.351182 0.043330 0.323309 2.341805152028776e-38
1.347487 0.036560 0.322394 2.341805152028776e-38
1.345703 0.029871 0.321941 2.341805152028776e-38
1.342915 0.023183 0.321253 2.341805152028776e-38
1.343983 0.016572 0.321494 2.341805152028776e-38
1.345020 0.009950 0.321731 2.341805152028776e-38
1.349915 0.003329 0.322897 2.341805152028776e-38
1.350888 -0.003331 0.323130 2.341805152028776e-38
1.351828 -0.010001 0.323360 2.341805152028776e-38
1.349818 -0.016644 0.322889 2.341805152028776e-38
1.351666 -0.023334 0.323347 2.341805152028776e-38
1.351537 -0.030000 0.323337 2.341805152028776e-38
1.348459 -0.036587 0.322626 2.341805152028776e-38
1.345350 -0.043143 0.321913 2.341805152028776e-38
1.342209 -0.049670 0.321198 2.341805152028776e-38
1.339038 -0.056167 0.320480 2.341805152028776e-38
1.336807 -0.062679 0.319992 2.341805152028776e-38
1.340372 -0.069473 0.320897 2.341805152028776e-38
1.343904 -0.076303 0.321800 2.341805152028776e-38
1.342548 -0.082870 0.321537 2.341805152028776e-38
1.342131 -0.089491 0.321504 2.341805152028776e-38
1.341682 -0.096109 0.321469 2.341805152028776e-38
1.343140 -0.102874 0.321896 2.341805152028776e-38
1.343595 -0.109576 0.322088 2.341805152028776e-38
1.344987 -0.116370 0.322510 2.341805152028776e-38
1.341502 -0.122736 0.321767 2.341805152028776e-38
1.340891 -0.129351 0.321719 2.341805152028776e-38
1.341217 -0.136061 0.321901 2.341805152028776e-38
1.342477 -0.142881 0.322313 2.341805152028776e-38
1.342736 -0.149608 0.322489 2.341805152028776e-38
1.342962 -0.156342 0.322663 2.341805152028776e-38
1.340258 -0.162730 0.322138 2.341805152028776e-38
1.339454 -0.169338 0.322075 2.341805152028776e-38
1.335721 -0.175569 0.321324 2.341805152028776e-38
1.335813 -0.182298 0.321508 2.341805152028776e-38
1.334908 -0.188897 0.321457 2.341805152028776e-38
1.334933 -0.195634 0.321635 2.341805152028776e-38
1.333002 -0.202085 0.321348 2.341805152028776e-38
1.334883 -0.209124 0.321985 2.341805152028776e-38
1.334808 -0.215878 0.322156 2.341805152028776e-38
1.334699 -0.222637 0.322325 2.341805152028776e-38
1.330721 -0.228741 0.321564 2.341805152028776e-38
1.330545 -0.235497 0.321735 2.341805152028776e-38
1.330321 -0.242285 0.321940 2.341805152028776e-38
1.329106 -0.248900 0.321910 2.341805152028776e-38
1.326903 -0.255327 0.321646 2.341805152028776e-38
1.325624 -0.261931 0.321611 2.341805152028776e-38
1.326219 -0.268917 0.322036 2.341805152028776e-38
1.321063 -0.274729 0.321069 2.341805152028776e-38
1.354893 -0.288814 0.329588 2.341805152028776e-38
1.434231 -0.313219 0.349221 2.341805152028776e-38
1.534228 -0.343134 0.373978 2.341805152028776e-38
1.938069 0.244828 0.456051 2.341805152028776e-38
1.834826 0.222606 0.431583 2.341805152028776e-38
1.690791 0.196682 0.397550 2.341805152028776e-38
1.573651 0.175201 0.369870 2.341805152028776e-38
1.467965 0.156116 0.344907 2.341805152028776e-38
1.386356 0.140532 0.325622 2.341805152028776e-38
1.360849 0.131175 0.319529 2.341805152028776e-38
1.357589 0.124112 0.318666 2.341805152028776e-38
1.356233 0.117252 0.318256 2.341805152028776e-38
1.357755 0.110646 0.318526 2.341805152028776e-38
1.355362 0.103730 0.317883 2.341805152028776e-38
1.348078 0.096493 0.316098 2.341805152028776e-38
1.336871 0.089071 0.313400 2.341805152028776e-38
1.339230 0.082602 0.313887 2.341805152028776e-38
1.346418 0.076387 0.315511 2.341805152028776e-38
1.350662 0.069952 0.316450 2.341805152028776e-38
1.350984 0.063295 0.316475 2.341805152028776e-38
1.351275 0.056636 0.316497 2.341805152028776e-38
1.349587 0.049904 0.316061 2.341805152028776e-38
1.348839 0.043222 0.315850 2.341805152028776e-38
1.350005 0.036600 0.316093 2.341805152028776e-38
1.354060 0.030033 0.317017 2.341805152028776e-38
1.350295 0.023293 0.316116 2.341805152028776e-38
1.345524 0.016578 0.314983 2.341805152028776e-38
1.347535 0.009961 0.315444 2.341805152028776e-38
1.349515 0.003325 0.315903 2.341805152028776e-38
1.349515 -0.003325 0.315903 2.341805152028776e-38
1.351430 -0.009990 0.316356 2.341805152028776e-38
1.351366 -0.016650 0.316351 2.341805152028776e-38
1.351269 -0.023310 0.316343 2.341805152028776e-38
1.349193 -0.029925 0.315878 2.341805152028776e-38
1.349032 -0.036574 0.315865 2.341805152028776e-38
1.346892 -0.043159 0.315395 2.341805152028776e-38
1.343748 -0.049688 0.314694 2.341805152028776e-38
1.340573 -0.056188 0.313991 2.341805152028776e-38
1.344176 -0.062976 0.314880 2.341805152028776e-38
1.344827 -0.069650 0.315083 2.341805152028776e-38
1.344474 -0.076277 0.315056 2.341805152028776e-38
1.343117 -0.082842 0.314798 2.341805152028776e-38
1.343672 -0.089525 0.314994 2.341805152028776e-38
1.343222 -0.096145 0.314959 2.341805152028776e-38
1.344682 -0.102913 0.315378 2.341805152028776e-38
1.345139 -0.109618 0.315566 2.341805152028776e-38
1.345562 -0.116329 0.315751 2.341805152028776e-38
1.340134 -0.122516 0.314569 2.341805152028776e-38
1.342433 -0.129400 0.315205 2.341805152028776e-38
1.342759 -0.136113 0.315383 2.341805152028776e-38
1.344990 -0.143038 0.316013 2.341805152028776e-38
1.344281 -0.149665 0.315959 2.341805152028776e-38
1.343541 -0.156288 0.315902 2.341805152028776e-38
1.341801 -0.162791 0.315615 2.341805152028776e-38
1.338099 -0.169036 0.314871 2.341805152028776e-38
1.334368 -0.175249 0.314125 2.341805152028776e-38
1.338328 -0.182481 0.315194 2.341805152028776e-38
1.338388 -0.189221 0.315368 2.341805152028776e-38
1.337449 -0.195828 0.315317 2.341805152028776e-38
1.334553 -0.202141 0.314809 2.341805152028776e-38
1.335475 -0.209032 0.315207 2.341805152028776e-38
1.335401 -0.215783 0.315376 2.341805152028776e-38
1.335294 -0.222540 0.315542 2.341805152028776e-38
1.332273 -0.228807 0.315024 2.341805152028776e-38
1.332100 -0.235559 0.315185 2.341805152028776e-38
1.329977 -0.241968 0.314890 2.341805152028776e-38
1.329724 -0.248750 0.315083 2.341805152028776e-38
1.325608 -0.254808 0.314374 2.341805152028776e-38
1.326243 -0.261777 0.314795 2.341805152028776e-38
1.325887 -0.268568 0.314987 2.341805152028776e-38
1.320728 -0.274374 0.314042 2.341805152028776e-38
1.355553 -0.288657 0.322616 2.341805152028776e-38
1.427381 -0.311392 0.340026 2.341805152028776e-38
1.507568 -0.336770 0.359473 2.341805152028776e-38
1.940254 0.244918 0.446615 2.341805152028776e-38
1.827216 0.221515 0.420426 2.341805152028776e-38
1.695601 0.197093 0.389992 2.341805152028776e-38
1.571547 0.174835 0.361325 2.341805152028776e-38
1.462832 0.155452 0.336211 2.341805152028776e-38
1.385976 0.140387 0.318439 2.341805152028776e-38
1.363350 0.131317 0.313140 2.341805152028776e-38
1.363970 0.124601 0.313187 2.341805152028776e-38
1.360672 0.117547 0.312339 2.341805152028776e-38
1.360253 0.110766 0.312158 2.341805152028776e-38
1.355913 0.103694 0.311082 2.341805152028776e-38
1.351537 0.096668 0.310003 2.341805152028776e-38
1.344208 0.089493 0.308253 2.341805152028776e-38
1.346571 0.082992 0.308731 2.341805152028776e-38
1.350850 0.076581 0.309652 2.341805152028776e-38
1.354125 0.070079 0.310348 2.341805152028776e-38
1.353474 0.063364 0.310149 2.341805152028776e-38
1.351817 0.056616 0.309725 2.341805152028776e-38
1.351101 0.049923 0.309521 2.341805152028776e-38
1.353275 0.043331 0.309984 2.341805152028776e-38
1.357366 0.036772 0.310892 2.341805152028776e-38
1.359477 0.030131 0.311350 2.341805152028776e-38
1.352784 0.023318 0.309798 2.341805152028776e-38
1.349957 0.016620 0.309135 2.341805152028776e-38
1.350021 0.009972 0.309140 2.341805152028776e-38
1.352003 0.003329 0.309589 2.341805152028776e-38
1.353953 -0.003334 0.310035 2.341805152028776e-38
1.355870 -0.010015 0.310479 2.341805152028776e-38
1.352881 -0.016656 0.309805 2.341805152028776e-38
1.351810 -0.023301 0.309575 2.341805152028776e-38
1.349732 -0.029915 0.309118 2.341805152028776e-38
1.351520 -0.036614 0.309553 2.341805152028776e-38
1.350352 -0.043238 0.309315 2.341805152028776e-38
1.350127 -0.049887 0.309298 2.341805152028776e-38
1.350843 -0.056576 0.309502 2.341805152028776e-38
1.351527 -0.063273 0.309703 2.341805152028776e-38
1.347310 -0.069726 0.308786 2.341805152028776e-38
1.346957 -0.076360 0.308760 2.341805152028776e-38
1.346571 -0.082992 0.308731 2.341805152028776e-38
1.348099 -0.089752 0.309145 2.341805152028776e-38
1.346676 -0.096320 0.308888 2.341805152028776e-38
1.345221 -0.102876 0.308629 2.341805152028776e-38
1.344707 -0.109500 0.308590 2.341805152028776e-38
1.346104 -0.116288 0.308995 2.341805152028776e-38
1.343583 -0.122739 0.308506 2.341805152028776e-38
1.342003 -0.129261 0.308237 2.341805152028776e-38
1.343301 -0.136064 0.308634 2.341805152028776e-38
1.348442 -0.143296 0.309920 2.341805152028776e-38
1.349670 -0.150151 0.310312 2.341805152028776e-38
1.346022 -0.156458 0.309588 2.341805152028776e-38
1.344281 -0.162968 0.309307 2.341805152028776e-38
1.342509 -0.169465 0.309024 2.341805152028776e-38
1.341673 -0.176074 0.308961 2.341805152028776e-38
1.342736 -0.182943 0.309340 2.341805152028776e-38
1.341835 -0.189554 0.309272 2.341805152028776e-38
1.341865 -0.196303 0.309427 2.341805152028776e-38
1.340891 -0.202924 0.309375 2.341805152028776e-38
1.338923 -0.209390 0.309099 2.341805152028776e-38
1.337885 -0.215998 0.309043 2.341805152028776e-38
1.336816 -0.222601 0.308984 2.341805152028776e-38
1.334754 -0.229036 0.308700 2.341805152028776e-38
1.334581 -0.235795 0.308859 2.341805152028776e-38
1.335334 -0.242734 0.309237 2.341805152028776e-38
1.333176 -0.249150 0.308946 2.341805152028776e-38
1.330020 -0.255389 0.308456 2.341805152028776e-38
1.330653 -0.262375 0.308872 2.341805152028776e-38
1.329340 -0.268990 0.308840 2.341805152028776e-38
1.323219 -0.274610 0.307695 2.341805152028776e-38
1.359040 -0.289105 0.316314 2.341805152028776e-38
1.430951 -0.311855 0.333362 2.341805152028776e-38
1.524557 -0.340215 0.355506 2.341805152028776e-38
1.948203 0.245739 0.438476 2.341805152028776e-38
1.842794 0.223238 0.414585 2.341805152028776e-38
1.692622 0.196601 0.380652 2.341805152028776e-38
1.562608 0.173712 0.351284 2.341805152028776e-38
1.452797 0.154272 0.326482 2.341805152028776e-38
1.385559 0.140241 0.311267 2.341805152028776e-38
1.364850 0.131364 0.306516 2.341805152028776e-38
1.360611 0.124203 0.305471 2.341805152028776e-38
1.357306 0.117170 0.304641 2.341805152028776e-38
1.356885 0.110410 0.304464 2.341805152028776e-38
1.358376 0.103806 0.304720 2.341805152028776e-38
1.355942 0.096911 0.304101 2.341805152028776e-38
1.355422 0.090173 0.303916 2.341805152028776e-38
1.353894 0.083382 0.303510 2.341805152028776e-38
1.355256 0.076774 0.303757 2.341805152028776e-38
1.354637 0.070053 0.303565 2.341805152028776e-38
1.353985 0.063341 0.303370 2.341805152028776e-38
1.354275 0.056678 0.303392 2.341805152028776e-38
1.354534 0.050013 0.303411 2.341805152028776e-38
1.353784 0.043316 0.303209 2.341805152028776e-38
1.354953 0.036680 0.303442 2.341805152028776e-38
1.356090 0.030034 0.303672 2.341805152028776e-38
1.352317 0.023293 0.302808 2.341805152028776e-38
1.352414 0.016638 0.302815 2.341805152028776e-38
1.352478 0.009983 0.302820 2.341805152028776e-38
1.355438 0.003335 0.303477 2.341805152028776e-38
1.356413 -0.003337 0.303696 2.341805152028776e-38
1.358333 -0.010026 0.304131 2.341805152028776e-38
1.355341 -0.016674 0.303470 2.341805152028776e-38
1.353293 -0.023310 0.303026 2.341805152028776e-38
1.352188 -0.029947 0.302798 2.341805152028776e-38
1.353002 -0.036627 0.303005 2.341805152028776e-38
1.352809 -0.043284 0.302991 2.341805152028776e-38
1.352583 -0.049941 0.302974 2.341805152028776e-38
1.351350 -0.056555 0.302737 2.341805152028776e-38
1.351061 -0.063204 0.302715 2.341805152028776e-38
1.347815 -0.069701 0.302036 2.341805152028776e-38
1.347461 -0.076332 0.302010 2.341805152028776e-38
1.348050 -0.083022 0.302200 2.341805152028776e-38
1.347632 -0.089655 0.302169 2.341805152028776e-38
1.346208 -0.096216 0.301918 2.341805152028776e-38
1.345727 -0.102839 0.301882 2.341805152028776e-38
1.345213 -0.109460 0.301845 2.341805152028776e-38
1.345639 -0.116163 0.302023 2.341805152028776e-38
1.343117 -0.122606 0.301544 2.341805152028776e-38
1.338622 -0.128840 0.300626 2.341805152028776e-38
1.340895 -0.135720 0.301233 2.341805152028776e-38
1.344104 -0.142730 0.302056 2.341805152028776e-38
1.346307 -0.149666 0.302658 2.341805152028776e-38
1.347505 -0.156515 0.303039 2.341805152028776e-38
1.346731 -0.163144 0.302982 2.341805152028776e-38
1.343989 -0.169526 0.302487 2.341805152028776e-38
1.343152 -0.176138 0.302425 2.341805152028776e-38
1.343251 -0.182878 0.302579 2.341805152028776e-38
1.342349 -0.189486 0.302513 2.341805152028776e-38
1.342382 -0.196231 0.302662 2.341805152028776e-38
1.340451 -0.202689 0.302373 2.341805152028776e-38
1.344271 -0.210046 0.303400 2.341805152028776e-38
1.344194 -0.216831 0.303564 2.341805152028776e-38
1.340232 -0.222981 0.302854 2.341805152028776e-38
1.337205 -0.229262 0.302360 2.341805152028776e-38
1.336071 -0.235859 0.302298 2.341805152028776e-38
1.335865 -0.242626 0.302452 2.341805152028776e-38
1.334666 -0.249219 0.302385 2.341805152028776e-38
1.332476 -0.255622 0.302099 2.341805152028776e-38
1.333122 -0.262592 0.302480 2.341805152028776e-38
1.331807 -0.269215 0.302451 2.341805152028776e-38
1.324725 -0.274644 0.301116 2.341805152028776e-38
1.363452 -0.289752 0.310205 2.341805152028776e-38
1.444027 -0.314391 0.328846 2.341805152028776e-38
1.527249 -0.340479 0.348130 2.341805152028776e-38
1.956119 0.246559 0.430270 2.341805152028776e-38
1.848659 0.223786 0.406469 2.341805152028776e-38
1.687651 0.195882 0.370925 2.341805152028776e-38
1.547783 0.171939 0.340058 2.341805152028776e-38
1.448531 0.153708 0.318139 2.341805152028776e-38
1.387050 0.140291 0.304533 2.341805152028776e-38
1.367290 0.131504 0.300099 2.341805152028776e-38
1.364019 0.124424 0.299290 2.341805152028776e-38
1.358765 0.117211 0.298051 2.341805152028776e-38
1.358343 0.110449 0.297877 2.341805152028776e-38
1.359835 0.103842 0.298128 2.341805152028776e-38
1.360322 0.097154 0.298163 2.341805152028776e-38
1.358827 0.090334 0.297769 2.341805152028776e-38
1.358273 0.083591 0.297585 2.341805152028776e-38
1.358661 0.076911 0.297613 2.341805152028776e-38
1.358042 0.070179 0.297425 2.341805152028776e-38
1.357389 0.063455 0.297235 2.341805152028776e-38
1.354752 0.056657 0.296615 2.341805152028776e-38
1.357939 0.050102 0.297275 2.341805152028776e-38
1.359142 0.043456 0.297505 2.341805152028776e-38
1.357383 0.036719 0.297091 2.341805152028776e-38
1.356568 0.030022 0.296889 2.341805152028776e-38
1.356697 0.023352 0.296898 2.341805152028776e-38
1.357771 0.016692 0.297119 2.341805152028776e-38
1.355882 0.010001 0.296696 2.341805152028776e-38
1.356891 0.003336 0.296912 2.341805152028776e-38
1.359822 -0.003343 0.297554 2.341805152028776e-38
1.357835 -0.010015 0.297124 2.341805152028776e-38
1.356794 -0.016680 0.296905 2.341805152028776e-38
1.355720 -0.023335 0.296685 2.341805152028776e-38
1.356568 -0.030022 0.296889 2.341805152028776e-38
1.355430 -0.036666 0.296664 2.341805152028776e-38
1.355236 -0.043331 0.296650 2.341805152028776e-38
1.355010 -0.049994 0.296633 2.341805152028776e-38
1.354752 -0.056657 0.296615 2.341805152028776e-38
1.354462 -0.063318 0.296594 2.341805152028776e-38
1.351212 -0.069826 0.295930 2.341805152028776e-38
1.350858 -0.076470 0.295904 2.341805152028776e-38
1.349497 -0.083051 0.295663 2.341805152028776e-38
1.350054 -0.089751 0.295846 2.341805152028776e-38
1.349603 -0.096389 0.295814 2.341805152028776e-38
1.348146 -0.102950 0.295565 2.341805152028776e-38
1.347632 -0.109578 0.295528 2.341805152028776e-38
1.348059 -0.116287 0.295702 2.341805152028776e-38
1.344561 -0.122649 0.295020 2.341805152028776e-38
1.341034 -0.128979 0.294336 2.341805152028776e-38
1.342337 -0.135768 0.294717 2.341805152028776e-38
1.346522 -0.142883 0.295735 2.341805152028776e-38
1.347756 -0.149719 0.296111 2.341805152028776e-38
1.347986 -0.156458 0.296271 2.341805152028776e-38
1.347212 -0.163085 0.296215 2.341805152028776e-38
1.345438 -0.169586 0.295944 2.341805152028776e-38
1.345569 -0.176327 0.296096 2.341805152028776e-38
1.344700 -0.182942 0.296034 2.341805152028776e-38
1.344766 -0.189689 0.296182 2.341805152028776e-38
1.344798 -0.196442 0.296327 2.341805152028776e-38
1.344797 -0.203199 0.296471 2.341805152028776e-38
1.353451 -0.211317 0.298528 2.341805152028776e-38
1.348552 -0.217352 0.297605 2.341805152028776e-38
1.345549 -0.223678 0.297125 2.341805152028776e-38
1.341552 -0.229816 0.296429 2.341805152028776e-38
1.338491 -0.236091 0.295944 2.341805152028776e-38
1.338286 -0.242865 0.296095 2.341805152028776e-38
1.338046 -0.249644 0.296244 2.341805152028776e-38
1.337772 -0.256427 0.296390 2.341805152028776e-38
1.336506 -0.263026 0.296320 2.341805152028776e-38
1.336160 -0.269823 0.296473 2.341805152028776e-38
1.329068 -0.275270 0.295169 2.341805152028776e-38
1.367837 -0.290396 0.304062 2.341805152028776e-38
1.435133 -0.312148 0.319323 2.341805152028776e-38
1.502245 -0.334578 0.334578 2.341805152028776e-38
1.964971 0.247500 0.422205 2.341805152028776e-38
1.838953 0.222454 0.394970 2.341805152028776e-38
1.667083 0.193358 0.357917 2.341805152028776e-38
1.529971 0.169841 0.328359 2.341805152028776e-38
1.436439 0.152317 0.308176 2.341805152028776e-38
1.387535 0.140241 0.297584 2.341805152028776e-38
1.367754 0.131456 0.293248 2.341805152028776e-38
1.364478 0.124378 0.292456 2.341805152028776e-38
1.361167 0.117335 0.291663 2.341805152028776e-38
1.361718 0.110645 0.291701 2.341805152028776e-38
1.364188 0.104101 0.292156 2.341805152028776e-38
1.360774 0.097118 0.291355 2.341805152028776e-38
1.358300 0.090236 0.290760 2.341805152028776e-38
1.358721 0.083560 0.290790 2.341805152028776e-38
1.359110 0.076883 0.290817 2.341805152028776e-38
1.359465 0.070203 0.290842 2.341805152028776e-38
1.357835 0.063431 0.290447 2.341805152028776e-38
1.358126 0.056758 0.290467 2.341805152028776e-38
1.358385 0.050084 0.290486 2.341805152028776e-38
1.358611 0.043408 0.290501 2.341805152028776e-38
1.357828 0.036705 0.290306 2.341805152028776e-38
1.357012 0.030011 0.290108 2.341805152028776e-38
1.358119 0.023360 0.290327 2.341805152028776e-38
1.357238 0.016674 0.290124 2.341805152028776e-38
1.356324 0.009997 0.289920 2.341805152028776e-38
1.357334 0.003335 0.290131 2.341805152028776e-38
1.356357 -0.003332 0.289922 2.341805152028776e-38
1.358280 -0.010012 0.290338 2.341805152028776e-38
1.356260 -0.016662 0.289915 2.341805152028776e-38
1.356163 -0.023326 0.289909 2.341805152028776e-38
1.357012 -0.030011 0.290108 2.341805152028776e-38
1.356850 -0.036679 0.290097 2.341805152028776e-38
1.356656 -0.043346 0.290083 2.341805152028776e-38
1.356431 -0.050012 0.290068 2.341805152028776e-38
1.355195 -0.056635 0.289840 2.341805152028776e-38
1.353928 -0.063248 0.289611 2.341805152028776e-38
1.353606 -0.069901 0.289588 2.341805152028776e-38
1.352275 -0.076496 0.289354 2.341805152028776e-38
1.350912 -0.083080 0.289118 2.341805152028776e-38
1.351470 -0.089782 0.289298 2.341805152028776e-38
1.348093 -0.096213 0.288639 2.341805152028776e-38
1.350536 -0.103060 0.289232 2.341805152028776e-38
1.348072 -0.109537 0.288778 2.341805152028776e-38
1.348500 -0.116244 0.288948 2.341805152028776e-38
1.345973 -0.122691 0.288490 2.341805152028776e-38
1.347310 -0.129491 0.288865 2.341805152028776e-38
1.347641 -0.136209 0.289028 2.341805152028776e-38
1.349883 -0.143139 0.289606 2.341805152028776e-38
1.350146 -0.149878 0.289765 2.341805152028776e-38
1.350376 -0.156624 0.289921 2.341805152028776e-38
1.349601 -0.163258 0.289867 2.341805152028776e-38
1.347825 -0.169766 0.289601 2.341805152028776e-38
1.346987 -0.176388 0.289542 2.341805152028776e-38
1.349024 -0.183401 0.290106 2.341805152028776e-38
1.347152 -0.189891 0.289834 2.341805152028776e-38
1.345249 -0.196368 0.289560 2.341805152028776e-38
1.346216 -0.203269 0.289908 2.341805152028776e-38
1.351981 -0.210938 0.291295 2.341805152028776e-38
1.345150 -0.216647 0.289973 2.341805152028776e-38
1.345050 -0.223415 0.290106 2.341805152028776e-38
1.340090 -0.229378 0.289216 2.341805152028776e-38
1.339918 -0.236150 0.289367 2.341805152028776e-38
1.336826 -0.242403 0.288891 2.341805152028776e-38
1.338513 -0.249529 0.289453 2.341805152028776e-38
1.338241 -0.256310 0.289597 2.341805152028776e-38
1.338894 -0.263284 0.289946 2.341805152028776e-38
1.337595 -0.269885 0.289876 2.341805152028776e-38
1.331470 -0.275497 0.288774 2.341805152028776e-38
1.365496 -0.289617 0.296431 2.341805152028776e-38
1.426179 -0.309900 0.309900 2.341805152028776e-38
1.489559 -0.331433 0.323986 2.341805152028776e-38
1.966021 0.247461 0.412435 2.341805152028776e-38
1.838900 0.222294 0.385612 2.341805152028776e-38
1.684355 0.195226 0.353069 2.341805152028776e-38
1.547111 0.171625 0.324181 2.341805152028776e-38
1.438887 0.152472 0.301397 2.341805152028776e-38
1.384089 0.139796 0.289821 2.341805152028776e-38
1.369157 0.131500 0.286603 2.341805152028776e-38
1.367828 0.124598 0.286238 2.341805152028776e-38
1.365489 0.117627 0.285666 2.341805152028776e-38
1.365066 0.110841 0.285500 2.341805152028776e-38
1.363634 0.103988 0.285127 2.341805152028776e-38
1.363145 0.097221 0.284957 2.341805152028776e-38
1.361646 0.090396 0.284580 2.341805152028776e-38
1.362067 0.083708 0.284609 2.341805152028776e-38
1.363433 0.077074 0.284840 2.341805152028776e-38
1.364768 0.070429 0.285068 2.341805152028776e-38
1.362159 0.063589 0.284478 2.341805152028776e-38
1.359517 0.056777 0.283886 2.341805152028776e-38
1.358797 0.050065 0.283699 2.341805152028776e-38
1.360002 0.043423 0.283919 2.341805152028776e-38
1.358239 0.036691 0.283524 2.341805152028776e-38
1.357421 0.030000 0.283331 2.341805152028776e-38
1.358529 0.023351 0.283544 2.341805152028776e-38
1.358626 0.016679 0.283550 2.341805152028776e-38
1.358691 0.010008 0.283555 2.341805152028776e-38
1.359702 0.003338 0.283761 2.341805152028776e-38
1.359702 -0.003338 0.283761 2.341805152028776e-38
1.362606 -0.010037 0.284372 2.341805152028776e-38
1.359605 -0.016691 0.283755 2.341805152028776e-38
1.361466 -0.023401 0.284157 2.341805152028776e-38
1.360357 -0.030065 0.283943 2.341805152028776e-38
1.362153 -0.036797 0.284341 2.341805152028776e-38
1.359023 -0.043392 0.283715 2.341805152028776e-38
1.358797 -0.050065 0.283699 2.341805152028776e-38
1.356582 -0.056655 0.283273 2.341805152028776e-38
1.357270 -0.063361 0.283457 2.341805152028776e-38
1.355969 -0.069975 0.283231 2.341805152028776e-38
1.354637 -0.076577 0.283002 2.341805152028776e-38
1.355227 -0.083288 0.283180 2.341805152028776e-38
1.354808 -0.089942 0.283151 2.341805152028776e-38
1.353380 -0.096524 0.282916 2.341805152028776e-38
1.351921 -0.103094 0.282678 2.341805152028776e-38
1.350430 -0.109653 0.282439 2.341805152028776e-38
1.351834 -0.116451 0.282809 2.341805152028776e-38
1.351254 -0.123088 0.282769 2.341805152028776e-38
1.352591 -0.129909 0.283135 2.341805152028776e-38
1.351946 -0.136550 0.283091 2.341805152028776e-38
1.352242 -0.143290 0.283248 2.341805152028776e-38
1.352506 -0.150037 0.283403 2.341805152028776e-38
1.353708 -0.156902 0.283760 2.341805152028776e-38
1.350989 -0.163313 0.283299 2.341805152028776e-38
1.351153 -0.170068 0.283447 2.341805152028776e-38
1.349343 -0.176574 0.283185 2.341805152028776e-38
1.349443 -0.183331 0.283329 2.341805152028776e-38
1.348539 -0.189955 0.283267 2.341805152028776e-38
1.348572 -0.196717 0.283406 2.341805152028776e-38
1.346636 -0.203192 0.283136 2.341805152028776e-38
1.346604 -0.209953 0.283271 2.341805152028776e-38
1.344605 -0.216409 0.282996 2.341805152028776e-38
1.346439 -0.223491 0.283533 2.341805152028776e-38
1.342445 -0.229605 0.282847 2.341805152028776e-38
1.340349 -0.236037 0.282580 2.341805152028776e-38
1.339182 -0.242637 0.282523 2.341805152028776e-38
1.340870 -0.249770 0.283073 2.341805152028776e-38
1.340598 -0.256558 0.283214 2.341805152028776e-38
1.342214 -0.263729 0.283759 2.341805152028776e-38
1.339952 -0.270148 0.283488 2.341805152028776e-38
1.330947 -0.275164 0.281795 2.341805152028776e-38
1.368861 -0.290052 0.290052 2.341805152028776e-38
1.439177 -0.312427 0.305244 2.341805152028776e-38
1.506436 -0.334872 0.319822 2.341805152028776e-38
1.981607 0.249255 0.405650 2.341805152028776e-38
1.869932 0.225893 0.382636 2.341805152028776e-38
1.711355 0.198222 0.350052 2.341805152028776e-38
1.554506 0.172329 0.317852 2.341805152028776e-38
1.439355 0.152419 0.294203 2.341805152028776e-38
1.387425 0.140039 0.283494 2.341805152028776e-38
1.372479 0.131731 0.280350 2.341805152028776e-38
1.369197 0.124639 0.279595 2.341805152028776e-38
1.364903 0.117498 0.278637 2.341805152028776e-38
1.366432 0.110878 0.278874 2.341805152028776e-38
1.365975 0.104096 0.278710 2.341805152028776e-38
1.364508 0.097253 0.278344 2.341805152028776e-38
1.363007 0.090426 0.277975 2.341805152028776e-38
1.365385 0.083856 0.278402 2.341805152028776e-38
1.364796 0.077100 0.278229 2.341805152028776e-38
1.364175 0.070351 0.278054 2.341805152028776e-38
1.362541 0.063565 0.277676 2.341805152028776e-38
1.363812 0.056918 0.277896 2.341805152028776e-38
1.361134 0.050117 0.277314 2.341805152028776e-38
1.360381 0.043406 0.277130 2.341805152028776e-38
1.359595 0.036703 0.276944 2.341805152028776e-38
1.358777 0.030010 0.276755 2.341805152028776e-38
1.357926 0.023325 0.276564 2.341805152028776e-38
1.359003 0.016673 0.276770 2.341805152028776e-38
1.358088 0.009997 0.276575 2.341805152028776e-38
1.360080 0.003337 0.276976 2.341805152028776e-38
1.359100 -0.003335 0.276777 2.341805152028776e-38
1.362987 -0.010033 0.277573 2.341805152028776e-38
1.363902 -0.016733 0.277768 2.341805152028776e-38
1.363805 -0.023426 0.277761 2.341805152028776e-38
1.359757 -0.030031 0.276955 2.341805152028776e-38
1.359595 -0.036703 0.276944 2.341805152028776e-38
1.360381 -0.043406 0.277130 2.341805152028776e-38
1.361134 -0.050117 0.277314 2.341805152028776e-38
1.359896 -0.056755 0.277098 2.341805152028776e-38
1.360584 -0.063473 0.277278 2.341805152028776e-38
1.357325 -0.069998 0.276657 2.341805152028776e-38
1.356970 -0.076657 0.276634 2.341805152028776e-38
1.356582 -0.083316 0.276608 2.341805152028776e-38
1.358119 -0.090101 0.276978 2.341805152028776e-38
1.354734 -0.096556 0.276350 2.341805152028776e-38
1.354250 -0.103203 0.276317 2.341805152028776e-38
1.353735 -0.109847 0.276283 2.341805152028776e-38
1.352211 -0.116405 0.276046 2.341805152028776e-38
1.350655 -0.122951 0.275808 2.341805152028776e-38
1.351995 -0.129765 0.276166 2.341805152028776e-38
1.353300 -0.136595 0.276521 2.341805152028776e-38
1.357496 -0.143750 0.277471 2.341805152028776e-38
1.356784 -0.150410 0.277423 2.341805152028776e-38
1.357013 -0.157180 0.277573 2.341805152028776e-38
1.354290 -0.163602 0.277122 2.341805152028776e-38
1.352510 -0.170124 0.276869 2.341805152028776e-38
1.349727 -0.176506 0.276414 2.341805152028776e-38
1.350798 -0.183391 0.276754 2.341805152028776e-38
1.348924 -0.189881 0.276494 2.341805152028776e-38
1.348959 -0.196641 0.276630 2.341805152028776e-38
1.346053 -0.202966 0.276167 2.341805152028776e-38
1.346991 -0.209872 0.276498 2.341805152028776e-38
1.345959 -0.216480 0.276428 2.341805152028776e-38
1.346828 -0.223404 0.276754 2.341805152028776e-38
1.345731 -0.230011 0.276680 2.341805152028776e-38
1.344602 -0.236613 0.276604 2.341805152028776e-38
1.342472 -0.243043 0.276337 2.341805152028776e-38
1.343198 -0.250009 0.276677 2.341805152028776e-38
1.342926 -0.256805 0.276815 2.341805152028776e-38
1.341658 -0.263416 0.276753 2.341805152028776e-38
1.337474 -0.269441 0.276094 2.341805152028776e-38
1.330385 -0.274837 0.274837 2.341805152028776e-38
1.369303 -0.289916 0.283094 2.341805152028776e-38
1.433964 -0.311003 0.296704 2.341805152028776e-38
1.498431 -0.332783 0.310348 2.341805152028776e-38
1.972841 0.247989 0.393865 2.341805152028776e-38
1.862024 0.224790 0.371592 2.341805152028776e-38
1.714978 0.198512 0.342116 2.341805152028776e-38
1.542377 0.170873 0.307571 2.341805152028776e-38
1.438811 0.152261 0.286817 2.341805152028776e-38
1.388782 0.140084 0.276751 2.341805152028776e-38
1.371868 0.131586 0.273293 2.341805152028776e-38
1.369558 0.124590 0.272751 2.341805152028776e-38
1.369167 0.117788 0.272594 2.341805152028776e-38
1.368744 0.110993 0.272436 2.341805152028776e-38
1.369265 0.104279 0.272470 2.341805152028776e-38
1.368775 0.097493 0.272308 2.341805152028776e-38
1.367273 0.090649 0.271948 2.341805152028776e-38
1.366717 0.083883 0.271781 2.341805152028776e-38
1.366127 0.077124 0.271612 2.341805152028776e-38
1.367464 0.070474 0.271830 2.341805152028776e-38
1.364850 0.063631 0.271267 2.341805152028776e-38
1.365141 0.056937 0.271286 2.341805152028776e-38
1.364421 0.050205 0.271109 2.341805152028776e-38
1.367589 0.043607 0.271708 2.341805152028776e-38
1.362881 0.036768 0.270747 2.341805152028776e-38
1.362062 0.030062 0.270562 2.341805152028776e-38
1.362191 0.023383 0.270571 2.341805152028776e-38
1.361308 0.016690 0.270383 2.341805152028776e-38
1.359411 0.010000 0.269997 2.341805152028776e-38
1.361405 0.003338 0.270389 2.341805152028776e-38
1.365328 -0.003348 0.271168 2.341805152028776e-38
1.369219 -0.010072 0.271945 2.341805152028776e-38
1.368173 -0.016774 0.271746 2.341805152028776e-38
1.364153 -0.023416 0.270961 2.341805152028776e-38
1.364023 -0.030106 0.270952 2.341805152028776e-38
1.366803 -0.036874 0.271526 2.341805152028776e-38
1.365628 -0.043545 0.271318 2.341805152028776e-38
1.364421 -0.050205 0.271109 2.341805152028776e-38
1.363181 -0.056855 0.270897 2.341805152028776e-38
1.360930 -0.063448 0.270488 2.341805152028776e-38
1.358648 -0.070020 0.270078 2.341805152028776e-38
1.358293 -0.076682 0.270054 2.341805152028776e-38
1.358885 -0.083402 0.270224 2.341805152028776e-38
1.362380 -0.090325 0.270975 2.341805152028776e-38
1.358013 -0.096726 0.270167 2.341805152028776e-38
1.358506 -0.103459 0.270329 2.341805152028776e-38
1.356034 -0.109962 0.269906 2.341805152028776e-38
1.354508 -0.116527 0.269676 2.341805152028776e-38
1.352951 -0.123079 0.269443 2.341805152028776e-38
1.356245 -0.130087 0.270181 2.341805152028776e-38
1.357551 -0.136934 0.270528 2.341805152028776e-38
1.360774 -0.144003 0.271261 2.341805152028776e-38
1.358111 -0.150459 0.270826 2.341805152028776e-38
1.357366 -0.157117 0.270777 2.341805152028776e-38
1.354642 -0.163537 0.270337 2.341805152028776e-38
1.354807 -0.170301 0.270478 2.341805152028776e-38
1.352994 -0.176817 0.270229 2.341805152028776e-38
1.353094 -0.183582 0.270366 2.341805152028776e-38
1.353161 -0.190352 0.270501 2.341805152028776e-38
1.353194 -0.197128 0.270634 2.341805152028776e-38
1.351254 -0.203616 0.270376 2.341805152028776e-38
1.349283 -0.210090 0.270116 2.341805152028776e-38
1.349218 -0.216861 0.270242 2.341805152028776e-38
1.348152 -0.223476 0.270172 2.341805152028776e-38
1.347054 -0.230085 0.270100 2.341805152028776e-38
1.346891 -0.236859 0.270220 2.341805152028776e-38
1.347659 -0.243812 0.270531 2.341805152028776e-38
1.347425 -0.250605 0.270653 2.341805152028776e-38
1.344259 -0.256864 0.270208 2.341805152028776e-38
1.342028 -0.263289 0.269955 2.341805152028776e-38
1.339766 -0.269699 0.269699 2.341805152028776e-38
1.335553 -0.275697 0.269054 2.341805152028776e-38
1.374506 -0.290799 0.277114 2.341805152028776e-38
1.430603 -0.310032 0.288651 2.341805152028776e-38
1.489412 -0.330477 0.300771 2.341805152028776e-38
1.952317 0.245252 0.379900 2.341805152028776e-38
1.858927 0.224273 0.361583 2.341805152028776e-38
1.700033 0.196656 0.330549 2.341805152028776e-38
1.527258 0.169089 0.296846 2.341805152028776e-38
1.430419 0.151276 0.277926 2.341805152028776e-38
1.387174 0.139833 0.269433 2.341805152028776e-38
1.371220 0.131440 0.266250 2.341805152028776e-38
1.370862 0.124629 0.266099 2.341805152028776e-38
1.368515 0.117656 0.265567 2.341805152028776e-38
1.370046 0.111027 0.265793 2.341805152028776e-38
1.370568 0.104311 0.265826 2.341805152028776e-38
1.370077 0.097523 0.265667 2.341805152028776e-38
1.367594 0.090613 0.265127 2.341805152028776e-38
1.368016 0.083909 0.265154 2.341805152028776e-38
1.367426 0.077149 0.264989 2.341805152028776e-38
1.368764 0.070497 0.265201 2.341805152028776e-38
1.366147 0.063651 0.264652 2.341805152028776e-38
1.367420 0.056995 0.264861 2.341805152028776e-38
1.366698 0.050257 0.264687 2.341805152028776e-38
1.365944 0.043527 0.264512 2.341805152028776e-38
1.363194 0.036753 0.263954 2.341805152028776e-38
1.365319 0.030115 0.264345 2.341805152028776e-38
1.363485 0.023390 0.263973 2.341805152028776e-38
1.362601 0.016696 0.263789 2.341805152028776e-38
1.360702 0.010003 0.263413 2.341805152028776e-38
1.364661 0.003344 0.264175 2.341805152028776e-38
1.367607 -0.003351 0.264746 2.341805152028776e-38
