VERSION .7
FIELDS x y z rgb
SIZE 4 4 4 4
TYPE F F F F
COUNT 1 1 1 1
WIDTH 948
HEIGHT 1
VIEWPOINT 0 0 0 1 0 0 0
POINTS 948
DATA ascii
1.222542 0.212212 -0.020922 2.341805152028776e-38
1.213696 0.204628 -0.020759 2.341805152028776e-38
1.211712 0.198266 -0.020714 2.341805152028776e-38
1.212657 0.192397 -0.020720 2.341805152028776e-38
1.212586 0.186372 -0.020708 2.341805152028776e-38
1.213474 0.180499 -0.020713 2.341805152028776e-38
1.215324 0.174764 -0.020735 2.341805152028776e-38
1.220117 0.169429 -0.020807 2.341805152028776e-38
1.224887 0.164050 -0.020879 2.341805152028776e-38
1.226658 0.158246 -0.020900 2.341805152028776e-38
1.230387 0.152675 -0.020955 2.341805152028776e-38
1.245011 0.148373 -0.021196 2.341805152028776e-38
1.242734 0.142003 -0.021149 2.341805152028776e-38
1.237444 0.135333 -0.021052 2.341805152028776e-38
1.234107 0.128925 -0.020988 2.341805152028776e-38
1.233721 0.122849 -0.020974 2.341805152028776e-38
1.236292 0.117063 -0.021011 2.341805152028776e-38
1.236845 0.111077 -0.021014 2.341805152028776e-38
1.239360 0.105256 -0.021051 2.341805152028776e-38
1.243842 0.099574 -0.021122 2.341805152028776e-38
1.246304 0.093701 -0.021158 2.341805152028776e-38
1.250732 0.087947 -0.021228 2.341805152028776e-38
1.251143 0.081890 -0.021231 2.341805152028776e-38
1.246535 0.075530 -0.021148 2.341805152028776e-38
1.242893 0.069271 -0.021083 2.341805152028776e-38
1.241216 0.063151 -0.021050 2.341805152028776e-38
1.248499 0.057463 -0.021171 2.341805152028776e-38
1.251760 0.051542 -0.021223 2.341805152028776e-38
1.254992 0.045590 -0.021275 2.341805152028776e-38
1.260195 0.039670 -0.021361 2.341805152028776e-38
1.261372 0.033595 -0.021379 2.341805152028776e-38
1.261519 0.027488 -0.021380 2.341805152028776e-38
1.265637 0.021448 -0.021448 2.341805152028776e-38
1.268725 0.015357 -0.021500 2.341805152028776e-38
1.268784 0.009214 -0.021500 2.341805152028776e-38
1.273813 0.003084 -0.021585 2.341805152028776e-38
1.277813 -0.003093 -0.021653 2.341805152028776e-38
1.278783 -0.009287 -0.021669 2.341805152028776e-38
1.281722 -0.015514 -0.021720 2.341805152028776e-38
1.285631 -0.021787 -0.021787 2.341805152028776e-38
1.287510 -0.028055 -0.021820 2.341805152028776e-38
1.289358 -0.034341 -0.021853 2.341805152028776e-38
1.288177 -0.040551 -0.021835 2.341805152028776e-38
1.288965 -0.046824 -0.021851 2.341805152028776e-38
1.288723 -0.053064 -0.021850 2.341805152028776e-38
1.289450 -0.059348 -0.021865 2.341805152028776e-38
1.292143 -0.065743 -0.021914 2.341805152028776e-38
1.295803 -0.072220 -0.021980 2.341805152028776e-38
1.299430 -0.078735 -0.022046 2.341805152028776e-38
1.303025 -0.085286 -0.022111 2.341805152028776e-38
1.302597 -0.091593 -0.022109 2.341805152028776e-38
1.302138 -0.097899 -0.022106 2.341805152028776e-38
1.306632 -0.104601 -0.022188 2.341805152028776e-38
1.311092 -0.111348 -0.022270 2.341805152028776e-38
1.309541 -0.117605 -0.022250 2.341805152028776e-38
1.310948 -0.124132 -0.022280 2.341805152028776e-38
1.314311 -0.130874 -0.022344 2.341805152028776e-38
1.316646 -0.137547 -0.022391 2.341805152028776e-38
1.317952 -0.144137 -0.022421 2.341805152028776e-38
1.322206 -0.151084 -0.022502 2.341805152028776e-38
1.320466 -0.157365 -0.022481 2.341805152028776e-38
1.319689 -0.163756 -0.022476 2.341805152028776e-38
1.325822 -0.171039 -0.022590 2.341805152028776e-38
1.330925 -0.178252 -0.022687 2.341805152028776e-38
1.332027 -0.184969 -0.022715 2.341805152028776e-38
1.329136 -0.191131 -0.022677 2.341805152028776e-38
1.332152 -0.198152 -0.022739 2.341805152028776e-38
1.334141 -0.205055 -0.022784 2.341805152028776e-38
1.361771 -0.216055 -0.023267 2.341805152028776e-38
1.243037 0.221988 -0.027368 2.341805152028776e-38
1.221441 0.212034 -0.026878 2.341805152028776e-38
1.212595 0.204456 -0.026668 2.341805152028776e-38
1.209624 0.197937 -0.026589 2.341805152028776e-38
1.209581 0.191921 -0.026574 2.341805152028776e-38
1.209507 0.185910 -0.026559 2.341805152028776e-38
1.212371 0.180346 -0.026608 2.341805152028776e-38
1.214219 0.174617 -0.026636 2.341805152028776e-38
1.219011 0.169286 -0.026729 2.341805152028776e-38
1.220808 0.163514 -0.026757 2.341805152028776e-38
1.222576 0.157730 -0.026784 2.341805152028776e-38
1.226302 0.152178 -0.026855 2.341805152028776e-38
1.235959 0.147303 -0.027056 2.341805152028776e-38
1.226725 0.140183 -0.026843 2.341805152028776e-38
1.225401 0.134024 -0.026805 2.341805152028776e-38
1.231007 0.128609 -0.026918 2.341805152028776e-38
1.234600 0.122944 -0.026988 2.341805152028776e-38
1.235181 0.116965 -0.026992 2.341805152028776e-38
1.235733 0.110984 -0.026996 2.341805152028776e-38
1.236255 0.104999 -0.027000 2.341805152028776e-38
1.241732 0.099411 -0.027112 2.341805152028776e-38
1.246186 0.093698 -0.027203 2.341805152028776e-38
1.248620 0.087804 -0.027249 2.341805152028776e-38
1.245040 0.081496 -0.027165 2.341805152028776e-38
1.239432 0.075104 -0.027037 2.341805152028776e-38
1.240780 0.069158 -0.027062 2.341805152028776e-38
1.249088 0.063556 -0.027238 2.341805152028776e-38
1.253375 0.057691 -0.027327 2.341805152028776e-38
1.252641 0.051581 -0.027308 2.341805152028776e-38
1.254874 0.045588 -0.027353 2.341805152028776e-38
1.256080 0.039543 -0.027376 2.341805152028776e-38
1.257256 0.033488 -0.027399 2.341805152028776e-38
1.260402 0.027466 -0.027466 2.341805152028776e-38
1.261519 0.021380 -0.027488 2.341805152028776e-38
1.266607 0.015332 -0.027598 2.341805152028776e-38
1.266666 0.009199 -0.027598 2.341805152028776e-38
1.269695 0.003074 -0.027664 2.341805152028776e-38
1.273694 -0.003083 -0.027751 2.341805152028776e-38
1.277663 -0.009279 -0.027838 2.341805152028776e-38
1.281602 -0.015514 -0.027925 2.341805152028776e-38
1.284511 -0.021769 -0.027989 2.341805152028776e-38
1.286389 -0.028032 -0.028032 2.341805152028776e-38
1.287238 -0.034287 -0.028053 2.341805152028776e-38
1.286058 -0.040487 -0.028030 2.341805152028776e-38
1.286846 -0.046750 -0.028050 2.341805152028776e-38
1.287603 -0.053021 -0.028070 2.341805152028776e-38
1.290328 -0.059392 -0.028133 2.341805152028776e-38
1.292022 -0.065740 -0.028174 2.341805152028776e-38
1.293685 -0.072107 -0.028216 2.341805152028776e-38
1.295316 -0.078490 -0.028257 2.341805152028776e-38
1.297914 -0.084957 -0.028319 2.341805152028776e-38
1.299482 -0.091380 -0.028359 2.341805152028776e-38
1.300022 -0.097746 -0.028378 2.341805152028776e-38
1.301526 -0.104199 -0.028418 2.341805152028776e-38
1.304991 -0.110837 -0.028501 2.341805152028776e-38
1.304440 -0.117154 -0.028497 2.341805152028776e-38
1.309829 -0.124034 -0.028623 2.341805152028776e-38
1.312198 -0.130672 -0.028684 2.341805152028776e-38
1.314533 -0.137335 -0.028745 2.341805152028776e-38
1.315840 -0.143916 -0.028783 2.341805152028776e-38
1.319101 -0.150739 -0.028865 2.341805152028776e-38
1.316371 -0.156887 -0.028816 2.341805152028776e-38
1.316588 -0.163382 -0.028832 2.341805152028776e-38
1.320739 -0.170394 -0.028935 2.341805152028776e-38
1.324854 -0.177450 -0.029037 2.341805152028776e-38
1.325960 -0.184138 -0.029074 2.341805152028776e-38
1.328021 -0.190983 -0.029133 2.341805152028776e-38
1.328070 -0.197557 -0.029148 2.341805152028776e-38
1.329075 -0.204289 -0.029184 2.341805152028776e-38
1.355718 -0.215108 -0.029784 2.341805152028776e-38
2.289196 -0.420264 -0.050432 2.341805152028776e-38
1.241906 0.221804 -0.033423 2.341805152028776e-38
1.221297 0.212026 -0.032849 2.341805152028776e-38
1.211466 0.204282 -0.032567 2.341805152028776e-38
1.209481 0.197929 -0.032496 2.341805152028776e-38
1.209438 0.191914 -0.032478 2.341805152028776e-38
1.210353 0.186055 -0.032486 2.341805152028776e-38
1.211239 0.180192 -0.032494 2.341805152028776e-38
1.215065 0.174752 -0.032581 2.341805152028776e-38
1.217878 0.169142 -0.032641 2.341805152028776e-38
1.219673 0.163375 -0.032675 2.341805152028776e-38
1.220449 0.157468 -0.032682 2.341805152028776e-38
1.222189 0.151679 -0.032715 2.341805152028776e-38
1.221917 0.145641 -0.032695 2.341805152028776e-38
1.222607 0.139723 -0.032701 2.341805152028776e-38
1.228238 0.134345 -0.032840 2.341805152028776e-38
1.230863 0.128604 -0.032899 2.341805152028776e-38
1.234455 0.122940 -0.032984 2.341805152028776e-38
1.234040 0.116867 -0.032962 2.341805152028776e-38
1.234592 0.110890 -0.032967 2.341805152028776e-38
1.235114 0.104911 -0.032972 2.341805152028776e-38
1.239593 0.099248 -0.033083 2.341805152028776e-38
1.244046 0.093544 -0.033193 2.341805152028776e-38
1.247476 0.087730 -0.033277 2.341805152028776e-38
1.246889 0.081623 -0.033254 2.341805152028776e-38
1.244276 0.075403 -0.033177 2.341805152028776e-38
1.252611 0.069823 -0.033393 2.341805152028776e-38
1.256928 0.063960 -0.033503 2.341805152028776e-38
1.256224 0.057827 -0.033479 2.341805152028776e-38
1.255491 0.051702 -0.033455 2.341805152028776e-38
1.256725 0.045659 -0.033483 2.341805152028776e-38
1.255932 0.039542 -0.033458 2.341805152028776e-38
1.258108 0.033513 -0.033513 2.341805152028776e-38
1.260254 0.027465 -0.033568 2.341805152028776e-38
1.262371 0.021396 -0.033622 2.341805152028776e-38
1.263459 0.015295 -0.033649 2.341805152028776e-38
1.264518 0.009185 -0.033677 2.341805152028776e-38
1.267547 0.003069 -0.033757 2.341805152028776e-38
1.271545 -0.003078 -0.033863 2.341805152028776e-38
1.275514 -0.009264 -0.033969 2.341805152028776e-38
1.276454 -0.015453 -0.033996 2.341805152028776e-38
1.275365 -0.021616 -0.033968 2.341805152028776e-38
1.281242 -0.027922 -0.034127 2.341805152028776e-38
1.286088 -0.034259 -0.034259 2.341805152028776e-38
1.284908 -0.040454 -0.034230 2.341805152028776e-38
1.287694 -0.046784 -0.034308 2.341805152028776e-38
1.288451 -0.053060 -0.034333 2.341805152028776e-38
1.290176 -0.059390 -0.034384 2.341805152028776e-38
1.292869 -0.065789 -0.034461 2.341805152028776e-38
1.292535 -0.072048 -0.034458 2.341805152028776e-38
1.295164 -0.078487 -0.034534 2.341805152028776e-38
1.298759 -0.085019 -0.034637 2.341805152028776e-38
1.298333 -0.091306 -0.034633 2.341805152028776e-38
1.295882 -0.097442 -0.034576 2.341805152028776e-38
1.297388 -0.103875 -0.034625 2.341805152028776e-38
1.301850 -0.110579 -0.034753 2.341805152028776e-38
1.304286 -0.117150 -0.034828 2.341805152028776e-38
1.308680 -0.123935 -0.034956 2.341805152028776e-38
1.310054 -0.130469 -0.035004 2.341805152028776e-38
1.309407 -0.136810 -0.034998 2.341805152028776e-38
1.313698 -0.143693 -0.035125 2.341805152028776e-38
1.318946 -0.150733 -0.035278 2.341805152028776e-38
1.318201 -0.157118 -0.035271 2.341805152028776e-38
1.316433 -0.163375 -0.035238 2.341805152028776e-38
1.320584 -0.170387 -0.035363 2.341805152028776e-38
1.323707 -0.177311 -0.035462 2.341805152028776e-38
1.325803 -0.184131 -0.035534 2.341805152028776e-38
1.326875 -0.190833 -0.035579 2.341805152028776e-38
1.326925 -0.197402 -0.035597 2.341805152028776e-38
1.330894 -0.204585 -0.035721 2.341805152028776e-38
1.354570 -0.214943 -0.036375 2.341805152028776e-38
2.284992 -0.419526 -0.061530 2.341805152028776e-38
1.246649 0.222672 -0.039654 2.341805152028776e-38
1.220139 0.211845 -0.038789 2.341805152028776e-38
1.211294 0.204272 -0.038486 2.341805152028776e-38
1.207337 0.197597 -0.038340 2.341805152028776e-38
1.208279 0.191748 -0.038350 2.341805152028776e-38
1.207217 0.185591 -0.038296 2.341805152028776e-38
1.210079 0.180037 -0.038368 2.341805152028776e-38
1.212915 0.174459 -0.038440 2.341805152028776e-38
1.214735 0.168721 -0.038480 2.341805152028776e-38
1.216528 0.162970 -0.038520 2.341805152028776e-38
1.218294 0.157204 -0.038560 2.341805152028776e-38
1.219041 0.151303 -0.038567 2.341805152028776e-38
1.220752 0.145516 -0.038606 2.341805152028776e-38
1.224421 0.139943 -0.038708 2.341805152028776e-38
1.226078 0.134121 -0.038746 2.341805152028776e-38
1.227707 0.128286 -0.038784 2.341805152028776e-38
1.231297 0.122637 -0.038885 2.341805152028776e-38
1.232871 0.116767 -0.038922 2.341805152028776e-38
1.232427 0.110706 -0.038897 2.341805152028776e-38
1.233944 0.104821 -0.038934 2.341805152028776e-38
1.238422 0.099164 -0.039064 2.341805152028776e-38
1.243871 0.093540 -0.039226 2.341805152028776e-38
1.245306 0.087586 -0.039263 2.341805152028776e-38
1.243721 0.081424 -0.039204 2.341805152028776e-38
1.246096 0.075521 -0.039271 2.341805152028776e-38
1.248443 0.069597 -0.039337 2.341805152028776e-38
1.249763 0.063601 -0.039372 2.341805152028776e-38
1.252054 0.057640 -0.039438 2.341805152028776e-38
1.252318 0.051577 -0.039441 2.341805152028776e-38
1.253552 0.045548 -0.039475 2.341805152028776e-38
1.253758 0.039477 -0.039477 2.341805152028776e-38
1.256931 0.033485 -0.039573 2.341805152028776e-38
1.258078 0.027420 -0.039606 2.341805152028776e-38
1.257197 0.021310 -0.039576 2.341805152028776e-38
1.259284 0.015246 -0.039640 2.341805152028776e-38
1.261342 0.009162 -0.039703 2.341805152028776e-38
1.266369 0.003066 -0.039861 2.341805152028776e-38
1.272366 -0.003081 -0.040050 2.341805152028776e-38
1.273336 -0.009249 -0.040081 2.341805152028776e-38
1.268279 -0.015355 -0.039923 2.341805152028776e-38
1.271188 -0.021547 -0.040016 2.341805152028776e-38
1.277064 -0.027834 -0.040204 2.341805152028776e-38
1.280911 -0.034124 -0.040328 2.341805152028776e-38
1.283728 -0.040421 -0.040421 2.341805152028776e-38
1.285515 -0.046709 -0.040481 2.341805152028776e-38
1.287271 -0.053016 -0.040542 2.341805152028776e-38
1.288996 -0.059341 -0.040602 2.341805152028776e-38
1.286697 -0.065481 -0.040536 2.341805152028776e-38
1.291355 -0.071989 -0.040689 2.341805152028776e-38
1.291989 -0.078302 -0.040717 2.341805152028776e-38
1.293590 -0.084688 -0.040776 2.341805152028776e-38
1.296156 -0.091162 -0.040866 2.341805152028776e-38
1.311646 -0.098637 -0.041364 2.341805152028776e-38
1.316135 -0.105386 -0.041516 2.341805152028776e-38
1.308638 -0.111166 -0.041290 2.341805152028776e-38
1.301116 -0.116876 -0.041065 2.341805152028776e-38
1.304515 -0.123552 -0.041184 2.341805152028776e-38
1.303902 -0.129868 -0.041178 2.341805152028776e-38
1.307234 -0.136596 -0.041297 2.341805152028776e-38
1.311525 -0.143468 -0.041446 2.341805152028776e-38
1.315781 -0.150385 -0.041596 2.341805152028776e-38
1.316030 -0.156874 -0.041620 2.341805152028776e-38
1.322198 -0.164106 -0.041831 2.341805152028776e-38
1.324362 -0.170891 -0.041917 2.341805152028776e-38
1.323519 -0.177302 -0.041908 2.341805152028776e-38
1.323636 -0.183847 -0.041930 2.341805152028776e-38
1.326687 -0.190824 -0.042046 2.341805152028776e-38
1.327725 -0.197540 -0.042099 2.341805152028776e-38
1.328729 -0.204271 -0.042151 2.341805152028776e-38
1.348455 -0.213993 -0.042799 2.341805152028776e-38
1.408559 -0.230530 -0.044730 2.341805152028776e-38
2.276802 -0.418062 -0.072464 2.341805152028776e-38
1.242507 0.221957 -0.045608 2.341805152028776e-38
1.219936 0.211834 -0.044754 2.341805152028776e-38
1.210108 0.204095 -0.044368 2.341805152028776e-38
1.209109 0.197909 -0.044308 2.341805152028776e-38
1.207092 0.191581 -0.044211 2.341805152028776e-38
1.209981 0.186036 -0.044294 2.341805152028776e-38
1.210867 0.180174 -0.044305 2.341805152028776e-38
1.212714 0.174450 -0.044352 2.341805152028776e-38
1.215524 0.168849 -0.044434 2.341805152028776e-38
1.216328 0.162961 -0.044444 2.341805152028776e-38
1.220075 0.157452 -0.044562 2.341805152028776e-38
1.220823 0.151541 -0.044571 2.341805152028776e-38
1.222535 0.145745 -0.044616 2.341805152028776e-38
1.225212 0.140049 -0.044697 2.341805152028776e-38
1.225876 0.134114 -0.044705 2.341805152028776e-38
1.229492 0.128487 -0.044821 2.341805152028776e-38
1.231094 0.122630 -0.044865 2.341805152028776e-38
1.232668 0.116760 -0.044908 2.341805152028776e-38
1.235210 0.110968 -0.044987 2.341805152028776e-38
1.235733 0.104985 -0.044993 2.341805152028776e-38
1.238219 0.099158 -0.045072 2.341805152028776e-38
1.242670 0.093460 -0.045223 2.341805152028776e-38
1.244105 0.087511 -0.045264 2.341805152028776e-38
1.245511 0.081550 -0.045305 2.341805152028776e-38
1.244894 0.075456 -0.045274 2.341805152028776e-38
1.246242 0.069482 -0.045314 2.341805152028776e-38
1.248560 0.063547 -0.045391 2.341805152028776e-38
1.250850 0.057591 -0.045467 2.341805152028776e-38
1.252112 0.051574 -0.045506 2.341805152028776e-38
1.253346 0.045545 -0.045545 2.341805152028776e-38
1.254551 0.039506 -0.045584 2.341805152028776e-38
1.254727 0.033430 -0.045586 2.341805152028776e-38
1.253875 0.027331 -0.045552 2.341805152028776e-38
1.256990 0.021309 -0.045662 2.341805152028776e-38
1.259077 0.015245 -0.045736 2.341805152028776e-38
1.261135 0.009162 -0.045809 2.341805152028776e-38
1.267161 0.003068 -0.046027 2.341805152028776e-38
1.272157 -0.003081 -0.046209 2.341805152028776e-38
1.274126 -0.009256 -0.046281 2.341805152028776e-38
1.269070 -0.015366 -0.046099 2.341805152028776e-38
1.275975 -0.021631 -0.046352 2.341805152028776e-38
1.277854 -0.027854 -0.046423 2.341805152028776e-38
1.279702 -0.034095 -0.046494 2.341805152028776e-38
1.283517 -0.040418 -0.046637 2.341805152028776e-38
1.285304 -0.046707 -0.046707 2.341805152028776e-38
1.286061 -0.052972 -0.046740 2.341805152028776e-38
1.286788 -0.059246 -0.046773 2.341805152028776e-38
1.287484 -0.065528 -0.046806 2.341805152028776e-38
1.292141 -0.072041 -0.046983 2.341805152028776e-38
1.292774 -0.078358 -0.047015 2.341805152028776e-38
1.294374 -0.084749 -0.047083 2.341805152028776e-38
1.310896 -0.092209 -0.047694 2.341805152028776e-38
1.332358 -0.100205 -0.048486 2.341805152028776e-38
1.319903 -0.105700 -0.048045 2.341805152028776e-38
1.312406 -0.111498 -0.047785 2.341805152028776e-38
1.303888 -0.117138 -0.047488 2.341805152028776e-38
1.304300 -0.123546 -0.047518 2.341805152028776e-38
1.305676 -0.130059 -0.047583 2.341805152028776e-38
1.306025 -0.136485 -0.047611 2.341805152028776e-38
1.309323 -0.143243 -0.047748 2.341805152028776e-38
1.313578 -0.150150 -0.047920 2.341805152028776e-38
1.322759 -0.157693 -0.048273 2.341805152028776e-38
1.337848 -0.166067 -0.048843 2.341805152028776e-38
1.336037 -0.172417 -0.048797 2.341805152028776e-38
1.328253 -0.177956 -0.048533 2.341805152028776e-38
1.326387 -0.184249 -0.048487 2.341805152028776e-38
1.326468 -0.190813 -0.048512 2.341805152028776e-38
1.327506 -0.197529 -0.048573 2.341805152028776e-38
1.330485 -0.204564 -0.048706 2.341805152028776e-38
1.350206 -0.214295 -0.049453 2.341805152028776e-38
1.398464 -0.228903 -0.051247 2.341805152028776e-38
1.243255 0.222119 -0.051726 2.341805152028776e-38
1.219705 0.211820 -0.050718 2.341805152028776e-38
1.208893 0.203916 -0.050240 2.341805152028776e-38
1.203950 0.197089 -0.050008 2.341805152028776e-38
1.204890 0.191255 -0.050021 2.341805152028776e-38
1.206789 0.185569 -0.050074 2.341805152028776e-38
1.207674 0.179721 -0.050086 2.341805152028776e-38
1.210507 0.174154 -0.050180 2.341805152028776e-38
1.214305 0.168701 -0.050314 2.341805152028776e-38
1.217088 0.163083 -0.050408 2.341805152028776e-38
1.218854 0.157314 -0.050459 2.341805152028776e-38
1.218610 0.151285 -0.050428 2.341805152028776e-38
1.218336 0.145263 -0.050397 2.341805152028776e-38
1.221010 0.139587 -0.050489 2.341805152028776e-38
1.225645 0.134106 -0.050662 2.341805152028776e-38
1.229261 0.128479 -0.050794 2.341805152028776e-38
1.232851 0.122820 -0.050926 2.341805152028776e-38
1.232436 0.116753 -0.050892 2.341805152028776e-38
1.231992 0.110693 -0.050859 2.341805152028776e-38
1.231518 0.104640 -0.050825 2.341805152028776e-38
1.235994 0.098992 -0.050996 2.341805152028776e-38
1.240444 0.093304 -0.051167 2.341805152028776e-38
1.241878 0.087365 -0.051214 2.341805152028776e-38
1.242286 0.081349 -0.051220 2.341805152028776e-38
1.243663 0.075391 -0.051266 2.341805152028776e-38
1.244013 0.069366 -0.051271 2.341805152028776e-38
1.248326 0.063543 -0.051440 2.341805152028776e-38
1.249617 0.057542 -0.051485 2.341805152028776e-38
1.251877 0.051571 -0.051571 2.341805152028776e-38
1.251114 0.045470 -0.051533 2.341805152028776e-38
1.252318 0.039441 -0.051577 2.341805152028776e-38
1.250497 0.033321 -0.051497 2.341805152028776e-38
1.251642 0.027286 -0.051540 2.341805152028776e-38
1.252759 0.021240 -0.051583 2.341805152028776e-38
1.255844 0.015208 -0.051707 2.341805152028776e-38
1.259899 0.009154 -0.051873 2.341805152028776e-38
1.264925 0.003063 -0.052079 2.341805152028776e-38
1.268921 -0.003073 -0.052243 2.341805152028776e-38
1.271889 -0.009241 -0.052366 2.341805152028776e-38
1.272828 -0.015414 -0.052407 2.341805152028776e-38
1.275736 -0.021629 -0.052529 2.341805152028776e-38
1.275616 -0.027808 -0.052527 2.341805152028776e-38
1.278463 -0.034067 -0.052648 2.341805152028776e-38
1.277284 -0.040227 -0.052605 2.341805152028776e-38
1.282067 -0.046595 -0.052808 2.341805152028776e-38
1.284822 -0.052928 -0.052928 2.341805152028776e-38
1.288543 -0.059334 -0.053088 2.341805152028776e-38
1.287242 -0.065524 -0.053043 2.341805152028776e-38
1.289903 -0.071925 -0.053162 2.341805152028776e-38
1.289540 -0.078172 -0.053157 2.341805152028776e-38
1.294131 -0.084744 -0.053357 2.341805152028776e-38
1.305666 -0.091852 -0.053845 2.341805152028776e-38
1.315170 -0.098925 -0.054249 2.341805152028776e-38
1.308699 -0.104815 -0.053996 2.341805152028776e-38
1.304194 -0.110815 -0.053824 2.341805152028776e-38
1.302647 -0.117041 -0.053776 2.341805152028776e-38
1.305050 -0.123632 -0.053891 2.341805152028776e-38
1.304436 -0.129952 -0.053882 2.341805152028776e-38
1.305779 -0.136476 -0.053956 2.341805152028776e-38
1.306096 -0.142908 -0.053988 2.341805152028776e-38
1.307375 -0.149460 -0.054060 2.341805152028776e-38
1.323502 -0.157802 -0.054747 2.341805152028776e-38
1.326689 -0.164703 -0.054901 2.341805152028776e-38
1.319930 -0.170359 -0.054644 2.341805152028776e-38
1.322061 -0.177149 -0.054755 2.341805152028776e-38
1.324157 -0.183963 -0.054866 2.341805152028776e-38
1.327207 -0.190944 -0.055018 2.341805152028776e-38
1.326267 -0.197370 -0.055005 2.341805152028776e-38
1.328258 -0.204247 -0.055114 2.341805152028776e-38
1.346990 -0.213811 -0.055920 2.341805152028776e-38
1.395241 -0.228404 -0.057953 2.341805152028776e-38
1.242990 0.222103 -0.057808 2.341805152028776e-38
1.221414 0.212147 -0.056772 2.341805152028776e-38
1.209621 0.204067 -0.056193 2.341805152028776e-38
1.204680 0.197237 -0.055933 2.341805152028776e-38
1.205620 0.191399 -0.055947 2.341805152028776e-38
1.207520 0.185708 -0.056007 2.341805152028776e-38
1.208405 0.179856 -0.056021 2.341805152028776e-38
1.212228 0.174427 -0.056171 2.341805152028776e-38
1.214047 0.168690 -0.056230 2.341805152028776e-38
1.216830 0.163072 -0.056334 2.341805152028776e-38
1.216614 0.157047 -0.056300 2.341805152028776e-38
1.216369 0.151028 -0.056265 2.341805152028776e-38
1.218078 0.145252 -0.056322 2.341805152028776e-38
1.222737 0.139804 -0.056516 2.341805152028776e-38
1.227371 0.134313 -0.056710 2.341805152028776e-38
1.231981 0.128781 -0.056903 2.341805152028776e-38
1.232590 0.122812 -0.056913 2.341805152028776e-38
1.232176 0.116745 -0.056876 2.341805152028776e-38
1.231731 0.110685 -0.056838 2.341805152028776e-38
1.233248 0.104801 -0.056892 2.341805152028776e-38
1.236728 0.099065 -0.057038 2.341805152028776e-38
1.241178 0.093373 -0.057228 2.341805152028776e-38
1.242612 0.087429 -0.057281 2.341805152028776e-38
1.242024 0.081343 -0.057241 2.341805152028776e-38
1.242403 0.075325 -0.057247 2.341805152028776e-38
1.244748 0.069417 -0.057344 2.341805152028776e-38
1.249060 0.063589 -0.057533 2.341805152028776e-38
1.249353 0.057538 -0.057538 2.341805152028776e-38
1.250615 0.051526 -0.057588 2.341805152028776e-38
1.251848 0.045503 -0.057637 2.341805152028776e-38
1.253052 0.039470 -0.057686 2.341805152028776e-38
1.252230 0.033372 -0.057643 2.341805152028776e-38
1.252377 0.027306 -0.057645 2.341805152028776e-38
1.256489 0.021306 -0.057831 2.341805152028776e-38
1.257577 0.015231 -0.057878 2.341805152028776e-38
1.260632 0.009161 -0.058017 2.341805152028776e-38
1.263659 0.003061 -0.058156 2.341805152028776e-38
1.269652 -0.003075 -0.058431 2.341805152028776e-38
1.273618 -0.009255 -0.058615 2.341805152028776e-38
1.275556 -0.015449 -0.058706 2.341805152028776e-38
1.275467 -0.021628 -0.058704 2.341805152028776e-38
1.276346 -0.027828 -0.058749 2.341805152028776e-38
1.277194 -0.034038 -0.058792 2.341805152028776e-38
1.275018 -0.040162 -0.058698 2.341805152028776e-38
1.278802 -0.046483 -0.058878 2.341805152028776e-38
1.281556 -0.052801 -0.059012 2.341805152028776e-38
1.281285 -0.059008 -0.059008 2.341805152028776e-38
1.284975 -0.065418 -0.059187 2.341805152028776e-38
1.286638 -0.071753 -0.059274 2.341805152028776e-38
1.289267 -0.078167 -0.059407 2.341805152028776e-38
1.294855 -0.084803 -0.059676 2.341805152028776e-38
1.300408 -0.091495 -0.059945 2.341805152028776e-38
1.299950 -0.097794 -0.059938 2.341805152028776e-38
1.301452 -0.104250 -0.060023 2.341805152028776e-38
1.301928 -0.110638 -0.060061 2.341805152028776e-38
1.304362 -0.117212 -0.060190 2.341805152028776e-38
1.304774 -0.123623 -0.060227 2.341805152028776e-38
1.304160 -0.129943 -0.060217 2.341805152028776e-38
1.304509 -0.136363 -0.060253 2.341805152028776e-38
1.305820 -0.142898 -0.060335 2.341805152028776e-38
1.309083 -0.149676 -0.060507 2.341805152028776e-38
1.312310 -0.156489 -0.060680 2.341805152028776e-38
1.313520 -0.163091 -0.060759 2.341805152028776e-38
1.317669 -0.170092 -0.060976 2.341805152028776e-38
1.323761 -0.177402 -0.061284 2.341805152028776e-38
1.326844 -0.184362 -0.061454 2.341805152028776e-38
1.323958 -0.190503 -0.061349 2.341805152028776e-38
1.323021 -0.196915 -0.061334 2.341805152028776e-38
1.326001 -0.203929 -0.061502 2.341805152028776e-38
1.342757 -0.213170 -0.062311 2.341805152028776e-38
1.393958 -0.228227 -0.064721 2.341805152028776e-38
1.242696 0.222086 -0.063888 2.341805152028776e-38
1.214236 0.210934 -0.062389 2.341805152028776e-38
1.207365 0.203719 -0.062001 2.341805152028776e-38
1.202423 0.196899 -0.061714 2.341805152028776e-38
1.203363 0.191070 -0.061730 2.341805152028776e-38
1.205261 0.185389 -0.061796 2.341805152028776e-38
1.209107 0.179989 -0.061963 2.341805152028776e-38
1.209965 0.174128 -0.061978 2.341805152028776e-38
1.211782 0.168401 -0.062043 2.341805152028776e-38
1.212583 0.162528 -0.062056 2.341805152028776e-38
1.212366 0.156523 -0.062019 2.341805152028776e-38
1.214100 0.150770 -0.062082 2.341805152028776e-38
1.216799 0.145123 -0.062195 2.341805152028776e-38
1.219472 0.139452 -0.062309 2.341805152028776e-38
1.224104 0.133977 -0.062523 2.341805152028776e-38
1.225731 0.128148 -0.062584 2.341805152028776e-38
1.228325 0.122406 -0.062696 2.341805152028776e-38
1.228903 0.116453 -0.062706 2.341805152028776e-38
1.230447 0.110587 -0.062766 2.341805152028776e-38
1.231963 0.104709 -0.062825 2.341805152028776e-38
1.235442 0.098978 -0.062986 2.341805152028776e-38
1.237899 0.093141 -0.063095 2.341805152028776e-38
1.238335 0.087142 -0.063103 2.341805152028776e-38
1.237746 0.081076 -0.063059 2.341805152028776e-38
1.241114 0.075259 -0.063217 2.341805152028776e-38
1.243458 0.069356 -0.063325 2.341805152028776e-38
1.246772 0.063483 -0.063483 2.341805152028776e-38
1.248062 0.057487 -0.063539 2.341805152028776e-38
1.249324 0.051481 -0.063594 2.341805152028776e-38
1.250556 0.045463 -0.063649 2.341805152028776e-38
1.252758 0.039467 -0.063754 2.341805152028776e-38
1.251936 0.033370 -0.063706 2.341805152028776e-38
1.253081 0.027325 -0.063759 2.341805152028776e-38
1.255196 0.021288 -0.063863 2.341805152028776e-38
1.256283 0.015218 -0.063915 2.341805152028776e-38
1.258339 0.009145 -0.064018 2.341805152028776e-38
1.261365 0.003056 -0.064171 2.341805152028776e-38
1.265360 -0.003065 -0.064374 2.341805152028776e-38
1.268326 -0.009218 -0.064526 2.341805152028776e-38
1.271263 -0.015399 -0.064677 2.341805152028776e-38
1.273170 -0.021592 -0.064777 2.341805152028776e-38
1.273051 -0.027761 -0.064775 2.341805152028776e-38
1.272902 -0.033929 -0.064773 2.341805152028776e-38
1.271724 -0.040064 -0.064719 2.341805152028776e-38
1.277504 -0.046443 -0.065020 2.341805152028776e-38
1.280257 -0.052755 -0.065168 2.341805152028776e-38
1.281982 -0.059050 -0.065265 2.341805152028776e-38
1.281681 -0.065260 -0.065260 2.341805152028776e-38
1.285339 -0.071692 -0.065458 2.341805152028776e-38
1.289961 -0.078221 -0.065706 2.341805152028776e-38
1.293554 -0.084731 -0.065902 2.341805152028776e-38
1.294125 -0.091068 -0.065946 2.341805152028776e-38
1.295660 -0.097487 -0.066039 2.341805152028776e-38
1.296169 -0.103843 -0.066082 2.341805152028776e-38
1.300627 -0.110545 -0.066327 2.341805152028776e-38
1.302066 -0.117024 -0.066419 2.341805152028776e-38
1.303472 -0.123520 -0.066511 2.341805152028776e-38
1.300872 -0.129635 -0.066399 2.341805152028776e-38
1.302215 -0.136145 -0.066489 2.341805152028776e-38
1.303527 -0.142670 -0.066579 2.341805152028776e-38
1.309766 -0.149778 -0.066922 2.341805152028776e-38
1.308034 -0.156004 -0.066859 2.341805152028776e-38
1.312219 -0.162955 -0.067099 2.341805152028776e-38
1.314386 -0.169695 -0.067238 2.341805152028776e-38
1.319489 -0.176857 -0.067527 2.341805152028776e-38
1.321585 -0.183661 -0.067664 2.341805152028776e-38
1.323646 -0.190489 -0.067801 2.341805152028776e-38
1.320732 -0.196605 -0.067684 2.341805152028776e-38
1.323714 -0.203610 -0.067870 2.341805152028776e-38
1.338494 -0.212527 -0.068662 2.341805152028776e-38
1.387715 -0.227240 -0.071225 2.341805152028776e-38
1.239423 0.221540 -0.069800 2.341805152028776e-38
1.213920 0.210916 -0.068325 2.341805152028776e-38
1.206066 0.203536 -0.067845 2.341805152028776e-38
1.203096 0.197043 -0.067642 2.341805152028776e-38
1.205022 0.191367 -0.067715 2.341805152028776e-38
1.206921 0.185677 -0.067787 2.341805152028776e-38
1.208793 0.179973 -0.067859 2.341805152028776e-38
1.209650 0.174113 -0.067875 2.341805152028776e-38
1.210479 0.168249 -0.067890 2.341805152028776e-38
1.211279 0.162382 -0.067905 2.341805152028776e-38
1.213041 0.156638 -0.067975 2.341805152028776e-38
1.216758 0.151127 -0.068155 2.341805152028776e-38
1.217475 0.145229 -0.068168 2.341805152028776e-38
1.219156 0.139440 -0.068237 2.341805152028776e-38
1.222794 0.133857 -0.068416 2.341805152028776e-38
1.224421 0.128033 -0.068483 2.341805152028776e-38
1.227013 0.122296 -0.068605 2.341805152028776e-38
1.227591 0.116349 -0.068616 2.341805152028776e-38
1.231123 0.110667 -0.068793 2.341805152028776e-38
1.231645 0.104700 -0.068803 2.341805152028776e-38
1.233132 0.098810 -0.068867 2.341805152028776e-38
1.237579 0.093133 -0.069098 2.341805152028776e-38
1.237019 0.087064 -0.069051 2.341805152028776e-38
1.239419 0.081199 -0.069170 2.341805152028776e-38
1.239797 0.075192 -0.069177 2.341805152028776e-38
1.242140 0.069294 -0.069294 2.341805152028776e-38
1.244456 0.063376 -0.069412 2.341805152028776e-38
1.246742 0.057436 -0.069528 2.341805152028776e-38
1.249001 0.051476 -0.069644 2.341805152028776e-38
1.250234 0.045459 -0.069704 2.341805152028776e-38
1.252435 0.039463 -0.069819 2.341805152028776e-38
1.252611 0.033393 -0.069823 2.341805152028776e-38
1.252758 0.027323 -0.069825 2.341805152028776e-38
1.253874 0.021269 -0.069883 2.341805152028776e-38
1.254961 0.015204 -0.069941 2.341805152028776e-38
1.254021 0.009116 -0.069886 2.341805152028776e-38
1.261040 0.003055 -0.070276 2.341805152028776e-38
1.264035 -0.003063 -0.070443 2.341805152028776e-38
1.267001 -0.009210 -0.070609 2.341805152028776e-38
1.270935 -0.015398 -0.070831 2.341805152028776e-38
1.273840 -0.021607 -0.070996 2.341805152028776e-38
1.273721 -0.027780 -0.070994 2.341805152028776e-38
1.273571 -0.033952 -0.070991 2.341805152028776e-38
1.275388 -0.040186 -0.071099 2.341805152028776e-38
1.279169 -0.046511 -0.071318 2.341805152028776e-38
1.280924 -0.052792 -0.071424 2.341805152028776e-38
1.280654 -0.058999 -0.071419 2.341805152028776e-38
1.285339 -0.065458 -0.071692 2.341805152028776e-38
1.288995 -0.071908 -0.071908 2.341805152028776e-38
1.292618 -0.078396 -0.072124 2.341805152028776e-38
1.292223 -0.084659 -0.072117 2.341805152028776e-38
1.292794 -0.090990 -0.072164 2.341805152028776e-38
1.293334 -0.097328 -0.072211 2.341805152028776e-38
1.294839 -0.103754 -0.072314 2.341805152028776e-38
1.300290 -0.110535 -0.072637 2.341805152028776e-38
1.298746 -0.116746 -0.072572 2.341805152028776e-38
1.302141 -0.123415 -0.072783 2.341805152028776e-38
1.300535 -0.129624 -0.072716 2.341805152028776e-38
1.303864 -0.136341 -0.072926 2.341805152028776e-38
1.305174 -0.142875 -0.073025 2.341805152028776e-38
1.309427 -0.149765 -0.073289 2.341805152028776e-38
1.308687 -0.156109 -0.073276 2.341805152028776e-38
1.310888 -0.162818 -0.073428 2.341805152028776e-38
1.312065 -0.169424 -0.073524 2.341805152028776e-38
1.319146 -0.176842 -0.073952 2.341805152028776e-38
1.322231 -0.183782 -0.074158 2.341805152028776e-38
1.321325 -0.190188 -0.074141 2.341805152028776e-38
1.321377 -0.196736 -0.074179 2.341805152028776e-38
1.324356 -0.203744 -0.074383 2.341805152028776e-38
1.338146 -0.212508 -0.075195 2.341805152028776e-38
1.382427 -0.226414 -0.077724 2.341805152028776e-38
1.238088 0.221343 -0.075802 2.341805152028776e-38
1.210625 0.210383 -0.074079 2.341805152028776e-38
1.203755 0.203184 -0.073617 2.341805152028776e-38
1.201769 0.196863 -0.073456 2.341805152028776e-38
1.201722 0.190879 -0.073415 2.341805152028776e-38
1.202632 0.185053 -0.073434 2.341805152028776e-38
1.204501 0.179368 -0.073512 2.341805152028776e-38
1.205355 0.173528 -0.073529 2.341805152028776e-38
1.206181 0.167684 -0.073546 2.341805152028776e-38
1.206979 0.161836 -0.073562 2.341805152028776e-38
1.210718 0.156367 -0.073758 2.341805152028776e-38
1.211461 0.150497 -0.073773 2.341805152028776e-38
1.214157 0.144860 -0.073908 2.341805152028776e-38
1.215836 0.139087 -0.073982 2.341805152028776e-38
1.220464 0.133627 -0.074237 2.341805152028776e-38
1.222089 0.127814 -0.074310 2.341805152028776e-38
1.224680 0.122087 -0.074443 2.341805152028776e-38
1.225257 0.116150 -0.074455 2.341805152028776e-38
1.227793 0.110388 -0.074587 2.341805152028776e-38
1.227319 0.104352 -0.074537 2.341805152028776e-38
1.230794 0.098641 -0.074728 2.341805152028776e-38
1.235239 0.092974 -0.074979 2.341805152028776e-38
1.237666 0.087126 -0.075109 2.341805152028776e-38
1.237077 0.081061 -0.075056 2.341805152028776e-38
1.237455 0.075064 -0.075064 2.341805152028776e-38
1.238800 0.069121 -0.075132 2.341805152028776e-38
1.242111 0.063268 -0.075319 2.341805152028776e-38
1.242403 0.057247 -0.075325 2.341805152028776e-38
1.244660 0.051307 -0.075451 2.341805152028776e-38
1.246889 0.045346 -0.075577 2.341805152028776e-38
1.249089 0.039365 -0.075702 2.341805152028776e-38
1.248267 0.033284 -0.075645 2.341805152028776e-38
1.250409 0.027277 -0.075769 2.341805152028776e-38
1.249529 0.021199 -0.075711 2.341805152028776e-38
1.251613 0.015167 -0.075834 2.341805152028776e-38
1.251672 0.009100 -0.075835 2.341805152028776e-38
1.255694 0.003043 -0.076077 2.341805152028776e-38
1.260685 -0.003055 -0.076380 2.341805152028776e-38
1.265646 -0.009202 -0.076682 2.341805152028776e-38
1.269579 -0.015384 -0.076922 2.341805152028776e-38
1.271485 -0.021572 -0.077041 2.341805152028776e-38
1.270368 -0.027712 -0.076979 2.341805152028776e-38
1.272215 -0.033922 -0.077096 2.341805152028776e-38
1.271038 -0.040057 -0.077032 2.341805152028776e-38
1.276814 -0.046435 -0.077391 2.341805152028776e-38
1.276574 -0.052623 -0.077386 2.341805152028776e-38
1.280293 -0.058993 -0.077622 2.341805152028776e-38
1.283980 -0.065401 -0.077858 2.341805152028776e-38
1.286638 -0.071790 -0.078033 2.341805152028776e-38
1.288268 -0.078146 -0.078146 2.341805152028776e-38
1.289867 -0.084520 -0.078259 2.341805152028776e-38
1.290438 -0.090841 -0.078311 2.341805152028776e-38
1.291974 -0.097244 -0.078423 2.341805152028776e-38
1.292483 -0.103585 -0.078473 2.341805152028776e-38
1.294950 -0.110102 -0.078644 2.341805152028776e-38
1.294402 -0.116377 -0.078633 2.341805152028776e-38
1.298792 -0.123121 -0.078923 2.341805152028776e-38
1.299174 -0.129513 -0.078971 2.341805152028776e-38
1.301510 -0.136120 -0.079140 2.341805152028776e-38
1.301828 -0.142535 -0.079186 2.341805152028776e-38
1.305090 -0.149297 -0.079413 2.341805152028776e-38
1.306334 -0.155858 -0.079519 2.341805152028776e-38
1.306555 -0.162311 -0.079564 2.341805152028776e-38
1.311694 -0.169408 -0.079910 2.341805152028776e-38
1.315805 -0.176427 -0.080194 2.341805152028776e-38
1.318890 -0.183353 -0.080418 2.341805152028776e-38
1.318975 -0.189885 -0.080460 2.341805152028776e-38
1.318040 -0.196276 -0.080441 2.341805152028776e-38
1.321021 -0.203269 -0.080662 2.341805152028776e-38
1.335795 -0.212175 -0.081606 2.341805152028776e-38
1.382035 -0.226393 -0.084475 2.341805152028776e-38
1.234759 0.220794 -0.081663 2.341805152028776e-38
1.209269 0.210191 -0.079932 2.341805152028776e-38
1.204368 0.203330 -0.079564 2.341805152028776e-38
1.201399 0.196843 -0.079325 2.341805152028776e-38
1.202338 0.191017 -0.079345 2.341805152028776e-38
1.201276 0.184882 -0.079235 2.341805152028776e-38
1.204131 0.179350 -0.079384 2.341805152028776e-38
1.205973 0.173653 -0.079468 2.341805152028776e-38
1.206799 0.167804 -0.079486 2.341805152028776e-38
1.209576 0.162217 -0.079634 2.341805152028776e-38
1.210347 0.156351 -0.079651 2.341805152028776e-38
1.210099 0.150359 -0.079602 2.341805152028776e-38
1.212794 0.144727 -0.079748 2.341805152028776e-38
1.216455 0.139186 -0.079958 2.341805152028776e-38
1.220090 0.133613 -0.080168 2.341805152028776e-38
1.221715 0.127801 -0.080247 2.341805152028776e-38
1.223313 0.121976 -0.080325 2.341805152028776e-38
1.224882 0.116138 -0.080403 2.341805152028776e-38
1.224436 0.110109 -0.080350 2.341805152028776e-38
1.225949 0.104256 -0.080426 2.341805152028776e-38
1.231413 0.098711 -0.080763 2.341805152028776e-38
1.236851 0.093114 -0.081100 2.341805152028776e-38
1.238283 0.087187 -0.081174 2.341805152028776e-38
1.237695 0.081118 -0.081118 2.341805152028776e-38
1.238073 0.075117 -0.081126 2.341805152028776e-38
1.239419 0.069170 -0.081199 2.341805152028776e-38
1.241732 0.063262 -0.081337 2.341805152028776e-38
1.244017 0.057333 -0.081474 2.341805152028776e-38
1.246274 0.051384 -0.081610 2.341805152028776e-38
1.246508 0.045342 -0.081615 2.341805152028776e-38
1.247711 0.039330 -0.081685 2.341805152028776e-38
1.250879 0.033360 -0.081884 2.341805152028776e-38
1.251026 0.027296 -0.081888 2.341805152028776e-38
1.251143 0.021231 -0.081890 2.341805152028776e-38
1.252229 0.015177 -0.081957 2.341805152028776e-38
1.251290 0.009099 -0.081893 2.341805152028776e-38
1.255311 0.003043 -0.082155 2.341805152028776e-38
1.261298 -0.003057 -0.082547 2.341805152028776e-38
1.264262 -0.009194 -0.082742 2.341805152028776e-38
1.267196 -0.015359 -0.082937 2.341805152028776e-38
1.270100 -0.021552 -0.083131 2.341805152028776e-38
1.268983 -0.027688 -0.083063 2.341805152028776e-38
1.270829 -0.033892 -0.083190 2.341805152028776e-38
1.271647 -0.040084 -0.083252 2.341805152028776e-38
1.274430 -0.046357 -0.083443 2.341805152028776e-38
1.277182 -0.052658 -0.083634 2.341805152028776e-38
1.278906 -0.058941 -0.083758 2.341805152028776e-38
1.282592 -0.065343 -0.084013 2.341805152028776e-38
1.285249 -0.071727 -0.084202 2.341805152028776e-38
1.288871 -0.078199 -0.084455 2.341805152028776e-38
1.290469 -0.084577 -0.084577 2.341805152028776e-38
1.290044 -0.090832 -0.084567 2.341805152028776e-38
1.291579 -0.097234 -0.084688 2.341805152028776e-38
1.293083 -0.103654 -0.084808 2.341805152028776e-38
1.294554 -0.110091 -0.084927 2.341805152028776e-38
1.295994 -0.116544 -0.085046 2.341805152028776e-38
1.298395 -0.123108 -0.085229 2.341805152028776e-38
1.297784 -0.129401 -0.085215 2.341805152028776e-38
1.300120 -0.136002 -0.085397 2.341805152028776e-38
1.303414 -0.142738 -0.085643 2.341805152028776e-38
1.306673 -0.149509 -0.085888 2.341805152028776e-38
1.306925 -0.155960 -0.085937 2.341805152028776e-38
1.307145 -0.162417 -0.085986 2.341805152028776e-38
1.310302 -0.169263 -0.086229 2.341805152028776e-38
1.316390 -0.176542 -0.086666 2.341805152028776e-38
1.317497 -0.183197 -0.086777 2.341805152028776e-38
1.316594 -0.189582 -0.086758 2.341805152028776e-38
1.318622 -0.196403 -0.086932 2.341805152028776e-38
1.324560 -0.203856 -0.087367 2.341805152028776e-38
1.340311 -0.212936 -0.088451 2.341805152028776e-38
1.386533 -0.227176 -0.091549 2.341805152028776e-38
1.233367 0.220594 -0.087633 2.341805152028776e-38
1.207885 0.209997 -0.085774 2.341805152028776e-38
1.202001 0.202975 -0.085308 2.341805152028776e-38
1.199032 0.196499 -0.085052 2.341805152028776e-38
1.199969 0.190683 -0.085074 2.341805152028776e-38
1.200878 0.184862 -0.085095 2.341805152028776e-38
1.200773 0.178889 -0.085046 2.341805152028776e-38
1.204587 0.173491 -0.085275 2.341805152028776e-38
1.206400 0.167786 -0.085365 2.341805152028776e-38
1.208187 0.162067 -0.085453 2.341805152028776e-38
1.206979 0.155951 -0.085332 2.341805152028776e-38
1.207720 0.150096 -0.085349 2.341805152028776e-38
1.209423 0.144357 -0.085436 2.341805152028776e-38
1.213080 0.138831 -0.085662 2.341805152028776e-38
1.216713 0.133273 -0.085887 2.341805152028776e-38
1.219328 0.127579 -0.086042 2.341805152028776e-38
1.221917 0.121863 -0.086196 2.341805152028776e-38
1.223485 0.116031 -0.086279 2.341805152028776e-38
1.224033 0.110097 -0.086292 2.341805152028776e-38
1.226539 0.104330 -0.086444 2.341805152028776e-38
1.230013 0.098620 -0.086666 2.341805152028776e-38
1.231471 0.092730 -0.086747 2.341805152028776e-38
1.234890 0.086967 -0.086967 2.341805152028776e-38
1.236292 0.081044 -0.087047 2.341805152028776e-38
1.236670 0.075048 -0.087056 2.341805152028776e-38
1.238015 0.069106 -0.087134 2.341805152028776e-38
1.241324 0.063255 -0.087352 2.341805152028776e-38
1.243608 0.057327 -0.087499 2.341805152028776e-38
1.244868 0.051337 -0.087575 2.341805152028776e-38
1.243108 0.045228 -0.087441 2.341805152028776e-38
1.247301 0.039325 -0.087726 2.341805152028776e-38
1.248474 0.033303 -0.087800 2.341805152028776e-38
1.249617 0.027271 -0.087874 2.341805152028776e-38
1.249735 0.021212 -0.087876 2.341805152028776e-38
1.252815 0.015188 -0.088089 2.341805152028776e-38
1.252874 0.009113 -0.088090 2.341805152028776e-38
1.254898 0.003042 -0.088231 2.341805152028776e-38
1.256894 -0.003047 -0.088371 2.341805152028776e-38
1.257861 -0.009149 -0.088441 2.341805152028776e-38
1.262790 -0.015309 -0.088790 2.341805152028776e-38
1.265693 -0.021482 -0.088999 2.341805152028776e-38
1.266571 -0.027641 -0.089066 2.341805152028776e-38
1.267420 -0.033809 -0.089133 2.341805152028776e-38
1.268238 -0.039986 -0.089198 2.341805152028776e-38
1.273014 -0.046316 -0.089544 2.341805152028776e-38
1.274769 -0.052570 -0.089679 2.341805152028776e-38
1.280478 -0.059027 -0.090093 2.341805152028776e-38
1.282170 -0.065336 -0.090226 2.341805152028776e-38
1.285822 -0.071775 -0.090499 2.341805152028776e-38
1.288447 -0.078190 -0.090701 2.341805152028776e-38
1.288053 -0.084437 -0.090692 2.341805152028776e-38
1.287629 -0.090682 -0.090682 2.341805152028776e-38
1.290160 -0.097149 -0.090881 2.341805152028776e-38
1.291663 -0.103563 -0.091010 2.341805152028776e-38
1.294128 -0.110079 -0.091208 2.341805152028776e-38
1.294574 -0.116442 -0.091265 2.341805152028776e-38
1.296974 -0.123000 -0.091462 2.341805152028776e-38
1.295371 -0.129189 -0.091377 2.341805152028776e-38
1.298699 -0.135884 -0.091643 2.341805152028776e-38
1.301000 -0.142505 -0.091837 2.341805152028776e-38
1.304260 -0.149266 -0.092100 2.341805152028776e-38
1.303522 -0.155588 -0.092083 2.341805152028776e-38
1.303743 -0.162030 -0.092135 2.341805152028776e-38
1.306901 -0.168861 -0.092396 2.341805152028776e-38
1.311012 -0.175860 -0.092726 2.341805152028776e-38
1.314097 -0.182764 -0.092985 2.341805152028776e-38
1.317146 -0.189703 -0.093244 2.341805152028776e-38
1.320159 -0.196676 -0.093501 2.341805152028776e-38
1.324121 -0.203833 -0.093828 2.341805152028776e-38
1.336912 -0.212443 -0.094782 2.341805152028776e-38
1.385089 -0.226990 -0.098249 2.341805152028776e-38
1.236855 0.221270 -0.093964 2.341805152028776e-38
1.204508 0.209460 -0.091454 2.341805152028776e-38
1.197641 0.202287 -0.090883 2.341805152028776e-38
1.195654 0.195992 -0.090683 2.341805152028776e-38
1.197574 0.190347 -0.090781 2.341805152028776e-38
1.199467 0.184688 -0.090878 2.341805152028776e-38
1.201333 0.179015 -0.090975 2.341805152028776e-38
1.204159 0.173471 -0.091146 2.341805152028776e-38
1.206961 0.167904 -0.091316 2.341805152028776e-38
1.206771 0.161915 -0.091261 2.341805152028776e-38
1.207541 0.156060 -0.091281 2.341805152028776e-38
1.209271 0.150325 -0.091374 2.341805152028776e-38
1.211965 0.144694 -0.091541 2.341805152028776e-38
1.212651 0.138814 -0.091558 2.341805152028776e-38
1.217274 0.133366 -0.091874 2.341805152028776e-38
1.219889 0.127668 -0.092040 2.341805152028776e-38
1.221485 0.121849 -0.092130 2.341805152028776e-38
1.224046 0.116112 -0.092294 2.341805152028776e-38
1.225587 0.110263 -0.092382 2.341805152028776e-38
1.225113 0.104233 -0.092320 2.341805152028776e-38
1.227591 0.098449 -0.092483 2.341805152028776e-38
1.232031 0.092794 -0.092794 2.341805152028776e-38
1.235450 0.087027 -0.093029 2.341805152028776e-38
1.236851 0.081100 -0.093114 2.341805152028776e-38
1.237230 0.075100 -0.093124 2.341805152028776e-38
1.239570 0.069210 -0.093282 2.341805152028776e-38
1.241882 0.063298 -0.093440 2.341805152028776e-38
1.241178 0.057228 -0.093373 2.341805152028776e-38
1.241440 0.051208 -0.093379 2.341805152028776e-38
1.242670 0.045223 -0.093460 2.341805152028776e-38
1.246861 0.039321 -0.093765 2.341805152028776e-38
1.246040 0.033246 -0.093694 2.341805152028776e-38
1.248180 0.027246 -0.093848 2.341805152028776e-38
1.251289 0.021243 -0.094076 2.341805152028776e-38
1.253371 0.015198 -0.094228 2.341805152028776e-38
1.254427 0.009126 -0.094304 2.341805152028776e-38
1.254457 0.003042 -0.094305 2.341805152028776e-38
1.253459 -0.003040 -0.094230 2.341805152028776e-38
1.256421 -0.009141 -0.094454 2.341805152028776e-38
1.262345 -0.015307 -0.094903 2.341805152028776e-38
1.267241 -0.021514 -0.095275 2.341805152028776e-38
1.265128 -0.027616 -0.095122 2.341805152028776e-38
1.267970 -0.033832 -0.095343 2.341805152028776e-38
1.269785 -0.040044 -0.095489 2.341805152028776e-38
1.273563 -0.046347 -0.095783 2.341805152028776e-38
1.275316 -0.052605 -0.095927 2.341805152028776e-38
1.278035 -0.058928 -0.096145 2.341805152028776e-38
1.281718 -0.065329 -0.096438 2.341805152028776e-38
1.283378 -0.071655 -0.096579 2.341805152028776e-38
1.285007 -0.078000 -0.096720 2.341805152028776e-38
1.287599 -0.084427 -0.096935 2.341805152028776e-38
1.288170 -0.090741 -0.096999 2.341805152028776e-38
1.288710 -0.097063 -0.097063 2.341805152028776e-38
1.291207 -0.103551 -0.097275 2.341805152028776e-38
1.295659 -0.110235 -0.097637 2.341805152028776e-38
1.295110 -0.116518 -0.097623 2.341805152028776e-38
1.295523 -0.122892 -0.097683 2.341805152028776e-38
1.294913 -0.129174 -0.097668 2.341805152028776e-38
1.298240 -0.135868 -0.097951 2.341805152028776e-38
1.298558 -0.142271 -0.098009 2.341805152028776e-38
1.301817 -0.149021 -0.098291 2.341805152028776e-38
1.303061 -0.155570 -0.098422 2.341805152028776e-38
1.301303 -0.161765 -0.098328 2.341805152028776e-38
1.305449 -0.168714 -0.098682 2.341805152028776e-38
1.311536 -0.175972 -0.099184 2.341805152028776e-38
1.315607 -0.183018 -0.099536 2.341805152028776e-38
1.316679 -0.189681 -0.099663 2.341805152028776e-38
1.317718 -0.196358 -0.099789 2.341805152028776e-38
1.320695 -0.203354 -0.100063 2.341805152028776e-38
1.335452 -0.212262 -0.101233 2.341805152028776e-38
1.385581 -0.227125 -0.105088 2.341805152028776e-38
1.270729 0.227388 -0.102792 2.341805152028776e-38
1.227621 0.213534 -0.099248 2.341805152028776e-38
1.203084 0.203258 -0.097210 2.341805152028776e-38
1.194217 0.195806 -0.096442 2.341805152028776e-38
1.195151 0.190010 -0.096467 2.341805152028776e-38
1.196057 0.184210 -0.096491 2.341805152028776e-38
1.199893 0.178846 -0.096753 2.341805152028776e-38
1.201731 0.173165 -0.096855 2.341805152028776e-38
1.202555 0.167333 -0.096877 2.341805152028776e-38
1.202363 0.161364 -0.096819 2.341805152028776e-38
1.206096 0.155913 -0.097078 2.341805152028776e-38
1.206836 0.150060 -0.097098 2.341805152028776e-38
1.209528 0.144440 -0.097276 2.341805152028776e-38
1.210213 0.138570 -0.097294 2.341805152028776e-38
1.213843 0.133023 -0.097550 2.341805152028776e-38
1.216455 0.127341 -0.097727 2.341805152028776e-38
1.219041 0.121636 -0.097902 2.341805152028776e-38
1.219616 0.115720 -0.097917 2.341805152028776e-38
1.220161 0.109802 -0.097932 2.341805152028776e-38
1.222665 0.104051 -0.098105 2.341805152028776e-38
1.227129 0.098437 -0.098437 2.341805152028776e-38
1.231567 0.092782 -0.098768 2.341805152028776e-38
1.232002 0.086806 -0.098780 2.341805152028776e-38
1.233402 0.080894 -0.098870 2.341805152028776e-38
1.235769 0.075030 -0.099040 2.341805152028776e-38
1.236118 0.069034 -0.099049 2.341805152028776e-38
