VERSION .7
FIELDS x y z rgb
SIZE 4 4 4 4
TYPE F F F F
COUNT 1 1 1 1
WIDTH 938
HEIGHT 1
VIEWPOINT 0 0 0 1 0 0 0
POINTS 938
DATA ascii
0.993487 -0.839299 -0.034067 2.341805152028776e-38
0.995278 -0.851085 -0.034293 2.341805152028776e-38
0.990159 -0.857035 -0.034281 2.341805152028776e-38
0.987261 -0.864930 -0.034347 2.341805152028776e-38
0.984304 -0.872822 -0.034412 2.341805152028776e-38
0.980506 -0.880082 -0.034452 2.341805152028776e-38
0.978112 -0.888700 -0.034543 2.341805152028776e-38
0.975649 -0.897321 -0.034633 2.341805152028776e-38
0.975313 -0.907988 -0.034801 2.341805152028776e-38
0.971245 -0.915256 -0.034837 2.341805152028776e-38
0.965640 -0.921169 -0.034821 2.341805152028776e-38
0.960692 -0.927769 -0.034831 2.341805152028776e-38
0.957843 -0.936439 -0.034918 2.341805152028776e-38
0.955635 -0.945812 -0.035030 2.341805152028776e-38
0.954054 -0.955900 -0.035167 2.341805152028776e-38
0.951643 -0.965333 -0.035278 2.341805152028776e-38
0.949821 -0.975515 -0.035415 2.341805152028776e-38
0.948603 -0.986432 -0.035576 2.341805152028776e-38
0.946597 -0.996646 -0.035710 2.341805152028776e-38
0.943133 -1.005415 -0.035791 2.341805152028776e-38
0.940913 -1.015685 -0.035925 2.341805152028776e-38
0.939922 -1.027468 -0.036109 2.341805152028776e-38
0.940161 -1.040762 -0.036344 2.341805152028776e-38
0.934945 -1.048131 -0.036370 2.341805152028776e-38
0.915138 -1.038973 -0.035827 2.341805152028776e-38
1.108212 -0.631246 -0.039643 2.341805152028776e-38
1.084808 -0.625848 -0.038928 2.341805152028776e-38
1.082179 -0.632367 -0.038961 2.341805152028776e-38
1.079497 -0.638898 -0.038994 2.341805152028776e-38
1.073347 -0.643363 -0.038901 2.341805152028776e-38
1.068890 -0.648817 -0.038869 2.341805152028776e-38
1.063554 -0.653719 -0.038805 2.341805152028776e-38
1.056468 -0.657575 -0.038681 2.341805152028776e-38
1.052740 -0.663527 -0.038681 2.341805152028776e-38
1.049820 -0.669996 -0.038711 2.341805152028776e-38
1.046862 -0.676453 -0.038740 2.341805152028776e-38
1.045537 -0.683992 -0.038829 2.341805152028776e-38
1.041627 -0.689932 -0.038827 2.341805152028776e-38
1.039328 -0.696985 -0.038888 2.341805152028776e-38
1.036156 -0.703474 -0.038916 2.341805152028776e-38
1.034591 -0.711081 -0.039004 2.341805152028776e-38
1.032972 -0.718694 -0.039092 2.341805152028776e-38
1.030449 -0.725784 -0.039150 2.341805152028776e-38
1.028676 -0.733472 -0.039239 2.341805152028776e-38
1.024417 -0.739410 -0.039234 2.341805152028776e-38
1.022545 -0.747091 -0.039321 2.341805152028776e-38
1.020618 -0.754776 -0.039406 2.341805152028776e-38
1.019401 -0.763109 -0.039524 2.341805152028776e-38
1.017307 -0.770875 -0.039610 2.341805152028776e-38
1.015156 -0.778641 -0.039695 2.341805152028776e-38
1.012160 -0.785796 -0.039748 2.341805152028776e-38
1.009901 -0.793560 -0.039831 2.341805152028776e-38
1.006767 -0.800749 -0.039884 2.341805152028776e-38
1.004342 -0.808579 -0.039968 2.341805152028776e-38
1.001085 -0.815777 -0.040019 2.341805152028776e-38
0.997006 -0.822329 -0.040038 2.341805152028776e-38
0.993653 -0.829501 -0.040087 2.341805152028776e-38
0.992501 -0.838643 -0.040230 2.341805152028776e-38
0.989736 -0.846526 -0.040311 2.341805152028776e-38
0.987668 -0.855060 -0.040421 2.341805152028776e-38
0.984030 -0.862281 -0.040468 2.341805152028776e-38
0.981088 -0.870153 -0.040545 2.341805152028776e-38
0.977303 -0.877398 -0.040591 2.341805152028776e-38
0.974925 -0.885996 -0.040699 2.341805152028776e-38
0.971742 -0.893921 -0.040775 2.341805152028776e-38
0.969962 -0.903203 -0.040912 2.341805152028776e-38
0.964469 -0.909068 -0.040892 2.341805152028776e-38
0.960345 -0.916322 -0.040935 2.341805152028776e-38
0.956145 -0.923584 -0.040978 2.341805152028776e-38
0.955466 -0.934323 -0.041174 2.341805152028776e-38
0.952559 -0.942978 -0.041275 2.341805152028776e-38
0.951701 -0.953756 -0.041468 2.341805152028776e-38
0.947896 -0.961753 -0.041538 2.341805152028776e-38
0.946793 -0.972628 -0.041730 2.341805152028776e-38
0.944206 -0.982085 -0.041859 2.341805152028776e-38
0.941538 -0.991548 -0.041987 2.341805152028776e-38
0.938105 -1.000286 -0.042083 2.341805152028776e-38
0.937272 -1.011994 -0.042302 2.341805152028776e-38
0.934279 -1.021542 -0.042428 2.341805152028776e-38
0.932543 -1.032575 -0.042614 2.341805152028776e-38
0.927378 -1.039897 -0.042646 2.341805152028776e-38
0.922820 -1.047945 -0.042706 2.341805152028776e-38
1.111450 -0.633225 -0.045886 2.341805152028776e-38
1.085443 -0.626346 -0.044953 2.341805152028776e-38
1.081945 -0.632369 -0.044955 2.341805152028776e-38
1.079263 -0.638899 -0.044993 2.341805152028776e-38
1.073114 -0.643363 -0.044886 2.341805152028776e-38
1.068657 -0.648816 -0.044849 2.341805152028776e-38
1.062470 -0.653193 -0.044739 2.341805152028776e-38
1.057929 -0.658632 -0.044704 2.341805152028776e-38
1.053350 -0.664060 -0.044668 2.341805152028776e-38
1.049585 -0.669994 -0.044666 2.341805152028776e-38
1.047466 -0.676992 -0.044735 2.341805152028776e-38
1.044465 -0.683440 -0.044767 2.341805152028776e-38
1.039722 -0.688826 -0.044729 2.341805152028776e-38
1.036599 -0.695313 -0.044763 2.341805152028776e-38
1.035916 -0.703470 -0.044902 2.341805152028776e-38
1.035174 -0.711642 -0.045041 2.341805152028776e-38
1.032732 -0.718687 -0.045106 2.341805152028776e-38
1.030206 -0.725780 -0.045173 2.341805152028776e-38
1.029245 -0.734047 -0.045312 2.341805152028776e-38
1.026603 -0.741158 -0.045377 2.341805152028776e-38
1.023914 -0.748263 -0.045441 2.341805152028776e-38
1.021176 -0.755361 -0.045504 2.341805152028776e-38
1.019952 -0.763702 -0.045640 2.341805152028776e-38
1.017057 -0.770867 -0.045704 2.341805152028776e-38
1.014906 -0.778632 -0.045802 2.341805152028776e-38
1.011910 -0.785786 -0.045863 2.341805152028776e-38
1.008865 -0.792931 -0.045923 2.341805152028776e-38
1.005730 -0.800118 -0.045984 2.341805152028776e-38
1.003309 -0.807941 -0.046080 2.341805152028776e-38
0.998506 -0.813871 -0.046068 2.341805152028776e-38
0.995980 -0.821679 -0.046162 2.341805152028776e-38
0.994164 -0.830127 -0.046290 2.341805152028776e-38
0.992242 -0.838631 -0.046419 2.341805152028776e-38
0.987957 -0.845213 -0.046440 2.341805152028776e-38
0.985141 -0.853082 -0.046532 2.341805152028776e-38
0.983017 -0.861606 -0.046657 2.341805152028776e-38
0.980826 -0.870135 -0.046781 2.341805152028776e-38
0.978525 -0.878717 -0.046907 2.341805152028776e-38
0.974659 -0.885979 -0.046960 2.341805152028776e-38
0.972211 -0.894579 -0.047083 2.341805152028776e-38
0.968964 -0.902502 -0.047169 2.341805152028776e-38
0.964202 -0.909046 -0.047182 2.341805152028776e-38
0.961520 -0.917683 -0.047303 2.341805152028776e-38
0.958031 -0.925646 -0.047388 2.341805152028776e-38
0.955908 -0.934999 -0.047542 2.341805152028776e-38
0.953707 -0.944361 -0.047695 2.341805152028776e-38
0.952133 -0.954438 -0.047882 2.341805152028776e-38
0.949021 -0.963153 -0.047998 2.341805152028776e-38
0.947211 -0.973319 -0.048184 2.341805152028776e-38
0.943926 -0.982059 -0.048298 2.341805152028776e-38
0.941257 -0.991520 -0.048446 2.341805152028776e-38
0.937824 -1.000256 -0.048556 2.341805152028776e-38
0.933591 -1.008299 -0.048632 2.341805152028776e-38
0.931295 -1.018562 -0.048813 2.341805152028776e-38
0.928906 -1.028835 -0.048992 2.341805152028776e-38
0.924430 -1.036881 -0.049064 2.341805152028776e-38
0.924512 -1.050161 -0.049381 2.341805152028776e-38
1.111181 -0.633224 -0.052004 2.341805152028776e-38
1.083448 -0.625346 -0.050865 2.341805152028776e-38
1.078227 -0.630355 -0.050787 2.341805152028776e-38
1.075557 -0.636864 -0.050829 2.341805152028776e-38
1.070276 -0.641821 -0.050749 2.341805152028776e-38
1.065828 -0.647258 -0.050707 2.341805152028776e-38
1.061353 -0.652666 -0.050664 2.341805152028776e-38
1.055964 -0.657577 -0.050583 2.341805152028776e-38
1.051391 -0.662993 -0.050542 2.341805152028776e-38
1.050158 -0.670529 -0.050662 2.341805152028776e-38
1.053909 -0.681328 -0.051025 2.341805152028776e-38
1.050047 -0.687265 -0.051020 2.341805152028776e-38
1.041948 -0.690481 -0.050815 2.341805152028776e-38
1.035497 -0.694753 -0.050690 2.341805152028776e-38
1.033990 -0.702342 -0.050808 2.341805152028776e-38
1.032430 -0.709938 -0.050924 2.341805152028776e-38
1.030817 -0.717538 -0.051038 2.341805152028776e-38
1.028293 -0.724625 -0.051115 2.341805152028776e-38
1.026526 -0.732301 -0.051231 2.341805152028776e-38
1.023083 -0.738811 -0.051264 2.341805152028776e-38
1.020407 -0.745895 -0.051337 2.341805152028776e-38
1.016879 -0.752379 -0.051367 2.341805152028776e-38
1.015668 -0.760700 -0.051522 2.341805152028776e-38
1.013587 -0.768443 -0.051635 2.341805152028776e-38
1.012242 -0.776797 -0.051786 2.341805152028776e-38
1.010045 -0.784548 -0.051896 2.341805152028776e-38
1.007792 -0.792300 -0.052004 2.341805152028776e-38
1.003876 -0.798863 -0.052033 2.341805152028776e-38
1.001461 -0.806676 -0.052143 2.341805152028776e-38
0.997440 -0.813226 -0.052169 2.341805152028776e-38
0.995688 -0.821664 -0.052316 2.341805152028776e-38
0.993105 -0.829470 -0.052420 2.341805152028776e-38
0.990419 -0.837326 -0.052526 2.341805152028776e-38
0.986142 -0.843898 -0.052550 2.341805152028776e-38
0.984088 -0.852410 -0.052694 2.341805152028776e-38
0.981967 -0.860928 -0.052837 2.341805152028776e-38
0.979780 -0.869452 -0.052977 2.341805152028776e-38
0.975992 -0.876696 -0.053039 2.341805152028776e-38
0.972877 -0.884615 -0.053139 2.341805152028776e-38
0.969701 -0.892528 -0.053239 2.341805152028776e-38
0.965735 -0.899754 -0.053296 2.341805152028776e-38
0.962443 -0.907651 -0.053391 2.341805152028776e-38
0.961211 -0.917660 -0.053609 2.341805152028776e-38
0.958439 -0.926316 -0.053745 2.341805152028776e-38
0.957026 -0.936371 -0.053960 2.341805152028776e-38
0.952685 -0.943630 -0.054012 2.341805152028776e-38
0.951114 -0.953701 -0.054224 2.341805152028776e-38
0.946600 -0.960990 -0.054275 2.341805152028776e-38
0.944802 -0.971142 -0.054486 2.341805152028776e-38
0.941530 -0.979867 -0.054616 2.341805152028776e-38
0.939561 -0.990038 -0.054823 2.341805152028776e-38
0.935453 -0.998035 -0.054908 2.341805152028776e-38
0.930551 -1.005334 -0.054954 2.341805152028776e-38
0.927598 -1.014840 -0.055119 2.341805152028776e-38
0.925231 -1.025091 -0.055322 2.341805152028776e-38
0.920778 -1.033113 -0.055404 2.341805152028776e-38
0.910979 -1.035120 -0.055163 2.341805152028776e-38
1.110010 -0.632730 -0.058077 2.341805152028776e-38
1.083151 -0.625344 -0.056849 2.341805152028776e-38
1.077927 -0.630358 -0.056762 2.341805152028776e-38
1.072678 -0.635338 -0.056673 2.341805152028776e-38
1.070833 -0.642335 -0.056764 2.341805152028776e-38
1.067236 -0.648293 -0.056763 2.341805152028776e-38
1.061054 -0.652662 -0.056624 2.341805152028776e-38
1.058205 -0.659162 -0.056670 2.341805152028776e-38
1.052778 -0.664058 -0.056579 2.341805152028776e-38
1.056591 -0.674828 -0.056986 2.341805152028776e-38
1.059476 -0.685121 -0.057345 2.341805152028776e-38
1.048071 -0.686165 -0.056931 2.341805152028776e-38
1.042473 -0.691031 -0.056838 2.341805152028776e-38
1.036849 -0.695862 -0.056744 2.341805152028776e-38
1.034509 -0.702898 -0.056830 2.341805152028776e-38
1.032122 -0.709930 -0.056914 2.341805152028776e-38
1.029688 -0.716958 -0.056997 2.341805152028776e-38
1.026347 -0.723469 -0.057037 2.341805152028776e-38
1.026212 -0.732294 -0.057258 2.341805152028776e-38
1.022769 -0.738802 -0.057295 2.341805152028776e-38
1.017673 -0.744116 -0.057240 2.341805152028776e-38
1.011747 -0.748802 -0.057137 2.341805152028776e-38
1.008153 -0.755301 -0.057174 2.341805152028776e-38
1.010879 -0.766622 -0.057572 2.341805152028776e-38
1.012714 -0.777393 -0.057923 2.341805152028776e-38
1.012090 -0.786373 -0.058137 2.341805152028776e-38
1.008255 -0.792902 -0.058167 2.341805152028776e-38
1.005113 -0.800095 -0.058244 2.341805152028776e-38
1.001912 -0.807289 -0.058321 2.341805152028776e-38
0.999435 -0.815104 -0.058441 2.341805152028776e-38
0.997672 -0.823554 -0.058605 2.341805152028776e-38
0.995076 -0.831372 -0.058721 2.341805152028776e-38
0.990086 -0.837310 -0.058704 2.341805152028776e-38
0.987327 -0.845179 -0.058822 2.341805152028776e-38
0.984509 -0.853044 -0.058938 2.341805152028776e-38
0.981632 -0.860907 -0.059051 2.341805152028776e-38
0.978697 -0.868765 -0.059163 2.341805152028776e-38
0.975652 -0.876675 -0.059277 2.341805152028776e-38
0.972536 -0.884592 -0.059390 2.341805152028776e-38
0.968625 -0.891827 -0.059455 2.341805152028776e-38
0.966123 -0.900409 -0.059609 2.341805152028776e-38
0.964280 -0.909679 -0.059806 2.341805152028776e-38
0.963030 -0.919704 -0.060049 2.341805152028776e-38
0.959526 -0.927678 -0.060157 2.341805152028776e-38
0.956675 -0.936342 -0.060307 2.341805152028776e-38
0.953754 -0.945005 -0.060455 2.341805152028776e-38
0.950056 -0.952961 -0.060556 2.341805152028776e-38
0.946945 -0.961671 -0.060704 2.341805152028776e-38
0.944444 -0.971109 -0.060895 2.341805152028776e-38
0.941863 -0.980553 -0.061084 2.341805152028776e-38
0.939889 -0.990726 -0.061315 2.341805152028776e-38
0.934409 -0.997268 -0.061321 2.341805152028776e-38
0.929507 -1.004564 -0.061372 2.341805152028776e-38
0.927231 -1.014802 -0.061601 2.341805152028776e-38
0.924864 -1.025051 -0.061828 2.341805152028776e-38
0.918416 -1.030834 -0.061785 2.341805152028776e-38
0.906654 -1.030576 -0.061382 2.341805152028776e-38
1.107070 -0.631245 -0.064039 2.341805152028776e-38
1.080226 -0.623845 -0.062683 2.341805152028776e-38
1.075008 -0.628848 -0.062587 2.341805152028776e-38
1.073205 -0.635848 -0.062689 2.341805152028776e-38
1.070500 -0.642334 -0.062740 2.341805152028776e-38
1.065196 -0.647254 -0.062637 2.341805152028776e-38
1.061572 -0.653182 -0.062634 2.341805152028776e-38
1.057869 -0.659162 -0.062635 2.341805152028776e-38
1.054976 -0.665655 -0.062685 2.341805152028776e-38
1.054569 -0.673750 -0.062883 2.341805152028776e-38
1.052427 -0.680776 -0.062979 2.341805152028776e-38
1.045226 -0.684517 -0.062772 2.341805152028776e-38
1.039634 -0.689372 -0.062670 2.341805152028776e-38
1.035678 -0.695301 -0.062667 2.341805152028776e-38
1.032515 -0.701769 -0.062711 2.341805152028776e-38
1.028488 -0.707658 -0.062704 2.341805152028776e-38
1.026887 -0.715236 -0.062845 2.341805152028776e-38
1.026000 -0.723463 -0.063040 2.341805152028776e-38
1.024238 -0.731126 -0.063184 2.341805152028776e-38
1.021611 -0.738208 -0.063275 2.341805152028776e-38
1.013294 -0.741157 -0.063013 2.341805152028776e-38
1.007385 -0.745817 -0.062900 2.341805152028776e-38
1.010998 -0.757687 -0.063392 2.341805152028776e-38
1.013707 -0.769025 -0.063832 2.341805152028776e-38
1.012357 -0.777380 -0.064020 2.341805152028776e-38
1.008578 -0.783906 -0.064055 2.341805152028776e-38
1.006327 -0.791650 -0.064188 2.341805152028776e-38
1.003187 -0.798837 -0.064274 2.341805152028776e-38
1.001548 -0.807273 -0.064459 2.341805152028776e-38
0.999071 -0.815087 -0.064592 2.341805152028776e-38
0.995766 -0.822263 -0.064672 2.341805152028776e-38
0.992411 -0.829429 -0.064751 2.341805152028776e-38
0.988190 -0.836002 -0.064782 2.341805152028776e-38
0.984680 -0.843210 -0.064862 2.341805152028776e-38
0.981118 -0.850406 -0.064940 2.341805152028776e-38
0.979007 -0.858907 -0.065116 2.341805152028776e-38
0.976830 -0.867413 -0.065289 2.341805152028776e-38
0.975273 -0.876652 -0.065515 2.341805152028776e-38
0.972157 -0.884567 -0.065639 2.341805152028776e-38
0.968245 -0.891800 -0.065712 2.341805152028776e-38
0.966473 -0.901061 -0.065931 2.341805152028776e-38
0.963172 -0.908963 -0.066049 2.341805152028776e-38
0.960476 -0.917606 -0.066219 2.341805152028776e-38
0.956266 -0.924870 -0.066288 2.341805152028776e-38
0.954859 -0.934912 -0.066553 2.341805152028776e-38
0.951945 -0.943565 -0.066717 2.341805152028776e-38
0.948961 -0.952217 -0.066878 2.341805152028776e-38
0.944447 -0.959502 -0.066942 2.341805152028776e-38
0.941958 -0.968924 -0.067153 2.341805152028776e-38
0.939389 -0.978353 -0.067362 2.341805152028776e-38
0.938114 -0.989236 -0.067668 2.341805152028776e-38
0.931961 -0.995039 -0.067624 2.341805152028776e-38
0.927068 -1.002324 -0.067681 2.341805152028776e-38
0.924804 -1.012547 -0.067934 2.341805152028776e-38
0.921780 -1.022039 -0.068136 2.341805152028776e-38
0.919337 -1.032279 -0.068384 2.341805152028776e-38
0.918121 -1.044028 -0.068729 2.341805152028776e-38
1.101497 -0.628276 -0.069808 2.341805152028776e-38
1.078131 -0.622851 -0.068543 2.341805152028776e-38
1.076366 -0.629859 -0.068658 2.341805152028776e-38
1.071121 -0.634831 -0.068550 2.341805152028776e-38
1.067566 -0.640791 -0.068550 2.341805152028776e-38
1.064831 -0.647251 -0.068603 2.341805152028776e-38
1.062052 -0.653708 -0.068654 2.341805152028776e-38
1.059193 -0.660219 -0.068711 2.341805152028776e-38
1.053761 -0.665121 -0.068600 2.341805152028776e-38
1.053356 -0.673208 -0.068817 2.341805152028776e-38
1.047863 -0.678058 -0.068702 2.341805152028776e-38
1.043181 -0.683420 -0.068640 2.341805152028776e-38
1.040091 -0.689921 -0.068693 2.341805152028776e-38
1.034474 -0.694740 -0.068579 2.341805152028776e-38
1.031314 -0.701201 -0.068628 2.341805152028776e-38
1.028113 -0.707649 -0.068675 2.341805152028776e-38
1.027327 -0.715800 -0.068884 2.341805152028776e-38
1.026434 -0.724032 -0.069098 2.341805152028776e-38
1.024667 -0.731698 -0.069255 2.341805152028776e-38
1.020419 -0.737612 -0.069245 2.341805152028776e-38
1.013718 -0.741734 -0.069068 2.341805152028776e-38
1.015027 -0.751747 -0.069439 2.341805152028776e-38
1.017000 -0.762468 -0.069868 2.341805152028776e-38
1.014111 -0.769616 -0.069965 2.341805152028776e-38
1.011964 -0.777365 -0.070115 2.341805152028776e-38
1.007397 -0.783276 -0.070099 2.341805152028776e-38
1.005933 -0.791632 -0.070299 2.341805152028776e-38
1.003569 -0.799444 -0.070449 2.341805152028776e-38
1.001148 -0.807256 -0.070597 2.341805152028776e-38
0.997897 -0.814436 -0.070687 2.341805152028776e-38
0.994595 -0.821606 -0.070775 2.341805152028776e-38
0.992009 -0.829406 -0.070916 2.341805152028776e-38
0.987021 -0.835337 -0.070896 2.341805152028776e-38
0.981239 -0.840589 -0.070819 2.341805152028776e-38
0.979202 -0.849073 -0.071013 2.341805152028776e-38
0.977098 -0.857563 -0.071206 2.341805152028776e-38
0.977166 -0.868047 -0.071559 2.341805152028776e-38
0.976342 -0.877962 -0.071862 2.341805152028776e-38
0.972478 -0.885212 -0.071943 2.341805152028776e-38
0.968562 -0.892447 -0.072022 2.341805152028776e-38
0.966055 -0.901029 -0.072208 2.341805152028776e-38
0.962026 -0.908243 -0.072282 2.341805152028776e-38
0.960050 -0.917575 -0.072523 2.341805152028776e-38
0.955841 -0.924836 -0.072598 2.341805152028776e-38
0.953004 -0.933478 -0.072780 2.341805152028776e-38
0.950098 -0.942120 -0.072959 2.341805152028776e-38
0.947826 -0.951469 -0.073190 2.341805152028776e-38
0.944712 -0.960176 -0.073369 2.341805152028776e-38
0.942914 -0.970316 -0.073654 2.341805152028776e-38
0.938952 -0.978310 -0.073774 2.341805152028776e-38
0.934927 -0.986293 -0.073892 2.341805152028776e-38
0.928109 -0.991347 -0.073790 2.341805152028776e-38
0.924589 -1.000080 -0.073961 2.341805152028776e-38
0.923011 -1.011025 -0.074293 2.341805152028776e-38
0.922001 -1.022731 -0.074676 2.341805152028776e-38
0.917560 -1.030735 -0.074785 2.341805152028776e-38
0.918328 -1.044724 -0.075325 2.341805152028776e-38
1.099362 -0.627286 -0.075759 2.341805152028776e-38
1.077732 -0.622857 -0.074504 2.341805152028776e-38
1.071660 -0.627341 -0.074330 2.341805152028776e-38
1.065570 -0.631777 -0.074152 2.341805152028776e-38
1.063744 -0.638735 -0.074271 2.341805152028776e-38
1.061873 -0.645692 -0.074388 2.341805152028776e-38
1.059098 -0.652140 -0.074445 2.341805152028776e-38
1.054553 -0.657578 -0.074387 2.341805152028776e-38
1.051669 -0.664053 -0.074445 2.341805152028776e-38
1.047064 -0.669440 -0.074382 2.341805152028776e-38
1.043269 -0.675339 -0.074377 2.341805152028776e-38
1.040267 -0.681778 -0.074430 2.341805152028776e-38
1.037186 -0.688262 -0.074487 2.341805152028776e-38
1.032408 -0.693621 -0.074423 2.341805152028776e-38
1.030905 -0.701194 -0.074595 2.341805152028776e-38
1.026881 -0.707073 -0.074586 2.341805152028776e-38
1.026093 -0.715224 -0.074814 2.341805152028776e-38
1.024386 -0.722874 -0.074987 2.341805152028776e-38
1.022625 -0.730528 -0.075157 2.341805152028776e-38
1.019192 -0.737016 -0.075206 2.341805152028776e-38
1.015718 -0.743489 -0.075252 2.341805152028776e-38
1.014603 -0.751738 -0.075476 2.341805152028776e-38
1.014178 -0.760660 -0.075763 2.341805152028776e-38
1.011298 -0.767792 -0.075869 2.341805152028776e-38
1.010744 -0.776740 -0.076151 2.341805152028776e-38
1.006969 -0.783258 -0.076192 2.341805152028776e-38
1.004714 -0.791000 -0.076351 2.341805152028776e-38
1.001573 -0.798183 -0.076454 2.341805152028776e-38
0.999158 -0.805983 -0.076614 2.341805152028776e-38
0.995913 -0.813152 -0.076712 2.341805152028776e-38
0.992618 -0.820310 -0.076808 2.341805152028776e-38
0.990035 -0.828104 -0.076961 2.341805152028776e-38
0.989625 -0.837895 -0.077297 2.341805152028776e-38
0.988376 -0.847061 -0.077570 2.341805152028776e-38
0.983282 -0.852971 -0.077543 2.341805152028776e-38
0.976652 -0.857534 -0.077395 2.341805152028776e-38
0.975223 -0.866694 -0.077661 2.341805152028776e-38
0.972177 -0.874596 -0.077811 2.341805152028776e-38
0.969071 -0.882493 -0.077959 2.341805152028776e-38
0.966639 -0.891061 -0.078163 2.341805152028776e-38
0.964138 -0.899632 -0.078365 2.341805152028776e-38
0.960841 -0.907523 -0.078505 2.341805152028776e-38
0.956700 -0.914781 -0.078589 2.341805152028776e-38
0.953942 -0.923411 -0.078789 2.341805152028776e-38
0.953252 -0.934138 -0.079164 2.341805152028776e-38
0.950340 -0.942782 -0.079359 2.341805152028776e-38
0.946652 -0.950719 -0.079492 2.341805152028776e-38
0.944237 -0.960134 -0.079745 2.341805152028776e-38
0.941046 -0.968840 -0.079937 2.341805152028776e-38
0.936401 -0.976103 -0.080008 2.341805152028776e-38
0.934448 -0.986244 -0.080313 2.341805152028776e-38
0.928313 -0.992025 -0.080261 2.341805152028776e-38
0.926815 -1.002964 -0.080624 2.341805152028776e-38
0.922525 -1.010974 -0.080749 2.341805152028776e-38
0.919507 -1.020452 -0.080988 2.341805152028776e-38
0.915079 -1.028442 -0.081107 2.341805152028776e-38
0.904658 -1.029666 -0.080695 2.341805152028776e-38
1.099795 -0.627779 -0.081884 2.341805152028776e-38
1.076437 -0.622363 -0.080401 2.341805152028776e-38
1.070368 -0.626840 -0.080212 2.341805152028776e-38
1.066857 -0.632796 -0.080214 2.341805152028776e-38
1.064169 -0.639247 -0.080278 2.341805152028776e-38
1.062294 -0.646206 -0.080404 2.341805152028776e-38
1.059510 -0.652666 -0.080466 2.341805152028776e-38
1.056656 -0.659163 -0.080531 2.341805152028776e-38
1.051232 -0.664050 -0.080401 2.341805152028776e-38
1.047468 -0.669973 -0.080397 2.341805152028776e-38
1.043670 -0.675875 -0.080390 2.341805152028776e-38
1.040659 -0.682324 -0.080449 2.341805152028776e-38
1.036744 -0.688259 -0.080446 2.341805152028776e-38
1.035279 -0.695842 -0.080634 2.341805152028776e-38
1.032111 -0.702308 -0.080691 2.341805152028776e-38
1.028904 -0.708761 -0.080745 2.341805152028776e-38
1.026461 -0.715789 -0.080863 2.341805152028776e-38
1.023935 -0.722866 -0.080985 2.341805152028776e-38
1.022985 -0.731097 -0.081233 2.341805152028776e-38
1.020357 -0.738173 -0.081350 2.341805152028776e-38
1.016070 -0.744063 -0.081335 2.341805152028776e-38
1.014143 -0.751728 -0.081513 2.341805152028776e-38
1.012918 -0.760048 -0.081758 2.341805152028776e-38
1.011631 -0.768380 -0.082001 2.341805152028776e-38
1.009490 -0.776114 -0.082177 2.341805152028776e-38
1.008080 -0.784463 -0.082414 2.341805152028776e-38
1.004244 -0.790984 -0.082458 2.341805152028776e-38
1.001102 -0.798165 -0.082569 2.341805152028776e-38
0.997910 -0.805336 -0.082677 2.341805152028776e-38
0.994668 -0.812497 -0.082783 2.341805152028776e-38
0.992914 -0.820921 -0.083014 2.341805152028776e-38
0.992616 -0.830645 -0.083373 2.341805152028776e-38
0.996758 -0.844321 -0.084121 2.341805152028776e-38
0.990165 -0.848983 -0.083965 2.341805152028776e-38
0.985060 -0.854904 -0.083936 2.341805152028776e-38
0.979169 -0.860137 -0.083840 2.341805152028776e-38
0.974733 -0.866666 -0.083871 2.341805152028776e-38
0.970945 -0.873898 -0.083969 2.341805152028776e-38
0.967842 -0.881787 -0.084128 2.341805152028776e-38
0.966146 -0.891025 -0.084413 2.341805152028776e-38
0.962915 -0.898913 -0.084567 2.341805152028776e-38
0.959615 -0.906803 -0.084719 2.341805152028776e-38
0.953315 -0.911984 -0.084617 2.341805152028776e-38
0.954873 -0.924759 -0.085217 2.341805152028776e-38
0.958448 -0.939684 -0.086005 2.341805152028776e-38
0.956209 -0.949063 -0.086278 2.341805152028776e-38
0.947547 -0.952092 -0.085975 2.341805152028776e-38
0.941624 -0.957954 -0.085929 2.341805152028776e-38
0.939140 -0.967361 -0.086200 2.341805152028776e-38
0.935885 -0.976053 -0.086405 2.341805152028776e-38
0.935989 -0.988365 -0.086925 2.341805152028776e-38
0.929835 -0.994162 -0.086868 2.341805152028776e-38
0.924935 -1.001445 -0.086942 2.341805152028776e-38
0.922671 -1.011656 -0.087267 2.341805152028776e-38
0.919647 -1.021136 -0.087526 2.341805152028776e-38
0.915877 -1.029872 -0.087718 2.341805152028776e-38
0.909394 -1.035606 -0.087653 2.341805152028776e-38
1.096729 -0.626293 -0.087742 2.341805152028776e-38
1.076835 -0.622868 -0.086427 2.341805152028776e-38
1.073347 -0.628860 -0.086431 2.341805152028776e-38
1.067251 -0.633306 -0.086225 2.341805152028776e-38
1.065415 -0.640273 -0.086362 2.341805152028776e-38
1.062682 -0.646720 -0.086428 2.341805152028776e-38
1.059889 -0.653191 -0.086496 2.341805152028776e-38
1.054493 -0.658106 -0.086358 2.341805152028776e-38
1.050762 -0.664047 -0.086356 2.341805152028776e-38
1.046157 -0.669430 -0.086282 2.341805152028776e-38
1.041525 -0.674782 -0.086206 2.341805152028776e-38
1.038514 -0.681227 -0.086269 2.341805152028776e-38
1.035436 -0.687702 -0.086335 2.341805152028776e-38
1.032318 -0.694165 -0.086398 2.341805152028776e-38
1.029984 -0.701175 -0.086528 2.341805152028776e-38
1.026782 -0.707616 -0.086586 2.341805152028776e-38
1.023522 -0.714070 -0.086645 2.341805152028776e-38
1.021820 -0.721706 -0.086844 2.341805152028776e-38
1.020875 -0.729925 -0.087110 2.341805152028776e-38
1.018252 -0.736989 -0.087235 2.341805152028776e-38
1.013973 -0.742867 -0.087219 2.341805152028776e-38
1.012046 -0.750528 -0.087411 2.341805152028776e-38
1.010029 -0.758237 -0.087605 2.341805152028776e-38
1.008750 -0.766552 -0.087866 2.341805152028776e-38
1.006619 -0.774270 -0.088054 2.341805152028776e-38
1.005218 -0.782603 -0.088309 2.341805152028776e-38
1.002170 -0.789732 -0.088426 2.341805152028776e-38
0.998255 -0.796278 -0.088475 2.341805152028776e-38
0.995849 -0.804060 -0.088661 2.341805152028776e-38
0.993387 -0.811841 -0.088843 2.341805152028776e-38
0.992405 -0.820893 -0.089161 2.341805152028776e-38
0.989039 -0.828059 -0.089270 2.341805152028776e-38
0.990147 -0.839134 -0.089797 2.341805152028776e-38
0.984343 -0.844407 -0.089699 2.341805152028776e-38
0.979265 -0.850294 -0.089667 2.341805152028776e-38
0.975650 -0.857468 -0.089771 2.341805152028776e-38
0.971970 -0.864646 -0.089874 2.341805152028776e-38
0.968934 -0.872529 -0.090048 2.341805152028776e-38
0.965838 -0.880408 -0.090218 2.341805152028776e-38
0.964149 -0.889633 -0.090524 2.341805152028776e-38
0.960925 -0.897509 -0.090689 2.341805152028776e-38
0.957626 -0.905394 -0.090853 2.341805152028776e-38
0.952777 -0.911944 -0.090881 2.341805152028776e-38
0.955764 -0.926105 -0.091662 2.341805152028776e-38
0.958613 -0.940336 -0.092440 2.341805152028776e-38
0.951412 -0.944796 -0.092253 2.341805152028776e-38
0.944884 -0.949924 -0.092133 2.341805152028776e-38
0.938275 -0.955059 -0.092016 2.341805152028776e-38
0.935807 -0.964445 -0.092307 2.341805152028776e-38
0.933949 -0.974558 -0.092663 2.341805152028776e-38
0.931315 -0.983960 -0.092947 2.341805152028776e-38
0.927907 -0.992650 -0.093161 2.341805152028776e-38
0.926400 -1.003587 -0.093582 2.341805152028776e-38
0.924792 -1.014545 -0.093999 2.341805152028776e-38
0.918410 -1.020331 -0.093935 2.341805152028776e-38
0.913981 -1.028314 -0.094073 2.341805152028776e-38
0.916715 -1.044541 -0.094958 2.341805152028776e-38
1.096229 -0.626291 -0.093792 2.341805152028776e-38
1.077200 -0.623373 -0.092462 2.341805152028776e-38
1.070267 -0.627350 -0.092170 2.341805152028776e-38
1.068469 -0.634324 -0.092319 2.341805152028776e-38
1.065771 -0.640784 -0.092392 2.341805152028776e-38
1.063035 -0.647234 -0.092462 2.341805152028776e-38
1.058535 -0.652670 -0.092387 2.341805152028776e-38
1.054834 -0.658634 -0.092388 2.341805152028776e-38
1.048572 -0.662978 -0.092163 2.341805152028776e-38
1.045653 -0.669424 -0.092232 2.341805152028776e-38
1.041022 -0.674773 -0.092150 2.341805152028776e-38
1.037171 -0.680678 -0.092144 2.341805152028776e-38
1.034095 -0.687145 -0.092214 2.341805152028776e-38
1.031807 -0.694157 -0.092356 2.341805152028776e-38
1.029473 -0.701165 -0.092494 2.341805152028776e-38
1.026271 -0.707603 -0.092556 2.341805152028776e-38
1.023821 -0.714634 -0.092693 2.341805152028776e-38
1.022929 -0.722847 -0.092980 2.341805152028776e-38
1.019542 -0.729332 -0.093042 2.341805152028776e-38
1.017730 -0.736973 -0.093250 2.341805152028776e-38
1.013451 -0.742849 -0.093232 2.341805152028776e-38
1.011516 -0.750515 -0.093438 2.341805152028776e-38
1.010296 -0.758820 -0.093719 2.341805152028776e-38
1.008218 -0.766534 -0.093923 2.341805152028776e-38
1.006876 -0.774857 -0.094198 2.341805152028776e-38
1.005470 -0.783192 -0.094471 2.341805152028776e-38
1.002411 -0.790331 -0.094596 2.341805152028776e-38
0.998492 -0.796879 -0.094648 2.341805152028776e-38
0.996082 -0.804662 -0.094846 2.341805152028776e-38
0.995159 -0.813707 -0.095188 2.341805152028776e-38
0.991090 -0.820226 -0.095232 2.341805152028776e-38
0.986956 -0.826753 -0.095276 2.341805152028776e-38
0.984266 -0.834591 -0.095470 2.341805152028776e-38
0.981517 -0.842427 -0.095660 2.341805152028776e-38
0.977203 -0.848952 -0.095700 2.341805152028776e-38
0.975094 -0.857431 -0.095958 2.341805152028776e-38
0.971406 -0.864614 -0.096068 2.341805152028776e-38
0.968369 -0.872494 -0.096254 2.341805152028776e-38
0.966009 -0.881041 -0.096510 2.341805152028776e-38
0.963581 -0.889592 -0.096763 2.341805152028776e-38
0.961085 -0.898146 -0.097012 2.341805152028776e-38
0.957774 -0.906039 -0.097188 2.341805152028776e-38
0.952200 -0.911900 -0.097144 2.341805152028776e-38
0.953034 -0.923975 -0.097758 2.341805152028776e-38
0.954468 -0.936793 -0.098443 2.341805152028776e-38
0.949412 -0.943337 -0.098463 2.341805152028776e-38
0.942886 -0.948460 -0.098335 2.341805152028776e-38
0.937684 -0.955007 -0.098356 2.341805152028776e-38
0.935214 -0.964390 -0.098667 2.341805152028776e-38
0.931974 -0.973059 -0.098901 2.341805152028776e-38
0.927977 -0.981000 -0.099059 2.341805152028776e-38
0.930026 -0.995506 -0.099873 2.341805152028776e-38
0.931203 -1.009390 -0.100614 2.341805152028776e-38
0.926197 -1.016691 -0.100695 2.341805152028776e-38
0.919135 -1.021746 -0.100553 2.341805152028776e-38
0.914033 -1.028989 -0.100627 2.341805152028776e-38
0.910173 -1.037724 -0.100845 2.341805152028776e-38
1.093965 -0.625299 -0.099685 2.341805152028776e-38
1.075806 -0.622880 -0.098349 2.341805152028776e-38
1.069737 -0.627353 -0.098117 2.341805152028776e-38
1.067081 -0.633815 -0.098197 2.341805152028776e-38
1.064386 -0.640267 -0.098274 2.341805152028776e-38
1.061652 -0.646709 -0.098347 2.341805152028776e-38
1.057148 -0.652148 -0.098269 2.341805152028776e-38
1.052605 -0.657576 -0.098190 2.341805152028776e-38
1.048877 -0.663507 -0.098187 2.341805152028776e-38
1.043437 -0.668341 -0.098023 2.341805152028776e-38
1.037975 -0.673136 -0.097857 2.341805152028776e-38
1.034961 -0.679581 -0.097931 2.341805152028776e-38
1.031061 -0.685484 -0.097926 2.341805152028776e-38
1.027954 -0.691921 -0.097997 2.341805152028776e-38
1.026456 -0.699469 -0.098223 2.341805152028776e-38
1.024904 -0.707022 -0.098446 2.341805152028776e-38
1.022451 -0.714055 -0.098593 2.341805152028776e-38
1.019118 -0.720534 -0.098662 2.341805152028776e-38
1.016555 -0.727578 -0.098807 2.341805152028776e-38
1.013945 -0.734617 -0.098948 2.341805152028776e-38
1.010483 -0.741060 -0.099008 2.341805152028776e-38
1.009351 -0.749313 -0.099307 2.341805152028776e-38
1.007339 -0.757007 -0.099527 2.341805152028776e-38
1.005271 -0.764703 -0.099744 2.341805152028776e-38
1.003937 -0.773010 -0.100037 2.341805152028776e-38
1.001754 -0.780714 -0.100247 2.341805152028776e-38
0.998702 -0.787841 -0.100381 2.341805152028776e-38
0.995577 -0.794989 -0.100516 2.341805152028776e-38
0.993176 -0.802755 -0.100726 2.341805152028776e-38
0.990719 -0.810521 -0.100933 2.341805152028776e-38
0.986669 -0.817015 -0.100979 2.341805152028776e-38
0.984075 -0.824805 -0.101184 2.341805152028776e-38
0.981395 -0.832626 -0.101390 2.341805152028776e-38
0.978656 -0.840445 -0.101592 2.341805152028776e-38
0.975107 -0.847607 -0.101713 2.341805152028776e-38
0.973003 -0.856074 -0.101987 2.341805152028776e-38
0.970060 -0.863916 -0.102184 2.341805152028776e-38
0.965545 -0.870453 -0.102224 2.341805152028776e-38
0.962460 -0.878311 -0.102418 2.341805152028776e-38
0.960046 -0.886841 -0.102687 2.341805152028776e-38
0.958293 -0.896055 -0.103031 2.341805152028776e-38
0.953539 -0.902569 -0.103062 2.341805152028776e-38
0.951585 -0.911854 -0.103406 2.341805152028776e-38
0.948122 -0.919760 -0.103591 2.341805152028776e-38
0.948865 -0.931850 -0.104241 2.341805152028776e-38
0.944547 -0.939063 -0.104340 2.341805152028776e-38
0.939446 -0.945579 -0.104362 2.341805152028776e-38
0.935658 -0.953528 -0.104540 2.341805152028776e-38
0.933195 -0.962899 -0.104870 2.341805152028776e-38
0.929962 -0.971556 -0.105119 2.341805152028776e-38
0.926658 -0.980210 -0.105365 2.341805152028776e-38
0.927338 -0.993258 -0.106076 2.341805152028776e-38
0.925145 -1.003459 -0.106476 2.341805152028776e-38
0.920175 -1.010724 -0.106562 2.341805152028776e-38
0.916484 -1.019449 -0.106799 2.341805152028776e-38
0.911396 -1.026676 -0.106878 2.341805152028776e-38
0.910170 -1.038401 -0.107421 2.341805152028776e-38
1.094265 -0.625790 -0.105810 2.341805152028776e-38
1.076965 -0.623884 -0.104478 2.341805152028776e-38
1.070033 -0.627859 -0.104147 2.341805152028776e-38
1.065660 -0.633305 -0.104064 2.341805152028776e-38
1.062967 -0.639749 -0.104145 2.341805152028776e-38
1.058534 -0.645146 -0.104056 2.341805152028776e-38
1.056577 -0.652150 -0.104225 2.341805152028776e-38
1.051189 -0.657046 -0.104057 2.341805152028776e-38
1.047464 -0.662969 -0.104053 2.341805152028776e-38
1.042028 -0.667796 -0.103879 2.341805152028776e-38
1.036571 -0.672583 -0.103702 2.341805152028776e-38
1.033551 -0.679030 -0.103782 2.341805152028776e-38
1.031314 -0.686029 -0.103944 2.341805152028776e-38
1.029031 -0.693025 -0.104102 2.341805152028776e-38
1.027524 -0.700579 -0.104342 2.341805152028776e-38
1.024325 -0.707007 -0.104410 2.341805152028776e-38
1.020229 -0.712905 -0.104400 2.341805152028776e-38
1.018530 -0.720522 -0.104640 2.341805152028776e-38
1.016776 -0.728143 -0.104877 2.341805152028776e-38
1.014162 -0.735183 -0.105026 2.341805152028776e-38
1.010696 -0.741629 -0.105089 2.341805152028776e-38
1.008752 -0.749298 -0.105323 2.341805152028776e-38
1.007535 -0.757587 -0.105640 2.341805152028776e-38
1.004669 -0.764682 -0.105786 2.341805152028776e-38
1.002544 -0.772377 -0.106013 2.341805152028776e-38
1.000364 -0.780074 -0.106236 2.341805152028776e-38
0.997308 -0.787201 -0.106379 2.341805152028776e-38
0.994963 -0.794964 -0.106604 2.341805152028776e-38
0.993336 -0.803354 -0.106910 2.341805152028776e-38
0.990874 -0.811121 -0.107129 2.341805152028776e-38
0.986820 -0.817616 -0.107178 2.341805152028776e-38
0.983450 -0.824775 -0.107313 2.341805152028776e-38
0.980009 -0.831948 -0.107447 2.341805152028776e-38
0.977273 -0.839759 -0.107661 2.341805152028776e-38
0.974479 -0.847568 -0.107872 2.341805152028776e-38
0.971626 -0.855373 -0.108080 2.341805152028776e-38
0.968678 -0.863215 -0.108289 2.341805152028776e-38
0.964907 -0.870412 -0.108414 2.341805152028776e-38
0.962556 -0.878939 -0.108703 2.341805152028776e-38
0.958673 -0.886117 -0.108821 2.341805152028776e-38
0.956194 -0.894643 -0.109103 2.341805152028776e-38
0.952888 -0.902522 -0.109302 2.341805152028776e-38
0.950212 -0.911114 -0.109584 2.341805152028776e-38
0.948183 -0.920401 -0.109945 2.341805152028776e-38
0.946074 -0.929698 -0.110303 2.341805152028776e-38
0.943181 -0.938300 -0.110574 2.341805152028776e-38
0.938779 -0.945522 -0.110680 2.341805152028776e-38
0.936386 -0.954891 -0.111034 2.341805152028776e-38
0.933218 -0.963552 -0.111301 2.341805152028776e-38
0.929291 -0.971489 -0.111482 2.341805152028776e-38
0.927354 -0.981589 -0.111908 2.341805152028776e-38
0.921894 -0.988090 -0.111920 2.341805152028776e-38
0.919730 -0.998258 -0.112344 2.341805152028776e-38
0.917475 -1.008439 -0.112765 2.341805152028776e-38
0.915128 -1.018630 -0.113181 2.341805152028776e-38
0.908721 -1.024359 -0.113100 2.341805152028776e-38
0.904215 -1.032325 -0.113265 2.341805152028776e-38
1.091931 -0.624807 -0.111680 2.341805152028776e-38
1.072057 -0.621392 -0.110007 2.341805152028776e-38
1.067718 -0.626853 -0.109922 2.341805152028776e-38
1.063351 -0.632285 -0.109834 2.341805152028776e-38
1.060664 -0.638717 -0.109919 2.341805152028776e-38
1.056234 -0.644106 -0.109825 2.341805152028776e-38
1.053429 -0.650580 -0.109915 2.341805152028776e-38
1.048896 -0.655987 -0.109826 2.341805152028776e-38
1.043494 -0.660831 -0.109645 2.341805152028776e-38
1.037232 -0.665098 -0.109372 2.341805152028776e-38
1.035133 -0.672028 -0.109538 2.341805152028776e-38
1.031277 -0.677932 -0.109535 2.341805152028776e-38
1.029874 -0.685470 -0.109794 2.341805152028776e-38
1.027593 -0.692458 -0.109961 2.341805152028776e-38
1.024442 -0.698881 -0.110037 2.341805152028776e-38
1.020432 -0.704725 -0.110020 2.341805152028776e-38
1.018792 -0.712324 -0.110276 2.341805152028776e-38
1.015468 -0.718782 -0.110352 2.341805152028776e-38
1.012104 -0.725225 -0.110425 2.341805152028776e-38
1.009506 -0.732239 -0.110583 2.341805152028776e-38
1.006860 -0.739248 -0.110737 2.341805152028776e-38
1.004920 -0.746905 -0.110986 2.341805152028776e-38
1.002123 -0.753974 -0.111144 2.341805152028776e-38
1.000070 -0.761641 -0.111386 2.341805152028776e-38
0.998751 -0.769918 -0.111714 2.341805152028776e-38
0.996583 -0.777593 -0.111949 2.341805152028776e-38
0.994314 -0.785326 -0.112189 2.341805152028776e-38
0.991202 -0.792449 -0.112340 2.341805152028776e-38
0.989588 -0.800817 -0.112662 2.341805152028776e-38
0.986368 -0.807931 -0.112805 2.341805152028776e-38
0.983866 -0.815671 -0.113033 2.341805152028776e-38
0.980499 -0.822823 -0.113176 2.341805152028776e-38
0.977828 -0.830623 -0.113406 2.341805152028776e-38
0.974343 -0.837772 -0.113544 2.341805152028776e-38
0.971560 -0.845564 -0.113767 2.341805152028776e-38
0.968717 -0.853352 -0.113986 2.341805152028776e-38
0.965029 -0.860523 -0.114120 2.341805152028776e-38
0.961273 -0.867698 -0.114252 2.341805152028776e-38
0.958936 -0.876204 -0.114557 2.341805152028776e-38
0.957263 -0.885390 -0.114945 2.341805152028776e-38
0.955514 -0.894589 -0.115330 2.341805152028776e-38
0.951475 -0.901788 -0.115454 2.341805152028776e-38
0.948084 -0.909681 -0.115664 2.341805152028776e-38
0.944631 -0.917568 -0.115870 2.341805152028776e-38
0.943958 -0.928240 -0.116423 2.341805152028776e-38
0.941778 -0.937533 -0.116797 2.341805152028776e-38
0.938073 -0.945463 -0.116997 2.341805152028776e-38
0.934980 -0.954116 -0.117283 2.341805152028776e-38
0.931815 -0.962768 -0.117566 2.341805152028776e-38
0.928580 -0.971418 -0.117844 2.341805152028776e-38
0.925956 -0.980790 -0.118206 2.341805152028776e-38
0.920493 -0.987291 -0.118219 2.341805152028776e-38
0.919005 -0.998184 -0.118755 2.341805152028776e-38
0.916077 -1.007623 -0.119112 2.341805152028776e-38
0.912401 -1.016324 -0.119378 2.341805152028776e-38
0.907330 -1.023528 -0.119465 2.341805152028776e-38
0.895603 -1.023247 -0.118684 2.341805152028776e-38
1.086107 -0.621847 -0.117160 2.341805152028776e-38
1.070566 -0.620897 -0.115861 2.341805152028776e-38
1.066230 -0.626350 -0.115771 2.341805152028776e-38
1.061011 -0.631265 -0.115584 2.341805152028776e-38
1.059182 -0.638198 -0.115766 2.341805152028776e-38
1.055597 -0.644110 -0.115762 2.341805152028776e-38
1.051098 -0.649534 -0.115670 2.341805152028776e-38
1.046571 -0.654928 -0.115575 2.341805152028776e-38
1.041177 -0.659759 -0.115384 2.341805152028776e-38
1.037436 -0.665626 -0.115375 2.341805152028776e-38
1.033655 -0.671484 -0.115365 2.341805152028776e-38
1.029802 -0.677380 -0.115362 2.341805152028776e-38
1.029230 -0.685462 -0.115727 2.341805152028776e-38
1.025296 -0.691333 -0.115717 2.341805152028776e-38
1.022974 -0.698305 -0.115889 2.341805152028776e-38
1.019782 -0.704714 -0.115966 2.341805152028776e-38
1.017321 -0.711743 -0.116142 2.341805152028776e-38
1.014000 -0.718192 -0.116222 2.341805152028776e-38
1.011448 -0.725207 -0.116391 2.341805152028776e-38
1.008849 -0.732218 -0.116557 2.341805152028776e-38
1.005398 -0.738635 -0.116627 2.341805152028776e-38
1.003454 -0.746293 -0.116889 2.341805152028776e-38
1.001455 -0.753953 -0.117148 2.341805152028776e-38
1.000192 -0.762220 -0.117496 2.341805152028776e-38
0.998079 -0.769889 -0.117748 2.341805152028776e-38
0.995910 -0.777561 -0.117996 2.341805152028776e-38
0.992851 -0.784683 -0.118157 2.341805152028776e-38
0.991296 -0.793042 -0.118501 2.341805152028776e-38
0.988129 -0.800157 -0.118655 2.341805152028776e-38
0.985682 -0.807895 -0.118898 2.341805152028776e-38
0.983945 -0.816267 -0.119230 2.341805152028776e-38
0.981328 -0.824069 -0.119475 2.341805152028776e-38
0.977889 -0.831231 -0.119624 2.341805152028776e-38
0.974399 -0.838381 -0.119769 2.341805152028776e-38
0.970859 -0.845519 -0.119910 2.341805152028776e-38
0.968763 -0.853963 -0.120233 2.341805152028776e-38
0.965061 -0.861143 -0.120375 2.341805152028776e-38
0.962040 -0.868987 -0.120607 2.341805152028776e-38
0.960428 -0.878170 -0.121020 2.341805152028776e-38
0.958009 -0.886689 -0.121336 2.341805152028776e-38
0.955522 -0.895212 -0.121649 2.341805152028776e-38
0.952193 -0.903105 -0.121872 2.341805152028776e-38
0.948792 -0.911004 -0.122093 2.341805152028776e-38
0.946757 -0.920284 -0.122495 2.341805152028776e-38
0.945354 -0.930271 -0.122985 2.341805152028776e-38
0.942453 -0.938871 -0.123286 2.341805152028776e-38
0.938029 -0.946106 -0.123405 2.341805152028776e-38
0.934233 -0.954049 -0.123614 2.341805152028776e-38
0.932451 -0.964129 -0.124096 2.341805152028776e-38
0.929205 -0.972783 -0.124389 2.341805152028776e-38
0.927253 -0.982884 -0.124861 2.341805152028776e-38
0.921767 -0.989401 -0.124876 2.341805152028776e-38
0.918240 -0.998105 -0.125164 2.341805152028776e-38
0.915310 -1.007540 -0.125540 2.341805152028776e-38
0.911632 -1.016237 -0.125820 2.341805152028776e-38
0.905901 -1.022691 -0.125820 2.341805152028776e-38
0.906630 -1.036653 -0.126738 2.341805152028776e-38
1.086301 -0.622350 -0.123267 2.341805152028776e-38
1.067322 -0.619403 -0.121510 2.341805152028776e-38
1.062995 -0.624838 -0.121414 2.341805152028776e-38
1.058640 -0.630244 -0.121315 2.341805152028776e-38
1.056815 -0.637164 -0.121506 2.341805152028776e-38
1.053228 -0.643077 -0.121503 2.341805152028776e-38
1.050429 -0.649534 -0.121602 2.341805152028776e-38
1.044216 -0.653868 -0.121306 2.341805152028776e-38
1.038828 -0.658686 -0.121104 2.341805152028776e-38
1.033419 -0.663465 -0.120898 2.341805152028776e-38
1.031311 -0.670398 -0.121085 2.341805152028776e-38
1.025801 -0.675186 -0.120885 2.341805152028776e-38
1.025239 -0.683245 -0.121269 2.341805152028776e-38
1.022968 -0.690206 -0.121453 2.341805152028776e-38
1.020652 -0.697165 -0.121633 2.341805152028776e-38
1.016639 -0.703007 -0.121617 2.341805152028776e-38
1.015002 -0.710589 -0.121900 2.341805152028776e-38
1.010875 -0.716450 -0.121886 2.341805152028776e-38
1.008332 -0.723448 -0.122063 2.341805152028776e-38
1.004936 -0.729855 -0.122139 2.341805152028776e-38
1.003896 -0.738030 -0.122507 2.341805152028776e-38
1.001954 -0.745679 -0.122783 2.341805152028776e-38
0.999957 -0.753331 -0.123054 2.341805152028776e-38
0.997904 -0.760986 -0.123322 2.341805152028776e-38
0.995796 -0.768643 -0.123586 2.341805152028776e-38
0.993626 -0.776310 -0.123847 2.341805152028776e-38
0.992133 -0.784656 -0.124212 2.341805152028776e-38
0.989799 -0.792389 -0.124475 2.341805152028776e-38
0.987408 -0.800123 -0.124734 2.341805152028776e-38
0.983421 -0.806594 -0.124794 2.341805152028776e-38
0.980920 -0.814323 -0.125046 2.341805152028776e-38
0.977546 -0.821472 -0.125206 2.341805152028776e-38
0.974879 -0.829256 -0.125459 2.341805152028776e-38
0.972155 -0.837038 -0.125709 2.341805152028776e-38
0.970122 -0.845472 -0.126052 2.341805152028776e-38
0.967277 -0.853254 -0.126294 2.341805152028776e-38
0.964313 -0.861097 -0.126541 2.341805152028776e-38
0.960551 -0.868270 -0.126687 2.341805152028776e-38
0.958941 -0.877444 -0.127121 2.341805152028776e-38
0.957254 -0.886632 -0.127551 2.341805152028776e-38
0.954766 -0.895150 -0.127879 2.341805152028776e-38
0.950705 -0.902364 -0.128017 2.341805152028776e-38
0.948741 -0.911634 -0.128443 2.341805152028776e-38
0.945987 -0.920220 -0.128768 2.341805152028776e-38
0.943871 -0.929505 -0.129185 2.341805152028776e-38
0.938858 -0.935988 -0.129210 2.341805152028776e-38
0.936543 -0.945332 -0.129627 2.341805152028776e-38
0.932751 -0.953266 -0.129847 2.341805152028776e-38
0.930970 -0.963337 -0.130353 2.341805152028776e-38
0.928413 -0.972704 -0.130757 2.341805152028776e-38
0.926459 -0.982800 -0.131253 2.341805152028776e-38
0.920286 -0.988593 -0.131173 2.341805152028776e-38
0.917435 -0.998021 -0.131572 2.341805152028776e-38
0.913833 -1.006715 -0.131870 2.341805152028776e-38
0.910159 -1.015404 -0.132164 2.341805152028776e-38
0.905091 -1.022595 -0.132260 2.341805152028776e-38
0.897291 -1.026816 -0.131973 2.341805152028776e-38
1.080419 -0.619389 -0.128665 2.341805152028776e-38
1.061467 -0.616410 -0.126821 2.341805152028776e-38
1.060587 -0.623829 -0.127131 2.341805152028776e-38
1.057948 -0.630241 -0.127232 2.341805152028776e-38
1.056121 -0.637157 -0.127431 2.341805152028776e-38
1.053375 -0.643598 -0.127533 2.341805152028776e-38
1.050571 -0.650056 -0.127637 2.341805152028776e-38
1.044357 -0.654391 -0.127325 2.341805152028776e-38
1.037288 -0.658144 -0.126907 2.341805152028776e-38
1.033557 -0.663990 -0.126896 2.341805152028776e-38
1.030602 -0.670395 -0.126991 2.341805152028776e-38
1.025924 -0.675726 -0.126883 2.341805152028776e-38
1.023702 -0.682682 -0.127079 2.341805152028776e-38
1.022258 -0.690192 -0.127375 2.341805152028776e-38
1.019940 -0.697147 -0.127563 2.341805152028776e-38
1.015918 -0.702998 -0.127548 2.341805152028776e-38
1.012650 -0.709434 -0.127639 2.341805152028776e-38
1.010153 -0.716433 -0.127828 2.341805152028776e-38
1.007609 -0.723427 -0.128014 2.341805152028776e-38
1.005017 -0.730416 -0.128195 2.341805152028776e-38
1.003161 -0.738014 -0.128480 2.341805152028776e-38
1.001218 -0.745659 -0.128768 2.341805152028776e-38
0.999219 -0.753307 -0.129053 2.341805152028776e-38
0.997165 -0.760957 -0.129333 2.341805152028776e-38
0.994268 -0.768002 -0.129506 2.341805152028776e-38
0.992875 -0.776285 -0.129884 2.341805152028776e-38
0.991379 -0.784626 -0.130266 2.341805152028776e-38
0.989044 -0.792356 -0.130541 2.341805152028776e-38
0.985878 -0.799459 -0.130710 2.341805152028776e-38
0.983433 -0.807184 -0.130977 2.341805152028776e-38
0.980917 -0.814924 -0.131242 2.341805152028776e-38
0.977538 -0.822074 -0.131410 2.341805152028776e-38
0.975624 -0.830504 -0.131777 2.341805152028776e-38
0.972137 -0.837641 -0.131936 2.341805152028776e-38
0.969349 -0.845421 -0.132193 2.341805152028776e-38
0.966492 -0.853209 -0.132448 2.341805152028776e-38
0.964269 -0.861712 -0.132809 2.341805152028776e-38
0.961240 -0.869552 -0.133063 2.341805152028776e-38
0.958885 -0.878060 -0.133415 2.341805152028776e-38
0.956462 -0.886571 -0.133763 2.341805152028776e-38
0.953965 -0.895092 -0.134108 2.341805152028776e-38
0.949901 -0.902305 -0.134253 2.341805152028776e-38
0.948652 -0.912260 -0.134801 2.341805152028776e-38
0.944465 -0.919458 -0.134937 2.341805152028776e-38
0.941643 -0.928036 -0.135273 2.341805152028776e-38
0.937339 -0.935213 -0.135401 2.341805152028776e-38
0.935020 -0.944553 -0.135839 2.341805152028776e-38
0.931926 -0.953191 -0.136170 2.341805152028776e-38
0.928760 -0.961826 -0.136497 2.341805152028776e-38
0.926209 -0.971180 -0.136920 2.341805152028776e-38
0.924943 -0.981987 -0.137542 2.341805152028776e-38
0.921476 -0.990695 -0.137864 2.341805152028776e-38
0.917936 -0.999398 -0.138180 2.341805152028776e-38
0.913654 -1.007359 -0.138391 2.341805152028776e-38
0.910637 -1.016789 -0.138800 2.341805152028776e-38
0.902923 -1.021004 -0.138496 2.341805152028776e-38
0.891199 -1.020724 -0.137590 2.341805152028776e-38
1.109006 -0.636217 -0.138308 2.341805152028776e-38
