VERSION .7
FIELDS x y z rgb
SIZE 4 4 4 4
TYPE F F F F
COUNT 1 1 1 1
WIDTH 957
HEIGHT 1
VIEWPOINT 0 0 0 1 0 0 0
POINTS 957
DATA ascii
0.974656 0.591252 -0.008174 2.341805152028776e-38
0.979652 0.586838 -0.008188 2.341805152028776e-38
0.982908 0.581368 -0.008188 2.341805152028776e-38
0.985270 0.575376 -0.008181 2.341805152028776e-38
0.989308 0.570409 -0.008188 2.341805152028776e-38
0.995040 0.566439 -0.008209 2.341805152028776e-38
1.000758 0.562423 -0.008231 2.341805152028776e-38
1.003839 0.556906 -0.008230 2.341805152028776e-38
1.007766 0.551853 -0.008237 2.341805152028776e-38
1.010769 0.546332 -0.008236 2.341805152028776e-38
1.017252 0.542714 -0.008265 2.341805152028776e-38
1.020187 0.537178 -0.008264 2.341805152028776e-38
1.023978 0.532087 -0.008271 2.341805152028776e-38
1.028634 0.527427 -0.008284 2.341805152028776e-38
1.032360 0.522316 -0.008291 2.341805152028776e-38
1.036041 0.517217 -0.008298 2.341805152028776e-38
1.041492 0.512977 -0.008319 2.341805152028776e-38
1.046927 0.508694 -0.008339 2.341805152028776e-38
1.050543 0.503502 -0.008345 2.341805152028776e-38
1.055924 0.499177 -0.008366 2.341805152028776e-38
1.061271 0.494847 -0.008387 2.341805152028776e-38
1.063877 0.489221 -0.008387 2.341805152028776e-38
1.066452 0.483582 -0.008386 2.341805152028776e-38
1.071736 0.479153 -0.008406 2.341805152028776e-38
1.076072 0.474315 -0.008420 2.341805152028776e-38
1.079453 0.469084 -0.008427 2.341805152028776e-38
1.083727 0.464225 -0.008440 2.341805152028776e-38
1.087059 0.458946 -0.008447 2.341805152028776e-38
1.092212 0.454412 -0.008467 2.341805152028776e-38
1.091780 0.447598 -0.008445 2.341805152028776e-38
1.095001 0.442339 -0.008452 2.341805152028776e-38
1.097266 0.436688 -0.008452 2.341805152028776e-38
1.102296 0.432120 -0.008473 2.341805152028776e-38
1.107307 0.427513 -0.008494 2.341805152028776e-38
1.113221 0.423258 -0.008522 2.341805152028776e-38
1.117232 0.418293 -0.008537 2.341805152028776e-38
1.122159 0.413643 -0.008558 2.341805152028776e-38
1.126128 0.408614 -0.008572 2.341805152028776e-38
1.131959 0.404227 -0.008601 2.341805152028776e-38
1.135873 0.399167 -0.008615 2.341805152028776e-38
1.141641 0.394772 -0.008645 2.341805152028776e-38
1.142660 0.388719 -0.008638 2.341805152028776e-38
1.149337 0.384570 -0.008675 2.341805152028776e-38
1.155051 0.380051 -0.008703 2.341805152028776e-38
1.162638 0.376139 -0.008747 2.341805152028776e-38
1.165437 0.370687 -0.008756 2.341805152028776e-38
1.162484 0.363427 -0.008722 2.341805152028776e-38
1.187208 0.364721 -0.008896 2.341805152028776e-38
1.217717 0.367512 -0.009112 2.341805152028776e-38
1.231013 0.364937 -0.009200 2.341805152028776e-38
1.241418 0.361446 -0.009268 2.341805152028776e-38
1.309507 0.374354 -0.009766 2.341805152028776e-38
0.868036 0.715513 -0.013399 2.341805152028776e-38
0.866056 0.705307 -0.013308 2.341805152028776e-38
0.867102 0.697658 -0.013263 2.341805152028776e-38
0.874351 0.694998 -0.013314 2.341805152028776e-38
0.880788 0.691689 -0.013353 2.341805152028776e-38
0.886402 0.687748 -0.013380 2.341805152028776e-38
0.888031 0.680723 -0.013348 2.341805152028776e-38
0.893595 0.676721 -0.013374 2.341805152028776e-38
0.894338 0.669083 -0.013328 2.341805152028776e-38
0.899825 0.665055 -0.013355 2.341805152028776e-38
0.902849 0.659250 -0.013345 2.341805152028776e-38
0.907457 0.654602 -0.013359 2.341805152028776e-38
0.909599 0.648183 -0.013337 2.341805152028776e-38
0.915786 0.644638 -0.013374 2.341805152028776e-38
0.920298 0.639932 -0.013388 2.341805152028776e-38
0.928061 0.637494 -0.013449 2.341805152028776e-38
0.930033 0.631058 -0.013427 2.341805152028776e-38
0.932793 0.625177 -0.013416 2.341805152028776e-38
0.936350 0.619837 -0.013416 2.341805152028776e-38
0.943203 0.616697 -0.013465 2.341805152028776e-38
0.946669 0.611364 -0.013466 2.341805152028776e-38
0.950104 0.606012 -0.013467 2.341805152028776e-38
0.952663 0.600107 -0.013455 2.341805152028776e-38
0.961978 0.598418 -0.013539 2.341805152028776e-38
0.963616 0.591964 -0.013515 2.341805152028776e-38
0.973740 0.590733 -0.013611 2.341805152028776e-38
0.977018 0.585296 -0.013612 2.341805152028776e-38
0.981986 0.580859 -0.013635 2.341805152028776e-38
0.982619 0.573864 -0.013599 2.341805152028776e-38
0.987516 0.569409 -0.013622 2.341805152028776e-38
0.993242 0.565449 -0.013658 2.341805152028776e-38
0.998083 0.560954 -0.013682 2.341805152028776e-38
1.000281 0.554967 -0.013669 2.341805152028776e-38
1.005951 0.550893 -0.013704 2.341805152028776e-38
1.008950 0.545381 -0.013703 2.341805152028776e-38
1.014546 0.541302 -0.013739 2.341805152028776e-38
1.017472 0.535781 -0.013738 2.341805152028776e-38
1.023031 0.531627 -0.013773 2.341805152028776e-38
1.024125 0.525147 -0.013747 2.341805152028776e-38
1.027839 0.520059 -0.013758 2.341805152028776e-38
1.034193 0.516324 -0.013805 2.341805152028776e-38
1.040536 0.512536 -0.013852 2.341805152028776e-38
1.045969 0.508258 -0.013887 2.341805152028776e-38
1.048680 0.502639 -0.013885 2.341805152028776e-38
1.053153 0.497896 -0.013908 2.341805152028776e-38
1.056681 0.492735 -0.013919 2.341805152028776e-38
1.062909 0.488804 -0.013966 2.341805152028776e-38
1.065482 0.483170 -0.013964 2.341805152028776e-38
1.068025 0.477522 -0.013963 2.341805152028776e-38
1.074183 0.473508 -0.014009 2.341805152028776e-38
1.076643 0.467889 -0.014009 2.341805152028776e-38
1.080911 0.463045 -0.014032 2.341805152028776e-38
1.083316 0.457391 -0.014030 2.341805152028776e-38
1.089383 0.453261 -0.014076 2.341805152028776e-38
1.091722 0.447598 -0.014075 2.341805152028776e-38
1.095870 0.442713 -0.014099 2.341805152028776e-38
1.097208 0.436688 -0.014087 2.341805152028776e-38
1.102238 0.432121 -0.014122 2.341805152028776e-38
1.105383 0.426794 -0.014132 2.341805152028776e-38
1.110359 0.422191 -0.014167 2.341805152028776e-38
1.115301 0.417591 -0.014204 2.341805152028776e-38
1.121163 0.413298 -0.014252 2.341805152028776e-38
1.124190 0.407932 -0.014263 2.341805152028776e-38
1.129075 0.403219 -0.014299 2.341805152028776e-38
1.134872 0.398834 -0.014347 2.341805152028776e-38
1.138748 0.393791 -0.014372 2.341805152028776e-38
1.140709 0.388074 -0.014373 2.341805152028776e-38
1.145486 0.383300 -0.014410 2.341805152028776e-38
1.151193 0.378800 -0.014458 2.341805152028776e-38
1.158775 0.374905 -0.014531 2.341805152028776e-38
1.160615 0.369169 -0.014534 2.341805152028776e-38
1.162426 0.363425 -0.014537 2.341805152028776e-38
1.183326 0.363544 -0.014778 2.341805152028776e-38
1.208084 0.364621 -0.015067 2.341805152028776e-38
1.229035 0.364364 -0.015309 2.341805152028776e-38
1.201996 0.349981 -0.014956 2.341805152028776e-38
1.236376 0.353461 -0.015368 2.341805152028776e-38
0.869484 0.716780 -0.018792 2.341805152028776e-38
0.865962 0.705303 -0.018631 2.341805152028776e-38
0.868566 0.698908 -0.018602 2.341805152028776e-38
0.872691 0.693751 -0.018606 2.341805152028776e-38
0.879908 0.691067 -0.018677 2.341805152028776e-38
0.884728 0.686518 -0.018699 2.341805152028776e-38
0.888731 0.681328 -0.018703 2.341805152028776e-38
0.891907 0.675510 -0.018690 2.341805152028776e-38
0.893443 0.668481 -0.018643 2.341805152028776e-38
0.898928 0.664457 -0.018680 2.341805152028776e-38
0.901141 0.658068 -0.018650 2.341805152028776e-38
0.906554 0.654015 -0.018686 2.341805152028776e-38
0.909507 0.648181 -0.018672 2.341805152028776e-38
0.916510 0.645212 -0.018741 2.341805152028776e-38
0.921848 0.641071 -0.018776 2.341805152028776e-38
0.927968 0.637492 -0.018829 2.341805152028776e-38
0.929941 0.631057 -0.018797 2.341805152028776e-38
0.933531 0.625733 -0.018799 2.341805152028776e-38
0.938759 0.621493 -0.018833 2.341805152028776e-38
0.944786 0.617790 -0.018884 2.341805152028776e-38
0.944898 0.610278 -0.018819 2.341805152028776e-38
0.950013 0.606011 -0.018854 2.341805152028776e-38
0.955110 0.601706 -0.018888 2.341805152028776e-38
0.959339 0.596834 -0.018904 2.341805152028776e-38
0.960970 0.590393 -0.018871 2.341805152028776e-38
0.971085 0.589177 -0.019006 2.341805152028776e-38
0.973496 0.583241 -0.018989 2.341805152028776e-38
0.978453 0.578824 -0.019022 2.341805152028776e-38
0.981664 0.573361 -0.019021 2.341805152028776e-38
0.989158 0.570408 -0.019105 2.341805152028776e-38
0.993152 0.565449 -0.019121 2.341805152028776e-38
0.999735 0.561934 -0.019188 2.341805152028776e-38
1.003688 0.556908 -0.019204 2.341805152028776e-38
1.006738 0.551375 -0.019202 2.341805152028776e-38
1.008861 0.545381 -0.019184 2.341805152028776e-38
1.014456 0.541303 -0.019234 2.341805152028776e-38
1.019152 0.536714 -0.019267 2.341805152028776e-38
1.021167 0.530706 -0.019248 2.341805152028776e-38
1.024925 0.525605 -0.019263 2.341805152028776e-38
1.029535 0.520962 -0.019295 2.341805152028776e-38
1.035893 0.517218 -0.019361 2.341805152028776e-38
1.042241 0.513421 -0.019427 2.341805152028776e-38
1.047678 0.509134 -0.019475 2.341805152028776e-38
1.049492 0.503074 -0.019456 2.341805152028776e-38
1.053969 0.498323 -0.019488 2.341805152028776e-38
1.060217 0.494426 -0.019554 2.341805152028776e-38
1.062820 0.488806 -0.019552 2.341805152028776e-38
1.066304 0.483585 -0.019567 2.341805152028776e-38
1.068849 0.477932 -0.019564 2.341805152028776e-38
1.075010 0.473912 -0.019629 2.341805152028776e-38
1.077472 0.468288 -0.019629 2.341805152028776e-38
1.080823 0.463046 -0.019644 2.341805152028776e-38
1.085070 0.458171 -0.019676 2.341805152028776e-38
1.091141 0.454032 -0.019741 2.341805152028776e-38
1.091635 0.447598 -0.019706 2.341805152028776e-38
1.093928 0.441965 -0.019705 2.341805152028776e-38
1.096192 0.436319 -0.019705 2.341805152028776e-38
1.101219 0.431758 -0.019754 2.341805152028776e-38
1.104363 0.426435 -0.019769 2.341805152028776e-38
1.111207 0.422546 -0.019851 2.341805152028776e-38
1.117087 0.418292 -0.019919 2.341805152028776e-38
1.120138 0.412952 -0.019936 2.341805152028776e-38
1.124103 0.407932 -0.019969 2.341805152028776e-38
1.129930 0.403556 -0.020035 2.341805152028776e-38
1.134786 0.398832 -0.020085 2.341805152028776e-38
1.138662 0.393789 -0.020121 2.341805152028776e-38
1.139676 0.387751 -0.020106 2.341805152028776e-38
1.145399 0.383299 -0.020174 2.341805152028776e-38
1.151106 0.378800 -0.020241 2.341805152028776e-38
1.155835 0.373978 -0.020293 2.341805152028776e-38
1.159576 0.368863 -0.020331 2.341805152028776e-38
1.163294 0.363720 -0.020368 2.341805152028776e-38
1.180371 0.362660 -0.020639 2.341805152028776e-38
1.202252 0.362885 -0.020993 2.341805152028776e-38
1.224153 0.362937 -0.021349 2.341805152028776e-38
1.224948 0.356683 -0.021340 2.341805152028776e-38
1.249745 0.357303 -0.021749 2.341805152028776e-38
0.867043 0.714865 -0.024097 2.341805152028776e-38
0.863510 0.703403 -0.023889 2.341805152028776e-38
0.862988 0.694515 -0.023767 2.341805152028776e-38
0.869434 0.691257 -0.023836 2.341805152028776e-38
0.874279 0.686739 -0.023864 2.341805152028776e-38
0.880654 0.683448 -0.023934 2.341805152028776e-38
0.883052 0.677065 -0.023896 2.341805152028776e-38
0.889391 0.673696 -0.023965 2.341805152028776e-38
0.890917 0.666681 -0.023905 2.341805152028776e-38
0.894785 0.661481 -0.023909 2.341805152028776e-38
0.898596 0.656295 -0.023914 2.341805152028776e-38
0.903998 0.652257 -0.023960 2.341805152028776e-38
0.908569 0.647598 -0.023985 2.341805152028776e-38
0.917204 0.645786 -0.024116 2.341805152028776e-38
0.923367 0.642210 -0.024184 2.341805152028776e-38
0.928669 0.638056 -0.024230 2.341805152028776e-38
0.929818 0.631055 -0.024168 2.341805152028776e-38
0.933409 0.625732 -0.024170 2.341805152028776e-38
0.935301 0.619285 -0.024128 2.341805152028776e-38
0.940480 0.615052 -0.024172 2.341805152028776e-38
0.946456 0.611361 -0.024239 2.341805152028776e-38
0.951577 0.607086 -0.024283 2.341805152028776e-38
0.951604 0.599574 -0.024198 2.341805152028776e-38
0.956671 0.595250 -0.024241 2.341805152028776e-38
0.959998 0.589868 -0.024241 2.341805152028776e-38
0.968400 0.587620 -0.024371 2.341805152028776e-38
0.972518 0.582727 -0.024393 2.341805152028776e-38
0.978332 0.578824 -0.024457 2.341805152028776e-38
0.982406 0.573866 -0.024478 2.341805152028776e-38
0.988172 0.569908 -0.024541 2.341805152028776e-38
0.992163 0.564955 -0.024563 2.341805152028776e-38
0.996129 0.559975 -0.024584 2.341805152028776e-38
1.000070 0.554969 -0.024605 2.341805152028776e-38
1.003986 0.549937 -0.024624 2.341805152028776e-38
1.007862 0.544906 -0.024644 2.341805152028776e-38
1.012573 0.540362 -0.024687 2.341805152028776e-38
1.017263 0.535783 -0.024728 2.341805152028776e-38
1.019273 0.529786 -0.024705 2.341805152028776e-38
1.023026 0.524696 -0.024724 2.341805152028776e-38
1.028525 0.520511 -0.024786 2.341805152028776e-38
1.033985 0.516326 -0.024850 2.341805152028776e-38
1.041225 0.512981 -0.024956 2.341805152028776e-38
1.043962 0.507388 -0.024954 2.341805152028776e-38
1.048471 0.502645 -0.024993 2.341805152028776e-38
1.050236 0.496614 -0.024969 2.341805152028776e-38
1.054662 0.491892 -0.025011 2.341805152028776e-38
1.059977 0.487554 -0.025074 2.341805152028776e-38
1.065275 0.483174 -0.025136 2.341805152028776e-38
1.066906 0.477119 -0.025112 2.341805152028776e-38
1.071234 0.472299 -0.025152 2.341805152028776e-38
1.075521 0.467492 -0.025194 2.341805152028776e-38
1.080706 0.463048 -0.025257 2.341805152028776e-38
1.084031 0.457784 -0.025276 2.341805152028776e-38
1.089177 0.453266 -0.025338 2.341805152028776e-38
1.087819 0.446081 -0.025250 2.341805152028776e-38
1.092885 0.441591 -0.025314 2.341805152028776e-38
1.097005 0.436690 -0.025356 2.341805152028776e-38
1.103895 0.432854 -0.025462 2.341805152028776e-38
1.106112 0.427158 -0.025460 2.341805152028776e-38
1.112027 0.422900 -0.025544 2.341805152028776e-38
1.115099 0.417590 -0.025567 2.341805152028776e-38
1.120022 0.412952 -0.025631 2.341805152028776e-38
1.123048 0.407592 -0.025653 2.341805152028776e-38
1.129813 0.403557 -0.025759 2.341805152028776e-38
1.132784 0.398166 -0.025781 2.341805152028776e-38
1.135712 0.392806 -0.025805 2.341805152028776e-38
1.138614 0.387427 -0.025828 2.341805152028776e-38
1.145283 0.383298 -0.025937 2.341805152028776e-38
1.149091 0.378174 -0.025981 2.341805152028776e-38
1.153818 0.373357 -0.026048 2.341805152028776e-38
1.155650 0.367646 -0.026054 2.341805152028776e-38
1.159363 0.362522 -0.026102 2.341805152028776e-38
1.174521 0.360895 -0.026407 2.341805152028776e-38
1.189691 0.359126 -0.026712 2.341805152028776e-38
1.219241 0.361507 -0.027341 2.341805152028776e-38
1.247867 0.363384 -0.027953 2.341805152028776e-38
1.306337 0.373510 -0.029231 2.341805152028776e-38
0.867655 0.715493 -0.029477 2.341805152028776e-38
0.860253 0.700870 -0.029093 2.341805152028776e-38
0.861274 0.693255 -0.028995 2.341805152028776e-38
0.866148 0.688763 -0.029028 2.341805152028776e-38
0.873338 0.686114 -0.029140 2.341805152028776e-38
0.878919 0.682216 -0.029200 2.341805152028776e-38
0.882897 0.677059 -0.029206 2.341805152028776e-38
0.888438 0.673087 -0.029265 2.341805152028776e-38
0.889962 0.666078 -0.029191 2.341805152028776e-38
0.893828 0.660881 -0.029196 2.341805152028776e-38
0.898442 0.656290 -0.029227 2.341805152028776e-38
0.904654 0.652838 -0.029311 2.341805152028776e-38
0.908415 0.647595 -0.029315 2.341805152028776e-38
0.916232 0.645208 -0.029449 2.341805152028776e-38
0.922393 0.641635 -0.029531 2.341805152028776e-38
0.926868 0.636920 -0.029562 2.341805152028776e-38
0.930492 0.631614 -0.029565 2.341805152028776e-38
0.932425 0.625173 -0.029515 2.341805152028776e-38
0.935148 0.619284 -0.029490 2.341805152028776e-38
0.943675 0.617238 -0.029649 2.341805152028776e-38
0.945464 0.610817 -0.029599 2.341805152028776e-38
0.949739 0.606009 -0.029627 2.341805152028776e-38
0.950607 0.599040 -0.029549 2.341805152028776e-38
0.955670 0.594722 -0.029602 2.341805152028776e-38
0.959848 0.589867 -0.029628 2.341805152028776e-38
0.968249 0.587619 -0.029787 2.341805152028776e-38
0.973224 0.583241 -0.029840 2.341805152028776e-38
0.979041 0.579334 -0.029919 2.341805152028776e-38
0.982255 0.573868 -0.029917 2.341805152028776e-38
0.983692 0.567410 -0.029864 2.341805152028776e-38
0.989406 0.563471 -0.029943 2.341805152028776e-38
0.995978 0.559976 -0.030048 2.341805152028776e-38
1.001668 0.555941 -0.030125 2.341805152028776e-38
1.002959 0.549459 -0.030070 2.341805152028776e-38
1.006834 0.544430 -0.030094 2.341805152028776e-38
1.013306 0.540834 -0.030199 2.341805152028776e-38
1.016230 0.535319 -0.030197 2.341805152028776e-38
1.020011 0.530250 -0.030221 2.341805152028776e-38
1.024656 0.525612 -0.030271 2.341805152028776e-38
1.030161 0.521414 -0.030347 2.341805152028776e-38
1.035626 0.517221 -0.030425 2.341805152028776e-38
1.041076 0.512983 -0.030502 2.341805152028776e-38
1.046510 0.508702 -0.030578 2.341805152028776e-38
1.046520 0.501784 -0.030495 2.341805152028776e-38
1.049185 0.496188 -0.030492 2.341805152028776e-38
1.055421 0.492316 -0.030596 2.341805152028776e-38
1.059829 0.487557 -0.030646 2.341805152028776e-38
1.061486 0.481526 -0.030617 2.341805152028776e-38
1.065845 0.476715 -0.030666 2.341805152028776e-38
1.071088 0.472299 -0.030741 2.341805152028776e-38
1.077208 0.468291 -0.030845 2.341805152028776e-38
1.080559 0.463050 -0.030870 2.341805152028776e-38
1.085726 0.458565 -0.030946 2.341805152028776e-38
1.089953 0.453654 -0.030995 2.341805152028776e-38
1.089524 0.446839 -0.030913 2.341805152028776e-38
1.091813 0.441216 -0.030913 2.341805152028776e-38
1.096860 0.436692 -0.030991 2.341805152028776e-38
1.101888 0.432126 -0.031068 2.341805152028776e-38
1.105034 0.426801 -0.031091 2.341805152028776e-38
1.110948 0.422543 -0.031194 2.341805152028776e-38
1.115891 0.417940 -0.031274 2.341805152028776e-38
1.118002 0.412260 -0.031275 2.341805152028776e-38
1.123842 0.407934 -0.031380 2.341805152028776e-38
1.130609 0.403895 -0.031510 2.341805152028776e-38
1.132641 0.398163 -0.031509 2.341805152028776e-38
1.135568 0.392803 -0.031539 2.341805152028776e-38
1.140363 0.388069 -0.031620 2.341805152028776e-38
1.146087 0.383614 -0.031727 2.341805152028776e-38
1.149895 0.378486 -0.031781 2.341805152028776e-38
1.152723 0.373043 -0.031810 2.341805152028776e-38
1.156459 0.367943 -0.031869 2.341805152028776e-38
1.160173 0.362815 -0.031928 2.341805152028776e-38
1.173420 0.360596 -0.032248 2.341805152028776e-38
1.180931 0.356521 -0.032411 2.341805152028776e-38
1.211426 0.359222 -0.033205 2.341805152028776e-38
1.236198 0.360019 -0.033848 2.341805152028776e-38
1.255239 0.358933 -0.034333 2.341805152028776e-38
0.867465 0.715483 -0.034836 2.341805152028776e-38
0.860065 0.700861 -0.034382 2.341805152028776e-38
0.859530 0.691993 -0.034205 2.341805152028776e-38
0.865960 0.688756 -0.034306 2.341805152028776e-38
0.871580 0.684870 -0.034376 2.341805152028776e-38
0.878732 0.682208 -0.034509 2.341805152028776e-38
0.882710 0.677053 -0.034516 2.341805152028776e-38
0.886658 0.671874 -0.034523 2.341805152028776e-38
0.888975 0.665475 -0.034467 2.341805152028776e-38
0.893643 0.660874 -0.034503 2.341805152028776e-38
0.898258 0.656284 -0.034541 2.341805152028776e-38
0.906090 0.654003 -0.034702 2.341805152028776e-38
0.912299 0.650492 -0.034800 2.341805152028776e-38
0.919315 0.647507 -0.034928 2.341805152028776e-38
0.922209 0.641630 -0.034900 2.341805152028776e-38
0.926684 0.636916 -0.034936 2.341805152028776e-38
0.929481 0.631049 -0.034909 2.341805152028776e-38
0.933901 0.626285 -0.034943 2.341805152028776e-38
0.936631 0.620387 -0.034914 2.341805152028776e-38
0.941820 0.616140 -0.034977 2.341805152028776e-38
0.941924 0.608645 -0.034856 2.341805152028776e-38
0.947029 0.604394 -0.034921 2.341805152028776e-38
0.947888 0.597441 -0.034828 2.341805152028776e-38
0.956336 0.595251 -0.035015 2.341805152028776e-38
0.959668 0.589865 -0.035015 2.341805152028776e-38
0.967213 0.587099 -0.035172 2.341805152028776e-38
0.973900 0.583755 -0.035297 2.341805152028776e-38
0.977999 0.578826 -0.035327 2.341805152028776e-38
0.977758 0.571349 -0.035202 2.341805152028776e-38
0.982647 0.566909 -0.035262 2.341805152028776e-38
0.988358 0.562976 -0.035356 2.341805152028776e-38
0.993184 0.558508 -0.035418 2.341805152028776e-38
0.995369 0.552547 -0.035385 2.341805152028776e-38
1.000149 0.548021 -0.035444 2.341805152028776e-38
1.004018 0.543004 -0.035473 2.341805152028776e-38
1.010481 0.539422 -0.035596 2.341805152028776e-38
1.014282 0.534389 -0.035626 2.341805152028776e-38
1.018945 0.529792 -0.035685 2.341805152028776e-38
1.020030 0.523334 -0.035620 2.341805152028776e-38
1.023741 0.518255 -0.035647 2.341805152028776e-38
1.029189 0.514096 -0.035739 2.341805152028776e-38
1.037311 0.511218 -0.035923 2.341805152028776e-38
1.040938 0.506083 -0.035951 2.341805152028776e-38
1.044539 0.500925 -0.035978 2.341805152028776e-38
1.047202 0.495334 -0.035974 2.341805152028776e-38
1.052527 0.491050 -0.036066 2.341805152028776e-38
1.056020 0.485888 -0.036095 2.341805152028776e-38
1.060399 0.481116 -0.036153 2.341805152028776e-38
1.062931 0.475495 -0.036149 2.341805152028776e-38
1.068169 0.471090 -0.036238 2.341805152028776e-38
1.072449 0.466299 -0.036299 2.341805152028776e-38
1.078546 0.462265 -0.036421 2.341805152028776e-38
1.082788 0.457401 -0.036480 2.341805152028776e-38
1.085163 0.451738 -0.036476 2.341805152028776e-38
1.084727 0.444942 -0.036379 2.341805152028776e-38
1.091640 0.441217 -0.036534 2.341805152028776e-38
1.093899 0.435584 -0.036533 2.341805152028776e-38
1.100783 0.431764 -0.036686 2.341805152028776e-38
1.107656 0.427885 -0.036838 2.341805152028776e-38
1.111709 0.422897 -0.036897 2.341805152028776e-38
1.113845 0.417238 -0.036899 2.341805152028776e-38
1.117828 0.412260 -0.036961 2.341805152028776e-38
1.124608 0.408276 -0.037116 2.341805152028776e-38
1.127611 0.402888 -0.037146 2.341805152028776e-38
1.129639 0.397164 -0.037145 2.341805152028776e-38
1.134451 0.392473 -0.037242 2.341805152028776e-38
1.138297 0.387422 -0.037307 2.341805152028776e-38
1.143070 0.382660 -0.037403 2.341805152028776e-38
1.146873 0.377547 -0.037467 2.341805152028776e-38
1.152552 0.373035 -0.037593 2.341805152028776e-38
1.158192 0.368542 -0.037725 2.341805152028776e-38
1.161909 0.363405 -0.037794 2.341805152028776e-38
1.170380 0.359709 -0.038018 2.341805152028776e-38
1.173101 0.354205 -0.038055 2.341805152028776e-38
1.204541 0.357220 -0.039024 2.341805152028776e-38
1.215865 0.354136 -0.039348 2.341805152028776e-38
1.229109 0.351500 -0.039735 2.341805152028776e-38
0.872639 0.719923 -0.040445 2.341805152028776e-38
0.861395 0.702113 -0.039742 2.341805152028776e-38
0.860090 0.692611 -0.039503 2.341805152028776e-38
0.864177 0.687504 -0.039512 2.341805152028776e-38
0.872149 0.685478 -0.039699 2.341805152028776e-38
0.879304 0.682812 -0.039853 2.341805152028776e-38
0.880114 0.675220 -0.039719 2.341805152028776e-38
0.886440 0.671867 -0.039834 2.341805152028776e-38
0.888758 0.665469 -0.039769 2.341805152028776e-38
0.892625 0.660272 -0.039775 2.341805152028776e-38
0.901270 0.658636 -0.039998 2.341805152028776e-38
0.911546 0.658092 -0.040291 2.341805152028776e-38
0.916964 0.653970 -0.040368 2.341805152028776e-38
0.920731 0.648655 -0.040373 2.341805152028776e-38
0.921994 0.641624 -0.040269 2.341805152028776e-38
0.927292 0.637477 -0.040347 2.341805152028776e-38
0.930919 0.632168 -0.040351 2.341805152028776e-38
0.932026 0.625169 -0.040247 2.341805152028776e-38
0.936416 0.620385 -0.040285 2.341805152028776e-38
0.941607 0.616136 -0.040358 2.341805152028776e-38
0.940873 0.608099 -0.040183 2.341805152028776e-38
0.946817 0.604393 -0.040293 2.341805152028776e-38
0.950213 0.599039 -0.040294 2.341805152028776e-38
0.954427 0.594195 -0.040330 2.341805152028776e-38
0.955201 0.587245 -0.040222 2.341805152028776e-38
0.961877 0.583986 -0.040368 2.341805152028776e-38
0.965117 0.578616 -0.040369 2.341805152028776e-38
0.970047 0.574245 -0.040440 2.341805152028776e-38
0.975821 0.570342 -0.040546 2.341805152028776e-38
0.982438 0.566908 -0.040687 2.341805152028776e-38
0.988149 0.562976 -0.040795 2.341805152028776e-38
0.992103 0.558019 -0.040831 2.341805152028776e-38
0.996033 0.553035 -0.040865 2.341805152028776e-38
1.000815 0.548505 -0.040933 2.341805152028776e-38
1.004690 0.543479 -0.040966 2.341805152028776e-38
1.012036 0.540365 -0.041145 2.341805152028776e-38
1.015842 0.535323 -0.041179 2.341805152028776e-38
1.016963 0.528873 -0.041104 2.341805152028776e-38
1.018933 0.522883 -0.041064 2.341805152028776e-38
1.021752 0.517353 -0.041060 2.341805152028776e-38
1.026300 0.512757 -0.041130 2.341805152028776e-38
1.032622 0.509012 -0.041271 2.341805152028776e-38
1.039831 0.505650 -0.041447 2.341805152028776e-38
1.041628 0.499633 -0.041406 2.341805152028776e-38
1.047900 0.495762 -0.041544 2.341805152028776e-38
1.052321 0.491052 -0.041615 2.341805152028776e-38
1.054907 0.485473 -0.041612 2.341805152028776e-38
1.060192 0.481120 -0.041716 2.341805152028776e-38
1.061813 0.475093 -0.041675 2.341805152028776e-38
1.067965 0.471090 -0.041813 2.341805152028776e-38
1.069496 0.465105 -0.041776 2.341805152028776e-38
1.073748 0.460299 -0.041845 2.341805152028776e-38
1.074297 0.453905 -0.041770 2.341805152028776e-38
1.077577 0.448670 -0.041802 2.341805152028776e-38
1.077128 0.441907 -0.041689 2.341805152028776e-38
1.083098 0.437847 -0.041832 2.341805152028776e-38
1.089054 0.433737 -0.041975 2.341805152028776e-38
1.101510 0.432132 -0.042366 2.341805152028776e-38
1.105587 0.427168 -0.042434 2.341805152028776e-38
1.112441 0.423250 -0.042609 2.341805152028776e-38
1.112707 0.416886 -0.042539 2.341805152028776e-38
1.117626 0.412260 -0.042648 2.341805152028776e-38
1.121586 0.407253 -0.042719 2.341805152028776e-38
1.127407 0.402890 -0.042861 2.341805152028776e-38
1.131324 0.397822 -0.042930 2.341805152028776e-38
1.133305 0.392142 -0.042935 2.341805152028776e-38
1.135258 0.386453 -0.042939 2.341805152028776e-38
1.139077 0.381389 -0.043014 2.341805152028776e-38
1.143823 0.376608 -0.043123 2.341805152028776e-38
1.152351 0.373026 -0.043375 2.341805152028776e-38
1.154182 0.367321 -0.043384 2.341805152028776e-38
1.158846 0.362503 -0.043500 2.341805152028776e-38
1.167312 0.358822 -0.043759 2.341805152028776e-38
1.166202 0.352176 -0.043658 2.341805152028776e-38
1.211043 0.359194 -0.045277 2.341805152028776e-38
1.201267 0.349929 -0.044863 2.341805152028776e-38
1.211606 0.346539 -0.045201 2.341805152028776e-38
0.871613 0.719274 -0.045796 2.341805152028776e-38
0.860370 0.701470 -0.045000 2.341805152028776e-38
0.858284 0.691347 -0.044688 2.341805152028776e-38
0.863928 0.687495 -0.044779 2.341805152028776e-38
0.871116 0.684848 -0.044951 2.341805152028776e-38
0.876688 0.680963 -0.045044 2.341805152028776e-38
0.879073 0.674603 -0.044974 2.341805152028776e-38
0.884599 0.670652 -0.045064 2.341805152028776e-38
0.885311 0.663067 -0.044909 2.341805152028776e-38
0.890773 0.659075 -0.044997 2.341805152028776e-38
0.895377 0.654501 -0.045047 2.341805152028776e-38
0.903197 0.652236 -0.045257 2.341805152028776e-38
0.903700 0.644680 -0.045101 2.341805152028776e-38
0.909047 0.640594 -0.045187 2.341805152028776e-38
0.919289 0.639904 -0.045516 2.341805152028776e-38
0.926223 0.636906 -0.045685 2.341805152028776e-38
0.927367 0.629919 -0.045569 2.341805152028776e-38
0.932611 0.625723 -0.045654 2.341805152028776e-38
0.935338 0.619832 -0.045615 2.341805152028776e-38
0.938856 0.614490 -0.045617 2.341805152028776e-38
0.940631 0.608096 -0.045540 2.341805152028776e-38
0.946574 0.604391 -0.045665 2.341805152028776e-38
0.947435 0.597440 -0.045545 2.341805152028776e-38
0.949095 0.591027 -0.045464 2.341805152028776e-38
0.954962 0.587242 -0.045585 2.341805152028776e-38
0.965907 0.586578 -0.045953 2.341805152028776e-38
0.968304 0.580671 -0.045914 2.341805152028776e-38
0.970666 0.574756 -0.045873 2.341805152028776e-38
0.972992 0.568832 -0.045830 2.341805152028776e-38
0.981334 0.566407 -0.046071 2.341805152028776e-38
0.987909 0.562976 -0.046235 2.341805152028776e-38
0.990993 0.557530 -0.046234 2.341805152028776e-38
0.991426 0.550612 -0.046110 2.341805152028776e-38
0.996194 0.546107 -0.046188 2.341805152028776e-38
1.001816 0.542052 -0.046306 2.341805152028776e-38
1.007391 0.538012 -0.046427 2.341805152028776e-38
1.012067 0.533462 -0.046507 2.341805152028776e-38
1.014065 0.527493 -0.046463 2.341805152028776e-38
1.016917 0.521975 -0.046459 2.341805152028776e-38
1.026865 0.520062 -0.046778 2.341805152028776e-38
1.035897 0.517672 -0.047061 2.341805152028776e-38
1.036866 0.511224 -0.046977 2.341805152028776e-38
1.036898 0.504344 -0.046852 2.341805152028776e-38
1.042292 0.500071 -0.046968 2.341805152028776e-38
1.044956 0.494480 -0.046962 2.341805152028776e-38
1.049370 0.489786 -0.047042 2.341805152028776e-38
1.053764 0.485059 -0.047120 2.341805152028776e-38
1.058137 0.480299 -0.047197 2.341805152028776e-38
1.061577 0.475098 -0.047232 2.341805152028776e-38
1.064990 0.469881 -0.047266 2.341805152028776e-38
1.068347 0.464708 -0.047306 2.341805152028776e-38
1.071678 0.459514 -0.047344 2.341805152028776e-38
1.072224 0.453131 -0.047259 2.341805152028776e-38
1.075499 0.447907 -0.047295 2.341805152028776e-38
1.080596 0.443424 -0.047410 2.341805152028776e-38
1.091205 0.441218 -0.047775 2.341805152028776e-38
1.093465 0.435587 -0.047774 2.341805152028776e-38
1.099416 0.431405 -0.047934 2.341805152028776e-38
1.103490 0.426452 -0.048011 2.341805152028776e-38
1.107541 0.421470 -0.048087 2.341805152028776e-38
1.109670 0.415833 -0.048089 2.341805152028776e-38
1.112707 0.410530 -0.048131 2.341805152028776e-38
1.118537 0.406231 -0.048293 2.341805152028776e-38
1.122470 0.401210 -0.048373 2.341805152028776e-38
1.126381 0.396160 -0.048451 2.341805152028776e-38
1.133076 0.392138 -0.048659 2.341805152028776e-38
1.136920 0.387093 -0.048745 2.341805152028776e-38
1.138847 0.381386 -0.048749 2.341805152028776e-38
1.141695 0.375981 -0.048791 2.341805152028776e-38
1.146418 0.371174 -0.048914 2.341805152028776e-38
1.150145 0.366100 -0.049005 2.341805152028776e-38
1.157663 0.362196 -0.049259 2.341805152028776e-38
1.163260 0.357639 -0.049430 2.341805152028776e-38
1.160233 0.350436 -0.049235 2.341805152028776e-38
1.195478 0.354638 -0.050663 2.341805152028776e-38
1.187603 0.345999 -0.050273 2.341805152028776e-38
1.279576 0.366033 -0.054109 2.341805152028776e-38
0.872096 0.719895 -0.051228 2.341805152028776e-38
0.860087 0.701457 -0.050293 2.341805152028776e-38
0.858782 0.691962 -0.049990 2.341805152028776e-38
0.865210 0.688729 -0.050137 2.341805152028776e-38
0.871623 0.685453 -0.050284 2.341805152028776e-38
0.875620 0.680338 -0.050297 2.341805152028776e-38
0.878002 0.673984 -0.050218 2.341805152028776e-38
0.883524 0.670040 -0.050319 2.341805152028776e-38
0.885832 0.663658 -0.050237 2.341805152028776e-38
0.889695 0.658470 -0.050245 2.341805152028776e-38
0.895907 0.655082 -0.050391 2.341805152028776e-38
0.898871 0.649304 -0.050354 2.341805152028776e-38
0.900172 0.642353 -0.050225 2.341805152028776e-38
0.912037 0.642891 -0.050684 2.341805152028776e-38
0.919833 0.640468 -0.050916 2.341805152028776e-38
0.925947 0.636899 -0.051059 2.341805152028776e-38
0.930397 0.632159 -0.051111 2.341805152028776e-38
0.933993 0.626833 -0.051115 2.341805152028776e-38
0.936727 0.620934 -0.051072 2.341805152028776e-38
0.939419 0.615032 -0.051029 2.341805152028776e-38
0.942036 0.609177 -0.050988 2.341805152028776e-38
0.944618 0.603313 -0.050946 2.341805152028776e-38
0.947163 0.597439 -0.050903 2.341805152028776e-38
0.951367 0.592612 -0.050949 2.341805152028776e-38
0.962351 0.591950 -0.051356 2.341805152028776e-38
0.974173 0.591762 -0.051813 2.341805152028776e-38
0.972317 0.583240 -0.051542 2.341805152028776e-38
0.973834 0.576793 -0.051451 2.341805152028776e-38
0.977896 0.571860 -0.051495 2.341805152028776e-38
0.984526 0.568404 -0.051673 2.341805152028776e-38
0.989375 0.563965 -0.051765 2.341805152028776e-38
0.991594 0.558021 -0.051719 2.341805152028776e-38
0.992904 0.551585 -0.051626 2.341805152028776e-38
0.995925 0.546112 -0.051623 2.341805152028776e-38
0.999792 0.541101 -0.051663 2.341805152028776e-38
1.007124 0.538013 -0.051890 2.341805152028776e-38
1.010916 0.532999 -0.051933 2.341805152028776e-38
1.011139 0.526114 -0.051794 2.341805152028776e-38
1.027313 0.527456 -0.052469 2.341805152028776e-38
1.047987 0.530897 -0.053371 2.341805152028776e-38
1.043671 0.521694 -0.053006 2.341805152028776e-38
1.040183 0.512995 -0.052686 2.341805152028776e-38
1.039327 0.505660 -0.052500 2.341805152028776e-38
1.040224 0.499213 -0.052404 2.341805152028776e-38
1.043790 0.494054 -0.052441 2.341805152028776e-38
1.049106 0.489788 -0.052576 2.341805152028776e-38
1.053500 0.485062 -0.052664 2.341805152028776e-38
1.056963 0.479891 -0.052705 2.341805152028776e-38
1.062224 0.475513 -0.052835 2.341805152028776e-38
1.064727 0.469883 -0.052827 2.341805152028776e-38
1.066253 0.463913 -0.052781 2.341805152028776e-38
1.069580 0.458730 -0.052823 2.341805152028776e-38
1.074723 0.454302 -0.052955 2.341805152028776e-38
1.088148 0.453291 -0.053494 2.341805152028776e-38
1.096046 0.449876 -0.053759 2.341805152028776e-38
1.101131 0.445339 -0.053894 2.341805152028776e-38
1.095988 0.436698 -0.053531 2.341805152028776e-38
1.099155 0.431408 -0.053574 2.341805152028776e-38
1.102296 0.426097 -0.053615 2.341805152028776e-38
1.107279 0.421475 -0.053745 2.341805152028776e-38
1.109411 0.415831 -0.053747 2.341805152028776e-38
1.114323 0.411221 -0.053884 2.341805152028776e-38
1.117338 0.405890 -0.053929 2.341805152028776e-38
1.120329 0.400540 -0.053973 2.341805152028776e-38
1.131774 0.398153 -0.054424 2.341805152028776e-38
1.144145 0.396054 -0.054927 2.341805152028776e-38
1.148954 0.391275 -0.055068 2.341805152028776e-38
1.141430 0.382335 -0.054619 2.341805152028776e-38
1.141435 0.375979 -0.054531 2.341805152028776e-38
1.146158 0.371173 -0.054669 2.341805152028776e-38
1.151792 0.366695 -0.054860 2.341805152028776e-38
1.154545 0.361291 -0.054916 2.341805152028776e-38
1.160137 0.356749 -0.055108 2.341805152028776e-38
1.155193 0.348984 -0.054799 2.341805152028776e-38
1.194255 0.354347 -0.056576 2.341805152028776e-38
1.204607 0.351011 -0.057002 2.341805152028776e-38
1.235117 0.353374 -0.058383 2.341805152028776e-38
0.871006 0.719242 -0.056570 2.341805152028776e-38
0.859774 0.701442 -0.055586 2.341805152028776e-38
0.858470 0.691948 -0.055251 2.341805152028776e-38
0.864897 0.688717 -0.055414 2.341805152028776e-38
0.869743 0.684203 -0.055476 2.341805152028776e-38
0.872944 0.678486 -0.055441 2.341805152028776e-38
0.879277 0.675189 -0.055604 2.341805152028776e-38
0.884805 0.671237 -0.055715 2.341805152028776e-38
0.885522 0.663650 -0.055525 2.341805152028776e-38
0.892600 0.660836 -0.055733 2.341805152028776e-38
0.894794 0.654482 -0.055644 2.341805152028776e-38
0.899374 0.649880 -0.055704 2.341805152028776e-38
0.904743 0.645828 -0.055812 2.341805152028776e-38
0.913361 0.644037 -0.056119 2.341805152028776e-38
0.919527 0.640459 -0.056275 2.341805152028776e-38
0.925640 0.636892 -0.056433 2.341805152028776e-38
0.927611 0.630470 -0.056340 2.341805152028776e-38
0.931198 0.625159 -0.056345 2.341805152028776e-38
0.932258 0.618172 -0.056197 2.341805152028776e-38
0.939116 0.615025 -0.056400 2.341805152028776e-38
0.941733 0.609172 -0.056355 2.341805152028776e-38
0.947681 0.605461 -0.056510 2.341805152028776e-38
0.947705 0.597970 -0.056311 2.341805152028776e-38
0.950217 0.592084 -0.056261 2.341805152028776e-38
0.956946 0.588805 -0.056461 2.341805152028776e-38
0.968748 0.588648 -0.056966 2.341805152028776e-38
0.969445 0.581698 -0.056817 2.341805152028776e-38
0.972672 0.576285 -0.056817 2.341805152028776e-38
0.975869 0.570855 -0.056815 2.341805152028776e-38
0.982496 0.567405 -0.057012 2.341805152028776e-38
0.986473 0.562481 -0.057063 2.341805152028776e-38
0.988683 0.556553 -0.057013 2.341805152028776e-38
0.989113 0.549647 -0.056860 2.341805152028776e-38
0.995626 0.546116 -0.057057 2.341805152028776e-38
0.999495 0.541104 -0.057101 2.341805152028776e-38
1.005065 0.537073 -0.057251 2.341805152028776e-38
1.007969 0.531603 -0.057250 2.341805152028776e-38
1.012615 0.527041 -0.057346 2.341805152028776e-38
1.024348 0.526093 -0.057843 2.341805152028776e-38
1.035210 0.524583 -0.058287 2.341805152028776e-38
1.028186 0.514103 -0.057733 2.341805152028776e-38
1.029138 0.507696 -0.057630 2.341805152028776e-38
1.034541 0.503480 -0.057776 2.341805152028776e-38
1.038127 0.498356 -0.057820 2.341805152028776e-38
1.040785 0.492780 -0.057812 2.341805152028776e-38
1.047004 0.488945 -0.058010 2.341805152028776e-38
1.051392 0.484231 -0.058108 2.341805152028776e-38
1.053941 0.478658 -0.058103 2.341805152028776e-38
1.056461 0.473071 -0.058096 2.341805152028776e-38
1.060778 0.468279 -0.058188 2.341805152028776e-38
1.063215 0.462719 -0.058186 2.341805152028776e-38
1.069290 0.458733 -0.058384 2.341805152028776e-38
1.073512 0.453918 -0.058480 2.341805152028776e-38
1.083244 0.451377 -0.058875 2.341805152028776e-38
1.086511 0.446091 -0.058918 2.341805152028776e-38
1.085099 0.438972 -0.058716 2.341805152028776e-38
1.088276 0.433742 -0.058765 2.341805152028776e-38
1.096075 0.430316 -0.059063 2.341805152028776e-38
1.101073 0.425741 -0.059209 2.341805152028776e-38
1.106054 0.421127 -0.059353 2.341805152028776e-38
1.109123 0.415829 -0.059404 2.341805152028776e-38
1.113097 0.410874 -0.059506 2.341805152028776e-38
1.116111 0.405550 -0.059556 2.341805152028776e-38
1.117218 0.399533 -0.059505 2.341805152028776e-38
1.127715 0.396830 -0.059953 2.341805152028776e-38
1.134418 0.392779 -0.060207 2.341805152028776e-38
1.138264 0.387728 -0.060313 2.341805152028776e-38
1.142088 0.382648 -0.060418 2.341805152028776e-38
1.141147 0.375977 -0.060271 2.341805152028776e-38
1.143019 0.370249 -0.060273 2.341805152028776e-38
1.145797 0.364864 -0.060332 2.341805152028776e-38
1.151400 0.360385 -0.060545 2.341805152028776e-38
1.155077 0.355271 -0.060656 2.341805152028776e-38
1.151084 0.347819 -0.060365 2.341805152028776e-38
1.184386 0.351498 -0.062029 2.341805152028776e-38
1.169796 0.340930 -0.061193 2.341805152028776e-38
1.209852 0.346209 -0.063221 2.341805152028776e-38
0.873735 0.721767 -0.062175 2.341805152028776e-38
0.857108 0.699531 -0.060714 2.341805152028776e-38
0.857350 0.691307 -0.060456 2.341805152028776e-38
0.862992 0.687460 -0.060581 2.341805152028776e-38
0.870972 0.685422 -0.060868 2.341805152028776e-38
0.876545 0.681536 -0.060994 2.341805152028776e-38
0.879728 0.675785 -0.060953 2.341805152028776e-38
0.882077 0.669415 -0.060856 2.341805152028776e-38
0.885182 0.663641 -0.060812 2.341805152028776e-38
0.888249 0.657853 -0.060766 2.341805152028776e-38
0.893651 0.653881 -0.060888 2.341805152028776e-38
0.900655 0.651041 -0.061118 2.341805152028776e-38
0.906030 0.646981 -0.061237 2.341805152028776e-38
0.911389 0.642881 -0.061354 2.341805152028776e-38
0.915091 0.637598 -0.061359 2.341805152028776e-38
0.921189 0.634054 -0.061533 2.341805152028776e-38
0.924797 0.628779 -0.061540 2.341805152028776e-38
0.926717 0.622371 -0.061436 2.341805152028776e-38
0.929425 0.616514 -0.061384 2.341805152028776e-38
0.937109 0.613929 -0.061661 2.341805152028776e-38
0.941400 0.609167 -0.061722 2.341805152028776e-38
0.944823 0.603844 -0.061726 2.341805152028776e-38
0.943994 0.595837 -0.061454 2.341805152028776e-38
0.948189 0.591028 -0.061510 2.341805152028776e-38
0.953211 0.586714 -0.061618 2.341805152028776e-38
0.960737 0.583978 -0.061896 2.341805152028776e-38
0.966545 0.580155 -0.062063 2.341805152028776e-38
0.971482 0.575777 -0.062173 2.341805152028776e-38
0.975538 0.570857 -0.062226 2.341805152028776e-38
0.980434 0.566410 -0.062332 2.341805152028776e-38
0.985276 0.561986 -0.062443 2.341805152028776e-38
0.987484 0.556064 -0.062388 2.341805152028776e-38
0.990530 0.550621 -0.062386 2.341805152028776e-38
0.995297 0.546121 -0.062491 2.341805152028776e-38
0.999165 0.541111 -0.062540 2.341805152028776e-38
1.004739 0.537074 -0.062704 2.341805152028776e-38
1.008526 0.532072 -0.062757 2.341805152028776e-38
1.010517 0.526123 -0.062699 2.341805152028776e-38
1.016914 0.522449 -0.062913 2.341805152028776e-38
1.018847 0.516465 -0.062850 2.341805152028776e-38
1.021610 0.510978 -0.062848 2.341805152028776e-38
1.027918 0.507258 -0.063065 2.341805152028776e-38
1.034216 0.503485 -0.063280 2.341805152028776e-38
1.038702 0.498795 -0.063383 2.341805152028776e-38
1.044070 0.494499 -0.063539 2.341805152028776e-38
1.050300 0.490638 -0.063755 2.341805152028776e-38
1.049256 0.483399 -0.063532 2.341805152028776e-38
1.049983 0.477011 -0.063418 2.341805152028776e-38
1.054316 0.472263 -0.063521 2.341805152028776e-38
1.068676 0.471918 -0.064226 2.341805152028776e-38
1.074798 0.467902 -0.064442 2.341805152028776e-38
1.075393 0.461493 -0.064329 2.341805152028776e-38
1.075031 0.454701 -0.064160 2.341805152028776e-38
1.077392 0.449079 -0.064154 2.341805152028776e-38
1.075105 0.441548 -0.063872 2.341805152028776e-38
1.082005 0.437848 -0.064143 2.341805152028776e-38
1.088886 0.434113 -0.064417 2.341805152028776e-38
1.096685 0.430685 -0.064743 2.341805152028776e-38
1.103547 0.426827 -0.065013 2.341805152028776e-38
1.105733 0.421133 -0.065007 2.341805152028776e-38
1.108806 0.415826 -0.065061 2.341805152028776e-38
1.113717 0.411219 -0.065228 2.341805152028776e-38
1.116732 0.405891 -0.065283 2.341805152028776e-38
1.116901 0.399535 -0.065172 2.341805152028776e-38
1.120802 0.394513 -0.065279 2.341805152028776e-38
1.131271 0.391792 -0.065775 2.341805152028776e-38
1.134167 0.386434 -0.065837 2.341805152028776e-38
1.137984 0.381375 -0.065952 2.341805152028776e-38
1.137986 0.375037 -0.065846 2.341805152028776e-38
1.142702 0.370247 -0.066013 2.341805152028776e-38
1.144533 0.364548 -0.066021 2.341805152028776e-38
1.150133 0.360074 -0.066254 2.341805152028776e-38
1.152854 0.354673 -0.066321 2.341805152028776e-38
1.147904 0.346942 -0.065948 2.341805152028776e-38
1.188851 0.352909 -0.068209 2.341805152028776e-38
1.178111 0.343422 -0.067510 2.341805152028776e-38
1.229688 0.351956 -0.070391 2.341805152028776e-38
0.871811 0.720474 -0.067460 2.341805152028776e-38
0.859053 0.701407 -0.066170 2.341805152028776e-38
0.858530 0.692544 -0.065831 2.341805152028776e-38
0.864959 0.689312 -0.066026 2.341805152028776e-38
0.869027 0.684175 -0.066040 2.341805152028776e-38
0.874597 0.680294 -0.066177 2.341805152028776e-38
0.877773 0.674554 -0.066133 2.341805152028776e-38
0.880911 0.668800 -0.066087 2.341805152028776e-38
0.883213 0.662433 -0.065979 2.341805152028776e-38
0.887877 0.657845 -0.066049 2.341805152028776e-38
0.891673 0.652690 -0.066062 2.341805152028776e-38
0.897051 0.648691 -0.066193 2.341805152028776e-38
0.900787 0.643491 -0.066203 2.341805152028776e-38
0.908572 0.641147 -0.066509 2.341805152028776e-38
0.914721 0.637594 -0.066694 2.341805152028776e-38
0.923289 0.635743 -0.067062 2.341805152028776e-38
0.923605 0.628211 -0.066831 2.341805152028776e-38
0.925522 0.621810 -0.066718 2.341805152028776e-38
0.929059 0.616511 -0.066722 2.341805152028776e-38
0.935071 0.612834 -0.066903 2.341805152028776e-38
0.939361 0.608077 -0.066969 2.341805152028776e-38
0.942778 0.602765 -0.066974 2.341805152028776e-38
0.941944 0.594769 -0.066678 2.341805152028776e-38
0.948674 0.591556 -0.066918 2.341805152028776e-38
0.952848 0.586716 -0.066977 2.341805152028776e-38
0.961229 0.584493 -0.067338 2.341805152028776e-38
0.966184 0.580154 -0.067460 2.341805152028776e-38
0.971979 0.576287 -0.067639 2.341805152028776e-38
0.973453 0.569852 -0.067518 2.341805152028776e-38
0.978343 0.565416 -0.067634 2.341805152028776e-38
0.983184 0.560995 -0.067753 2.341805152028776e-38
0.986256 0.555575 -0.067753 2.341805152028776e-38
0.988427 0.549653 -0.067691 2.341805152028776e-38
0.993188 0.545166 -0.067807 2.341805152028776e-38
0.997051 0.540167 -0.067860 2.341805152028776e-38
1.003503 0.536604 -0.068097 2.341805152028776e-38
1.008170 0.532075 -0.068215 2.341805152028776e-38
1.011932 0.527050 -0.068271 2.341805152028776e-38
1.013006 0.520631 -0.068145 2.341805152028776e-38
1.018491 0.516474 -0.068317 2.341805152028776e-38
1.026615 0.513660 -0.068671 2.341805152028776e-38
1.035621 0.511239 -0.069086 2.341805152028776e-38
1.041939 0.507425 -0.069320 2.341805152028776e-38
1.043746 0.501396 -0.069254 2.341805152028776e-38
1.042812 0.494082 -0.069006 2.341805152028776e-38
1.045426 0.488527 -0.069001 2.341805152028776e-38
1.047998 0.482985 -0.068998 2.341805152028776e-38
1.052359 0.478256 -0.069112 2.341805152028776e-38
1.059431 0.474720 -0.069403 2.341805152028776e-38
1.070147 0.472735 -0.069931 2.341805152028776e-38
1.064380 0.463519 -0.069389 2.341805152028776e-38
1.070456 0.459527 -0.069625 2.341805152028776e-38
1.072842 0.453929 -0.069621 2.341805152028776e-38
1.075199 0.448318 -0.069615 2.341805152028776e-38
1.079374 0.443454 -0.069725 2.341805152028776e-38
1.086287 0.439721 -0.070019 2.341805152028776e-38
1.091321 0.435224 -0.070197 2.341805152028776e-38
1.097266 0.431053 -0.070434 2.341805152028776e-38
1.101336 0.426112 -0.070548 2.341805152028776e-38
1.105383 0.421141 -0.070661 2.341805152028776e-38
1.106592 0.415122 -0.070599 2.341805152028776e-38
1.113371 0.411218 -0.070900 2.341805152028776e-38
1.115447 0.405550 -0.070900 2.341805152028776e-38
1.119375 0.400546 -0.071019 2.341805152028776e-38
1.121397 0.394849 -0.071016 2.341805152028776e-38
1.124324 0.389497 -0.071076 2.341805152028776e-38
1.131932 0.385784 -0.071441 2.341805152028776e-38
1.136692 0.381052 -0.071626 2.341805152028776e-38
1.138589 0.375346 -0.071631 2.341805152028776e-38
1.142357 0.370246 -0.071753 2.341805152028776e-38
1.145143 0.364836 -0.071818 2.341805152028776e-38
1.148839 0.359762 -0.071952 2.341805152028776e-38
1.150604 0.354073 -0.071966 2.341805152028776e-38
1.148519 0.347220 -0.071740 2.341805152028776e-38
1.194240 0.354604 -0.074497 2.341805152028776e-38
1.216100 0.354573 -0.075764 2.341805152028776e-38
1.256201 0.359623 -0.078179 2.341805152028776e-38
0.880625 0.728082 -0.073626 2.341805152028776e-38
0.860964 0.703280 -0.071655 2.341805152028776e-38
0.859678 0.693780 -0.071225 2.341805152028776e-38
0.864552 0.689296 -0.071306 2.341805152028776e-38
0.869404 0.684779 -0.071386 2.341805152028776e-38
0.876557 0.682115 -0.071662 2.341805152028776e-38
0.877370 0.674538 -0.071422 2.341805152028776e-38
0.882098 0.669993 -0.071501 2.341805152028776e-38
0.884408 0.663619 -0.071385 2.341805152028776e-38
0.887475 0.657836 -0.071332 2.341805152028776e-38
0.890470 0.652087 -0.071281 2.341805152028776e-38
0.895844 0.648095 -0.071423 2.341805152028776e-38
0.901201 0.644062 -0.071562 2.341805152028776e-38
0.909802 0.642291 -0.071958 2.341805152028776e-38
0.915957 0.638731 -0.072158 2.341805152028776e-38
0.921247 0.634601 -0.072296 2.341805152028776e-38
0.925683 0.629887 -0.072370 2.341805152028776e-38
0.927610 0.623474 -0.072248 2.341805152028776e-38
0.931157 0.618163 -0.072253 2.341805152028776e-38
0.935508 0.613380 -0.072320 2.341805152028776e-38
0.938130 0.607528 -0.072261 2.341805152028776e-38
0.939863 0.601148 -0.072138 2.341805152028776e-38
0.944084 0.596366 -0.072206 2.341805152028776e-38
0.950822 0.593141 -0.072465 2.341805152028776e-38
0.950755 0.585672 -0.072206 2.341805152028776e-38
0.959987 0.583971 -0.072660 2.341805152028776e-38
0.964082 0.579125 -0.072727 2.341805152028776e-38
0.969870 0.575269 -0.072921 2.341805152028776e-38
0.973061 0.569854 -0.072920 2.341805152028776e-38
0.978814 0.565921 -0.073109 2.341805152028776e-38
0.983662 0.561489 -0.073238 2.341805152028776e-38
0.984999 0.555086 -0.073109 2.341805152028776e-38
0.989784 0.550627 -0.073236 2.341805152028776e-38
0.993674 0.545651 -0.073296 2.341805152028776e-38
0.997540 0.540650 -0.073355 2.341805152028776e-38
1.005758 0.538017 -0.073738 2.341805152028776e-38
1.010432 0.533475 -0.073866 2.341805152028776e-38
1.010661 0.526594 -0.073669 2.341805152028776e-38
1.014395 0.521551 -0.073727 2.341805152028776e-38
1.021665 0.518289 -0.074041 2.341805152028776e-38
1.033371 0.517235 -0.074681 2.341805152028776e-38
1.042394 0.514777 -0.075130 2.341805152028776e-38
1.043346 0.508305 -0.074996 2.341805152028776e-38
1.038862 0.499243 -0.074473 2.341805152028776e-38
1.040624 0.493237 -0.074399 2.341805152028776e-38
1.047758 0.489797 -0.074715 2.341805152028776e-38
1.054868 0.486332 -0.075034 2.341805152028776e-38
1.059245 0.481567 -0.075158 2.341805152028776e-38
1.053585 0.472279 -0.074570 2.341805152028776e-38
1.059722 0.468309 -0.074819 2.341805152028776e-38
1.061258 0.462325 -0.074747 2.341805152028776e-38
1.068244 0.458743 -0.075067 2.341805152028776e-38
1.070626 0.453156 -0.075063 2.341805152028776e-38
1.077584 0.449478 -0.075378 2.341805152028776e-38
1.078995 0.443464 -0.075305 2.341805152028776e-38
1.084062 0.438971 -0.075492 2.341805152028776e-38
1.088164 0.434117 -0.075620 2.341805152028776e-38
1.094102 0.429962 -0.075876 2.341805152028776e-38
