VERSION .7
FIELDS x y z rgb
SIZE 4 4 4 4
TYPE F F F F
COUNT 1 1 1 1
WIDTH 957
HEIGHT 1
VIEWPOINT 0 0 0 1 0 0 0
POINTS 957
DATA ascii
0.987679 0.661920 -0.008523 2.341805152028776e-38
0.992279 0.656818 -0.008530 2.341805152028776e-38
0.998504 0.652814 -0.008552 2.341805152028776e-38
1.001332 0.646626 -0.008546 2.341805152028776e-38
1.004966 0.640964 -0.008546 2.341805152028776e-38
1.008567 0.635282 -0.008546 2.341805152028776e-38
1.015533 0.631692 -0.008575 2.341805152028776e-38
1.021617 0.627556 -0.008597 2.341805152028776e-38
1.028519 0.623926 -0.008626 2.341805152028776e-38
1.033696 0.619211 -0.008640 2.341805152028776e-38
1.038853 0.614458 -0.008654 2.341805152028776e-38
1.042262 0.608658 -0.008654 2.341805152028776e-38
1.046484 0.603374 -0.008661 2.341805152028776e-38
1.050658 0.598100 -0.008668 2.341805152028776e-38
1.055678 0.593288 -0.008682 2.341805152028776e-38
1.058053 0.586983 -0.008675 2.341805152028776e-38
1.062145 0.581631 -0.008681 2.341805152028776e-38
1.067949 0.577239 -0.008702 2.341805152028776e-38
1.073717 0.572839 -0.008723 2.341805152028776e-38
1.078584 0.567927 -0.008737 2.341805152028776e-38
1.082542 0.562518 -0.008744 2.341805152028776e-38
1.088252 0.557996 -0.008764 2.341805152028776e-38
1.092142 0.552562 -0.008771 2.341805152028776e-38
1.096880 0.547589 -0.008785 2.341805152028776e-38
1.101596 0.542580 -0.008799 2.341805152028776e-38
1.108988 0.538848 -0.008834 2.341805152028776e-38
1.109157 0.531595 -0.008811 2.341805152028776e-38
1.116495 0.527812 -0.008846 2.341805152028776e-38
1.121993 0.523161 -0.008867 2.341805152028776e-38
1.124747 0.517213 -0.008867 2.341805152028776e-38
1.124738 0.510011 -0.008844 2.341805152028776e-38
1.131074 0.505682 -0.008872 2.341805152028776e-38
1.133719 0.499724 -0.008871 2.341805152028776e-38
1.139066 0.494989 -0.008892 2.341805152028776e-38
1.140717 0.488637 -0.008884 2.341805152028776e-38
1.146940 0.484226 -0.008912 2.341805152028776e-38
1.153147 0.479764 -0.008940 2.341805152028776e-38
1.155622 0.473771 -0.008939 2.341805152028776e-38
1.158049 0.467808 -0.008939 2.341805152028776e-38
1.163232 0.462941 -0.008960 2.341805152028776e-38
1.168396 0.458033 -0.008981 2.341805152028776e-38
1.172608 0.452724 -0.008995 2.341805152028776e-38
1.177715 0.447779 -0.009016 2.341805152028776e-38
1.182786 0.442836 -0.009037 2.341805152028776e-38
1.186899 0.437507 -0.009052 2.341805152028776e-38
1.190989 0.432148 -0.009066 2.341805152028776e-38
1.193171 0.426086 -0.009066 2.341805152028776e-38
1.196252 0.420385 -0.009073 2.341805152028776e-38
1.201180 0.415360 -0.009095 2.341805152028776e-38
1.206089 0.410297 -0.009118 2.341805152028776e-38
1.210976 0.405194 -0.009140 2.341805152028776e-38
1.217742 0.400678 -0.009176 2.341805152028776e-38
1.221626 0.395222 -0.009191 2.341805152028776e-38
1.224519 0.389479 -0.009200 2.341805152028776e-38
1.228339 0.384015 -0.009216 2.341805152028776e-38
1.233091 0.378816 -0.009239 2.341805152028776e-38
1.237821 0.373580 -0.009262 2.341805152028776e-38
1.238683 0.367211 -0.009257 2.341805152028776e-38
1.235658 0.359769 -0.009225 2.341805152028776e-38
1.266241 0.361986 -0.009443 2.341805152028776e-38
1.307465 0.366884 -0.009740 2.341805152028776e-38
0.982372 0.780862 -0.014959 2.341805152028776e-38
0.958643 0.752830 -0.014533 2.341805152028776e-38
0.943283 0.731881 -0.014239 2.341805152028776e-38
0.936440 0.717831 -0.014075 2.341805152028776e-38
0.943017 0.714148 -0.014114 2.341805152028776e-38
0.945580 0.707419 -0.014092 2.341805152028776e-38
0.950485 0.702497 -0.014106 2.341805152028776e-38
0.955340 0.697578 -0.014121 2.341805152028776e-38
0.960169 0.692627 -0.014135 2.341805152028776e-38
0.964159 0.687062 -0.014137 2.341805152028776e-38
0.968116 0.681474 -0.014138 2.341805152028776e-38
0.971198 0.675325 -0.014128 2.341805152028776e-38
0.979162 0.672596 -0.014190 2.341805152028776e-38
0.982989 0.666990 -0.014191 2.341805152028776e-38
0.986783 0.661363 -0.014192 2.341805152028776e-38
0.988879 0.654610 -0.014169 2.341805152028776e-38
0.995929 0.651171 -0.014218 2.341805152028776e-38
0.997068 0.643912 -0.014183 2.341805152028776e-38
1.001529 0.638813 -0.014196 2.341805152028776e-38
1.005119 0.633150 -0.014196 2.341805152028776e-38
1.013770 0.630636 -0.014268 2.341805152028776e-38
1.016441 0.624415 -0.014256 2.341805152028776e-38
1.028455 0.623926 -0.014376 2.341805152028776e-38
1.032774 0.618698 -0.014388 2.341805152028776e-38
1.037928 0.613950 -0.014412 2.341805152028776e-38
1.039607 0.607146 -0.014387 2.341805152028776e-38
1.043822 0.601876 -0.014399 2.341805152028776e-38
1.049725 0.597605 -0.014435 2.341805152028776e-38
1.054742 0.592798 -0.014458 2.341805152028776e-38
1.055366 0.585528 -0.014422 2.341805152028776e-38
1.062081 0.581632 -0.014468 2.341805152028776e-38
1.065247 0.575812 -0.014468 2.341805152028776e-38
1.071007 0.571427 -0.014503 2.341805152028776e-38
1.074097 0.565598 -0.014503 2.341805152028776e-38
1.081591 0.562058 -0.014561 2.341805152028776e-38
1.081960 0.554804 -0.014524 2.341805152028776e-38
1.087618 0.550305 -0.014558 2.341805152028776e-38
1.094133 0.546249 -0.014606 2.341805152028776e-38
1.100636 0.542140 -0.014652 2.341805152028776e-38
1.103528 0.536227 -0.014651 2.341805152028776e-38
1.107291 0.530732 -0.014661 2.341805152028776e-38
1.112817 0.526102 -0.014696 2.341805152028776e-38
1.117399 0.521048 -0.014719 2.341805152028776e-38
1.121051 0.515542 -0.014730 2.341805152028776e-38
1.123765 0.509600 -0.014728 2.341805152028776e-38
1.123709 0.502418 -0.014691 2.341805152028776e-38
1.129082 0.497708 -0.014725 2.341805152028776e-38
1.134418 0.492997 -0.014760 2.341805152028776e-38
1.140655 0.488638 -0.014807 2.341805152028776e-38
1.144114 0.483061 -0.014818 2.341805152028776e-38
1.150315 0.478613 -0.014864 2.341805152028776e-38
1.151860 0.472254 -0.014851 2.341805152028776e-38
1.157987 0.467808 -0.014898 2.341805152028776e-38
1.158525 0.461093 -0.014874 2.341805152028776e-38
1.165542 0.456939 -0.014933 2.341805152028776e-38
1.169747 0.451645 -0.014955 2.341805152028776e-38
1.173915 0.446357 -0.014978 2.341805152028776e-38
1.179916 0.441784 -0.015027 2.341805152028776e-38
1.184962 0.436816 -0.015063 2.341805152028776e-38
1.187168 0.430784 -0.015062 2.341805152028776e-38
1.190285 0.425078 -0.015074 2.341805152028776e-38
1.195248 0.420052 -0.015110 2.341805152028776e-38
1.200174 0.415032 -0.015147 2.341805152028776e-38
1.202241 0.409008 -0.015148 2.341805152028776e-38
1.208070 0.404242 -0.015197 2.341805152028776e-38
1.213882 0.399428 -0.015245 2.341805152028776e-38
1.216809 0.393681 -0.015259 2.341805152028776e-38
1.220647 0.388264 -0.015286 2.341805152028776e-38
1.228278 0.384013 -0.015361 2.341805152028776e-38
1.233986 0.379108 -0.015411 2.341805152028776e-38
1.235846 0.373000 -0.015413 2.341805152028776e-38
1.236705 0.366638 -0.015405 2.341805152028776e-38
1.235598 0.359765 -0.015375 2.341805152028776e-38
1.262334 0.360882 -0.015691 2.341805152028776e-38
1.299700 0.364718 -0.016138 2.341805152028776e-38
0.982266 0.780858 -0.020943 2.341805152028776e-38
0.960114 0.754060 -0.020380 2.341805152028776e-38
0.941603 0.730651 -0.019901 2.341805152028776e-38
0.937135 0.718436 -0.019722 2.341805152028776e-38
0.941324 0.712938 -0.019726 2.341805152028776e-38
0.943880 0.706218 -0.019695 2.341805152028776e-38
0.947171 0.700117 -0.019682 2.341805152028776e-38
0.952819 0.695806 -0.019719 2.341805152028776e-38
0.959260 0.692039 -0.019773 2.341805152028776e-38
0.962432 0.685899 -0.019758 2.341805152028776e-38
0.966383 0.680322 -0.019760 2.341805152028776e-38
0.973564 0.677035 -0.019829 2.341805152028776e-38
0.979064 0.672594 -0.019866 2.341805152028776e-38
0.983719 0.667550 -0.019884 2.341805152028776e-38
0.986686 0.661362 -0.019869 2.341805152028776e-38
0.989615 0.655162 -0.019853 2.341805152028776e-38
0.994159 0.650075 -0.019871 2.341805152028776e-38
0.996972 0.643911 -0.019856 2.341805152028776e-38
1.002276 0.639350 -0.019891 2.341805152028776e-38
1.007560 0.634749 -0.019925 2.341805152028776e-38
1.011976 0.629580 -0.019941 2.341805152028776e-38
1.017197 0.624937 -0.019975 2.341805152028776e-38
1.024939 0.621851 -0.020060 2.341805152028776e-38
1.028389 0.616128 -0.020060 2.341805152028776e-38
1.033529 0.611405 -0.020093 2.341805152028776e-38
1.036921 0.605634 -0.020092 2.341805152028776e-38
1.042860 0.601376 -0.020142 2.341805152028776e-38
1.049630 0.597605 -0.020209 2.341805152028776e-38
1.053775 0.592309 -0.020225 2.341805152028776e-38
1.057894 0.586985 -0.020241 2.341805152028776e-38
1.063739 0.582594 -0.020289 2.341805152028776e-38
1.066912 0.576763 -0.020288 2.341805152028776e-38
1.071795 0.571898 -0.020321 2.341805152028776e-38
1.075772 0.566531 -0.020337 2.341805152028776e-38
1.077947 0.560216 -0.020319 2.341805152028776e-38
1.083645 0.555718 -0.020367 2.341805152028776e-38
1.090201 0.551660 -0.020432 2.341805152028776e-38
1.094934 0.546697 -0.020465 2.341805152028776e-38
1.099645 0.541699 -0.020497 2.341805152028776e-38
1.103434 0.536229 -0.020512 2.341805152028776e-38
1.106295 0.530302 -0.020509 2.341805152028776e-38
1.115435 0.527385 -0.020624 2.341805152028776e-38
1.120024 0.522317 -0.020657 2.341805152028776e-38
1.120957 0.515544 -0.020622 2.341805152028776e-38
1.123671 0.509602 -0.020620 2.341805152028776e-38
1.126354 0.503645 -0.020617 2.341805152028776e-38
1.132649 0.499321 -0.020682 2.341805152028776e-38
1.137994 0.494592 -0.020731 2.341805152028776e-38
1.140562 0.488640 -0.020730 2.341805152028776e-38
1.145863 0.483841 -0.020778 2.341805152028776e-38
1.152068 0.479384 -0.020843 2.341805152028776e-38
1.152693 0.472633 -0.020808 2.341805152028776e-38
1.154187 0.466310 -0.020791 2.341805152028776e-38
1.157505 0.460724 -0.020807 2.341805152028776e-38
1.163588 0.456211 -0.020872 2.341805152028776e-38
1.167789 0.450927 -0.020904 2.341805152028776e-38
1.173824 0.446356 -0.020970 2.341805152028776e-38
1.181697 0.442485 -0.021071 2.341805152028776e-38
1.182993 0.436124 -0.021054 2.341805152028776e-38
1.188956 0.431467 -0.021121 2.341805152028776e-38
1.192076 0.425752 -0.021137 2.341805152028776e-38
1.196100 0.420381 -0.021170 2.341805152028776e-38
1.198193 0.414377 -0.021173 2.341805152028776e-38
1.201203 0.408684 -0.021191 2.341805152028776e-38
1.207031 0.403924 -0.021259 2.341805152028776e-38
1.211890 0.398802 -0.021310 2.341805152028776e-38
1.216718 0.393677 -0.021362 2.341805152028776e-38
1.222462 0.388867 -0.021434 2.341805152028776e-38
1.228187 0.384009 -0.021505 2.341805152028776e-38
1.231983 0.378518 -0.021542 2.341805152028776e-38
1.235754 0.372998 -0.021578 2.341805152028776e-38
1.237574 0.366915 -0.021583 2.341805152028776e-38
1.234548 0.359479 -0.021507 2.341805152028776e-38
1.256474 0.359226 -0.021866 2.341805152028776e-38
1.294792 0.363361 -0.022509 2.341805152028776e-38
0.989167 0.786453 -0.027119 2.341805152028776e-38
0.965481 0.758377 -0.026353 2.341805152028776e-38
0.941470 0.730646 -0.025587 2.341805152028776e-38
0.933829 0.715998 -0.025271 2.341805152028776e-38
0.941192 0.712934 -0.025361 2.341805152028776e-38
0.940546 0.703819 -0.025237 2.341805152028776e-38
0.946237 0.699518 -0.025284 2.341805152028776e-38
0.951074 0.694623 -0.025310 2.341805152028776e-38
0.957508 0.690866 -0.025379 2.341805152028776e-38
0.959859 0.684156 -0.025339 2.341805152028776e-38
0.967887 0.681471 -0.025449 2.341805152028776e-38
0.973434 0.677032 -0.025495 2.341805152028776e-38
0.978935 0.672591 -0.025541 2.341805152028776e-38
0.980280 0.665302 -0.025480 2.341805152028776e-38
0.983235 0.659134 -0.025460 2.341805152028776e-38
0.986151 0.652953 -0.025440 2.341805152028776e-38
0.994031 0.650073 -0.025549 2.341805152028776e-38
0.997684 0.644452 -0.025551 2.341805152028776e-38
1.002991 0.639886 -0.025595 2.341805152028776e-38
1.003203 0.632084 -0.025510 2.341805152028776e-38
1.010149 0.628525 -0.025596 2.341805152028776e-38
1.012811 0.622319 -0.025575 2.341805152028776e-38
1.022247 0.620294 -0.025726 2.341805152028776e-38
1.027404 0.615614 -0.025770 2.341805152028776e-38
1.034261 0.611915 -0.025856 2.341805152028776e-38
1.035929 0.605132 -0.025811 2.341805152028776e-38
1.041001 0.600376 -0.025854 2.341805152028776e-38
1.046028 0.595627 -0.025897 2.341805152028776e-38
1.051033 0.590840 -0.025939 2.341805152028776e-38
1.053395 0.584561 -0.025916 2.341805152028776e-38
1.060104 0.580675 -0.026000 2.341805152028776e-38
1.065027 0.575812 -0.026042 2.341805152028776e-38
1.069023 0.570487 -0.026063 2.341805152028776e-38
1.073876 0.565601 -0.026105 2.341805152028776e-38
1.076934 0.559757 -0.026103 2.341805152028776e-38
1.081739 0.554809 -0.026143 2.341805152028776e-38
1.086507 0.549855 -0.026184 2.341805152028776e-38
1.089441 0.544018 -0.026183 2.341805152028776e-38
1.095035 0.539492 -0.026246 2.341805152028776e-38
1.099711 0.534484 -0.026286 2.341805152028776e-38
1.105267 0.529873 -0.026347 2.341805152028776e-38
1.108080 0.523967 -0.026345 2.341805152028776e-38
1.114463 0.519783 -0.026430 2.341805152028776e-38
1.116291 0.513457 -0.026406 2.341805152028776e-38
1.122636 0.509191 -0.026490 2.341805152028776e-38
1.125316 0.503240 -0.026486 2.341805152028776e-38
1.132526 0.499322 -0.026591 2.341805152028776e-38
1.136036 0.493796 -0.026612 2.341805152028776e-38
1.140439 0.488641 -0.026653 2.341805152028776e-38
1.142976 0.482676 -0.026651 2.341805152028776e-38
1.148252 0.477850 -0.026712 2.341805152028776e-38
1.147945 0.470736 -0.026645 2.341805152028776e-38
1.153138 0.465936 -0.026710 2.341805152028776e-38
1.156453 0.460355 -0.026730 2.341805152028776e-38
1.165326 0.456942 -0.026879 2.341805152028776e-38
1.169532 0.451649 -0.026919 2.341805152028776e-38
1.175571 0.447066 -0.027004 2.341805152028776e-38
1.178765 0.441432 -0.027026 2.341805152028776e-38
1.182871 0.436124 -0.027070 2.341805152028776e-38
1.186013 0.430444 -0.027091 2.341805152028776e-38
1.190070 0.425080 -0.027133 2.341805152028776e-38
1.192206 0.419052 -0.027133 2.341805152028776e-38
1.196182 0.413721 -0.027179 2.341805152028776e-38
1.200135 0.408360 -0.027224 2.341805152028776e-38
1.206909 0.403922 -0.027333 2.341805152028776e-38
1.212718 0.399114 -0.027420 2.341805152028776e-38
1.216597 0.393671 -0.027465 2.341805152028776e-38
1.218530 0.387649 -0.027471 2.341805152028776e-38
1.224249 0.382811 -0.027562 2.341805152028776e-38
1.228038 0.377339 -0.027610 2.341805152028776e-38
1.232761 0.372127 -0.027679 2.341805152028776e-38
1.233619 0.365770 -0.027663 2.341805152028776e-38
1.234428 0.359470 -0.027652 2.341805152028776e-38
1.253469 0.358394 -0.028048 2.341805152028776e-38
1.286966 0.361192 -0.028767 2.341805152028776e-38
0.992119 0.788935 -0.033250 2.341805152028776e-38
0.965310 0.758369 -0.032209 2.341805152028776e-38
0.940514 0.730026 -0.031246 2.341805152028776e-38
0.935252 0.717209 -0.030938 2.341805152028776e-38
0.937840 0.710514 -0.030892 2.341805152028776e-38
0.940382 0.703815 -0.030844 2.341805152028776e-38
0.945271 0.698918 -0.030876 2.341805152028776e-38
0.950912 0.694618 -0.030934 2.341805152028776e-38
0.956534 0.690277 -0.030992 2.341805152028776e-38
0.958882 0.683572 -0.030944 2.341805152028776e-38
0.964454 0.679166 -0.030999 2.341805152028776e-38
0.969990 0.674744 -0.031055 2.341805152028776e-38
0.973829 0.669191 -0.031059 2.341805152028776e-38
0.977637 0.663615 -0.031063 2.341805152028776e-38
0.982243 0.658575 -0.031092 2.341805152028776e-38
0.985156 0.652400 -0.031067 2.341805152028776e-38
0.992197 0.648975 -0.031173 2.341805152028776e-38
0.994165 0.642280 -0.031124 2.341805152028776e-38
0.998617 0.637197 -0.031152 2.341805152028776e-38
1.003888 0.632616 -0.031205 2.341805152028776e-38
1.009140 0.627997 -0.031258 2.341805152028776e-38
1.013504 0.622841 -0.031284 2.341805152028776e-38
1.021233 0.619775 -0.031417 2.341805152028776e-38
1.027244 0.615614 -0.031497 2.341805152028776e-38
1.033241 0.611406 -0.031575 2.341805152028776e-38
1.035769 0.605133 -0.031547 2.341805152028776e-38
1.040843 0.600375 -0.031599 2.341805152028776e-38
1.045869 0.595627 -0.031652 2.341805152028776e-38
1.050003 0.590351 -0.031677 2.341805152028776e-38
1.054111 0.585048 -0.031702 2.341805152028776e-38
1.059069 0.580198 -0.031752 2.341805152028776e-38
1.065749 0.576288 -0.031855 2.341805152028776e-38
1.068865 0.570488 -0.031855 2.341805152028776e-38
1.072834 0.565137 -0.031879 2.341805152028776e-38
1.075890 0.559298 -0.031877 2.341805152028776e-38
1.082471 0.555268 -0.031979 2.341805152028776e-38
1.084567 0.548952 -0.031950 2.341805152028776e-38
1.091968 0.545360 -0.032080 2.341805152028776e-38
1.096672 0.540378 -0.032131 2.341805152028776e-38
1.104050 0.536672 -0.032259 2.341805152028776e-38
1.105110 0.529877 -0.032202 2.341805152028776e-38
1.108829 0.524395 -0.032225 2.341805152028776e-38
1.113401 0.519362 -0.032277 2.341805152028776e-38
1.117952 0.514295 -0.032327 2.341805152028776e-38
1.122480 0.509195 -0.032377 2.341805152028776e-38
1.126073 0.503653 -0.032399 2.341805152028776e-38
1.132371 0.499322 -0.032500 2.341805152028776e-38
1.134965 0.493399 -0.032499 2.341805152028776e-38
1.137527 0.487462 -0.032497 2.341805152028776e-38
1.142821 0.482679 -0.032573 2.341805152028776e-38
1.148096 0.477854 -0.032648 2.341805152028776e-38
1.148718 0.471115 -0.032593 2.341805152028776e-38
1.151131 0.465187 -0.032593 2.341805152028776e-38
1.158157 0.461096 -0.032723 2.341805152028776e-38
1.164242 0.456580 -0.032826 2.341805152028776e-38
1.170310 0.452013 -0.032928 2.341805152028776e-38
1.175418 0.447064 -0.033005 2.341805152028776e-38
1.177677 0.441081 -0.033006 2.341805152028776e-38
1.178966 0.434741 -0.032980 2.341805152028776e-38
1.185860 0.430445 -0.033111 2.341805152028776e-38
1.191800 0.425754 -0.033215 2.341805152028776e-38
1.192998 0.419380 -0.033188 2.341805152028776e-38
1.198865 0.414699 -0.033297 2.341805152028776e-38
1.201876 0.409002 -0.033326 2.341805152028776e-38
1.207704 0.404238 -0.033433 2.341805152028776e-38
1.210666 0.398488 -0.033461 2.341805152028776e-38
1.212642 0.392434 -0.033463 2.341805152028776e-38
1.219331 0.387946 -0.033602 2.341805152028776e-38
1.224097 0.382806 -0.033687 2.341805152028776e-38
1.228842 0.377627 -0.033772 2.341805152028776e-38
1.231652 0.371834 -0.033803 2.341805152028776e-38
1.234428 0.366043 -0.033836 2.341805152028776e-38
1.234278 0.359460 -0.033795 2.341805152028776e-38
1.252355 0.358108 -0.034254 2.341805152028776e-38
1.276223 0.358210 -0.034870 2.341805152028776e-38
1.307831 0.360211 -0.035697 2.341805152028776e-38
0.991904 0.788928 -0.039295 2.341805152028776e-38
0.962746 0.756507 -0.037971 2.341805152028776e-38
0.939525 0.729405 -0.036896 2.341805152028776e-38
0.929502 0.712943 -0.036346 2.341805152028776e-38
0.933660 0.707490 -0.036353 2.341805152028776e-38
0.938585 0.702612 -0.036390 2.341805152028776e-38
0.945076 0.698910 -0.036489 2.341805152028776e-38
0.950716 0.694612 -0.036559 2.341805152028776e-38
0.952286 0.687347 -0.036471 2.341805152028776e-38
0.956246 0.681827 -0.036476 2.341805152028776e-38
0.964259 0.679163 -0.036635 2.341805152028776e-38
0.968155 0.673597 -0.036639 2.341805152028776e-38
0.974459 0.669752 -0.036737 2.341805152028776e-38
0.975789 0.662489 -0.036648 2.341805152028776e-38
0.981219 0.658017 -0.036713 2.341805152028776e-38
0.982463 0.650744 -0.036622 2.341805152028776e-38
0.990332 0.647877 -0.036779 2.341805152028776e-38
0.993134 0.641735 -0.036751 2.341805152028776e-38
1.000110 0.638271 -0.036878 2.341805152028776e-38
1.002851 0.632083 -0.036848 2.341805152028776e-38
1.009796 0.628526 -0.036972 2.341805152028776e-38
1.014166 0.623362 -0.037003 2.341805152028776e-38
1.021042 0.619774 -0.037129 2.341805152028776e-38
1.027910 0.616128 -0.037254 2.341805152028776e-38
1.033909 0.611916 -0.037347 2.341805152028776e-38
1.034715 0.604631 -0.037252 2.341805152028776e-38
1.039788 0.599875 -0.037313 2.341805152028776e-38
1.043942 0.594637 -0.037344 2.341805152028776e-38
1.046328 0.588393 -0.037313 2.341805152028776e-38
1.050425 0.583110 -0.037342 2.341805152028776e-38
1.056248 0.578760 -0.037432 2.341805152028776e-38
1.062044 0.574386 -0.037523 2.341805152028776e-38
1.066913 0.569547 -0.037584 2.341805152028776e-38
1.070877 0.564207 -0.037614 2.341805152028776e-38
1.075701 0.559301 -0.037673 2.341805152028776e-38
1.076056 0.552079 -0.037576 2.341805152028776e-38
1.081705 0.547599 -0.037666 2.341805152028776e-38
1.088204 0.543575 -0.037789 2.341805152028776e-38
1.096484 0.540380 -0.037973 2.341805152028776e-38
1.098468 0.534054 -0.037938 2.341805152028776e-38
1.103119 0.529018 -0.037996 2.341805152028776e-38
1.104125 0.522259 -0.037929 2.341805152028776e-38
1.108686 0.517250 -0.037990 2.341805152028776e-38
1.113225 0.512209 -0.038050 2.341805152028776e-38
1.119563 0.507960 -0.038170 2.341805152028776e-38
1.123149 0.502433 -0.038197 2.341805152028776e-38
1.126699 0.496903 -0.038223 2.341805152028776e-38
1.132030 0.492205 -0.038315 2.341805152028776e-38
1.137342 0.487465 -0.038406 2.341805152028776e-38
1.141715 0.482294 -0.038465 2.341805152028776e-38
1.144219 0.476322 -0.038461 2.341805152028776e-38
1.142986 0.468839 -0.038333 2.341805152028776e-38
1.150021 0.464814 -0.038488 2.341805152028776e-38
1.154259 0.459619 -0.038549 2.341805152028776e-38
1.162196 0.455852 -0.038733 2.341805152028776e-38
1.169192 0.451656 -0.038884 2.341805152028776e-38
1.173367 0.446352 -0.038943 2.341805152028776e-38
1.173749 0.439677 -0.038883 2.341805152028776e-38
1.177846 0.434395 -0.038946 2.341805152028776e-38
1.184737 0.430105 -0.039100 2.341805152028776e-38
1.188792 0.424747 -0.039161 2.341805152028776e-38
1.190930 0.418713 -0.039160 2.341805152028776e-38
1.197738 0.414368 -0.039320 2.341805152028776e-38
1.201694 0.408999 -0.039385 2.341805152028776e-38
1.203730 0.402967 -0.039388 2.341805152028776e-38
1.205736 0.396924 -0.039389 2.341805152028776e-38
1.210560 0.391810 -0.039485 2.341805152028776e-38
1.216293 0.387030 -0.039617 2.341805152028776e-38
1.223915 0.382799 -0.039811 2.341805152028776e-38
1.226749 0.377034 -0.039849 2.341805152028776e-38
1.229556 0.371251 -0.039886 2.341805152028776e-38
1.231373 0.365177 -0.039893 2.341805152028776e-38
1.234098 0.359447 -0.039939 2.341805152028776e-38
1.247368 0.356722 -0.040325 2.341805152028776e-38
1.255829 0.352525 -0.040556 2.341805152028776e-38
1.284515 0.353828 -0.041439 2.341805152028776e-38
0.991653 0.788918 -0.045340 2.341805152028776e-38
0.964079 0.757731 -0.043884 2.341805152028776e-38
0.935346 0.726331 -0.042393 2.341805152028776e-38
0.925309 0.709893 -0.041758 2.341805152028776e-38
0.932634 0.706879 -0.041910 2.341805152028776e-38
0.938355 0.702606 -0.041988 2.341805152028776e-38
0.942438 0.697119 -0.041995 2.341805152028776e-38
0.947261 0.692246 -0.042039 2.341805152028776e-38
0.952059 0.687341 -0.042082 2.341805152028776e-38
0.957646 0.682983 -0.042159 2.341805152028776e-38
0.962397 0.678009 -0.042200 2.341805152028776e-38
0.967930 0.673591 -0.042276 2.341805152028776e-38
0.972586 0.668615 -0.042317 2.341805152028776e-38
0.974737 0.661924 -0.042250 2.341805152028776e-38
0.976013 0.654674 -0.042146 2.341805152028776e-38
0.982237 0.650742 -0.042256 2.341805152028776e-38
0.990945 0.648420 -0.042473 2.341805152028776e-38
0.993750 0.642274 -0.042441 2.341805152028776e-38
0.998201 0.637193 -0.042480 2.341805152028776e-38
1.001781 0.631549 -0.042481 2.341805152028776e-38
1.008723 0.627998 -0.042624 2.341805152028776e-38
1.010538 0.621266 -0.042552 2.341805152028776e-38
1.018257 0.618216 -0.042734 2.341805152028776e-38
1.024258 0.614073 -0.042842 2.341805152028776e-38
1.029385 0.609372 -0.042914 2.341805152028776e-38
1.032765 0.603625 -0.042912 2.341805152028776e-38
1.038701 0.599374 -0.043017 2.341805152028776e-38
1.043721 0.594638 -0.043090 2.341805152028776e-38
1.048720 0.589864 -0.043161 2.341805152028776e-38
1.051951 0.584082 -0.043159 2.341805152028776e-38
1.057779 0.579725 -0.043263 2.341805152028776e-38
1.061824 0.574386 -0.043295 2.341805152028776e-38
1.067575 0.570019 -0.043402 2.341805152028776e-38
1.071541 0.564675 -0.043437 2.341805152028776e-38
1.072820 0.557922 -0.043362 2.341805152028776e-38
1.075836 0.552084 -0.043357 2.341805152028776e-38
1.082379 0.548051 -0.043496 2.341805152028776e-38
1.086198 0.542683 -0.043531 2.341805152028776e-38
1.093575 0.539058 -0.043707 2.341805152028776e-38
1.099147 0.534495 -0.043811 2.341805152028776e-38
1.101999 0.528591 -0.043806 2.341805152028776e-38
1.104812 0.522687 -0.043801 2.341805152028776e-38
1.109375 0.517675 -0.043871 2.341805152028776e-38
1.113008 0.512212 -0.043904 2.341805152028776e-38
1.117525 0.507138 -0.043972 2.341805152028776e-38
1.121106 0.501623 -0.044002 2.341805152028776e-38
1.126484 0.496903 -0.044104 2.341805152028776e-38
1.130898 0.491808 -0.044174 2.341805152028776e-38
1.135289 0.486680 -0.044244 2.341805152028776e-38
1.137816 0.480742 -0.044240 2.341805152028776e-38
1.141235 0.475175 -0.044271 2.341805152028776e-38
1.142773 0.468839 -0.044230 2.341805152028776e-38
1.147954 0.464065 -0.044337 2.341805152028776e-38
1.154973 0.459990 -0.044515 2.341805152028776e-38
1.163842 0.456585 -0.044763 2.341805152028776e-38
1.167112 0.450940 -0.044795 2.341805152028776e-38
1.171286 0.445638 -0.044863 2.341805152028776e-38
1.174472 0.440027 -0.044901 2.341805152028776e-38
1.180445 0.435432 -0.045045 2.341805152028776e-38
1.187341 0.431129 -0.045223 2.341805152028776e-38
1.188577 0.424749 -0.045186 2.341805152028776e-38
1.191662 0.419039 -0.045220 2.341805152028776e-38
1.197526 0.414364 -0.045368 2.341805152028776e-38
1.199589 0.408352 -0.045372 2.341805152028776e-38
1.201622 0.402330 -0.045376 2.341805152028776e-38
1.206473 0.397236 -0.045485 2.341805152028776e-38
1.209399 0.391493 -0.045522 2.341805152028776e-38
1.216082 0.387021 -0.045711 2.341805152028776e-38
1.223703 0.382791 -0.045935 2.341805152028776e-38
1.227492 0.377321 -0.046015 2.341805152028776e-38
1.232213 0.372111 -0.046129 2.341805152028776e-38
1.233080 0.365730 -0.046100 2.341805152028776e-38
1.231010 0.358593 -0.045973 2.341805152028776e-38
1.241392 0.355058 -0.046312 2.341805152028776e-38
1.247919 0.350350 -0.046507 2.341805152028776e-38
1.278516 0.352222 -0.047598 2.341805152028776e-38
0.992149 0.789530 -0.051425 2.341805152028776e-38
0.963019 0.757100 -0.049694 2.341805152028776e-38
0.932714 0.724481 -0.047923 2.341805152028776e-38
0.921878 0.707451 -0.047163 2.341805152028776e-38
0.929187 0.704457 -0.047335 2.341805152028776e-38
0.934095 0.699604 -0.047384 2.341805152028776e-38
0.940573 0.695921 -0.047513 2.341805152028776e-38
0.944582 0.690469 -0.047522 2.341805152028776e-38
0.950990 0.686749 -0.047652 2.341805152028776e-38
0.952505 0.679496 -0.047537 2.341805152028776e-38
0.960503 0.676854 -0.047745 2.341805152028776e-38
0.967672 0.673584 -0.047912 2.341805152028776e-38
0.969035 0.666345 -0.047797 2.341805152028776e-38
0.972826 0.660797 -0.047802 2.341805152028776e-38
0.984883 0.660794 -0.048212 2.341805152028776e-38
0.989476 0.655708 -0.048256 2.341805152028776e-38
0.991526 0.648962 -0.048176 2.341805152028776e-38
0.993494 0.642271 -0.048100 2.341805152028776e-38
0.997103 0.636653 -0.048103 2.341805152028776e-38
1.000680 0.631016 -0.048104 2.341805152028776e-38
1.005922 0.626414 -0.048186 2.341805152028776e-38
1.011136 0.621786 -0.048266 2.341805152028776e-38
1.016294 0.617177 -0.048350 2.341805152028776e-38
1.021433 0.612531 -0.048433 2.341805152028776e-38
1.025691 0.607337 -0.048473 2.341805152028776e-38
1.032510 0.603628 -0.048634 2.341805152028776e-38
1.040179 0.600372 -0.048834 2.341805152028776e-38
1.045204 0.595627 -0.048916 2.341805152028776e-38
1.046725 0.588885 -0.048834 2.341805152028776e-38
1.049077 0.582630 -0.048792 2.341805152028776e-38
1.055773 0.578768 -0.048951 2.341805152028776e-38
1.059816 0.573434 -0.048987 2.341805152028776e-38
1.065560 0.569079 -0.049108 2.341805152028776e-38
1.067753 0.562814 -0.049066 2.341805152028776e-38
1.070796 0.557003 -0.049062 2.341805152028776e-38
1.072918 0.550720 -0.049017 2.341805152028776e-38
1.079456 0.546697 -0.049174 2.341805152028776e-38
1.085949 0.542685 -0.049335 2.341805152028776e-38
1.093325 0.539061 -0.049535 2.341805152028776e-38
1.098897 0.534500 -0.049653 2.341805152028776e-38
1.101748 0.528597 -0.049647 2.341805152028776e-38
1.103661 0.522260 -0.049600 2.341805152028776e-38
1.107316 0.516832 -0.049639 2.341805152028776e-38
1.112760 0.512215 -0.049758 2.341805152028776e-38
1.116367 0.506730 -0.049794 2.341805152028776e-38
1.119034 0.500813 -0.049788 2.341805152028776e-38
1.124410 0.496097 -0.049903 2.341805152028776e-38
1.129735 0.491411 -0.050024 2.341805152028776e-38
1.135042 0.486683 -0.050143 2.341805152028776e-38
1.137570 0.480746 -0.050139 2.341805152028776e-38
1.140988 0.475181 -0.050174 2.341805152028776e-38
1.144378 0.469597 -0.050208 2.341805152028776e-38
1.150489 0.465189 -0.050371 2.341805152028776e-38
1.153800 0.459622 -0.050410 2.341805152028776e-38
1.160805 0.455493 -0.050610 2.341805152028776e-38
1.163138 0.449504 -0.050606 2.341805152028776e-38
1.169174 0.444925 -0.050763 2.341805152028776e-38
1.173293 0.439675 -0.050847 2.341805152028776e-38
1.179263 0.435086 -0.051010 2.341805152028776e-38
1.183339 0.429765 -0.051091 2.341805152028776e-38
1.184568 0.423406 -0.051049 2.341805152028776e-38
1.187649 0.417709 -0.051087 2.341805152028776e-38
1.191618 0.412398 -0.051173 2.341805152028776e-38
1.196509 0.407382 -0.051300 2.341805152028776e-38
1.202327 0.402644 -0.051466 2.341805152028776e-38
1.204331 0.396609 -0.051468 2.341805152028776e-38
1.210108 0.391795 -0.051632 2.341805152028776e-38
1.214888 0.386708 -0.051764 2.341805152028776e-38
1.222507 0.382483 -0.052018 2.341805152028776e-38
1.227249 0.377312 -0.052149 2.341805152028776e-38
1.230057 0.371526 -0.052198 2.341805152028776e-38
1.229006 0.364584 -0.052083 2.341805152028776e-38
1.230771 0.358576 -0.052101 2.341805152028776e-38
1.242111 0.355316 -0.052525 2.341805152028776e-38
1.240943 0.348443 -0.052421 2.341805152028776e-38
1.275379 0.351409 -0.053819 2.341805152028776e-38
0.993389 0.790762 -0.057565 2.341805152028776e-38
0.965852 0.759556 -0.055720 2.341805152028776e-38
0.930839 0.723243 -0.053469 2.341805152028776e-38
0.920793 0.706832 -0.052666 2.341805152028776e-38
0.928098 0.703844 -0.052858 2.341805152028776e-38
0.933801 0.699597 -0.052958 2.341805152028776e-38
0.938676 0.694722 -0.053011 2.341805152028776e-38
0.945904 0.691639 -0.053203 2.341805152028776e-38
0.950698 0.686741 -0.053257 2.341805152028776e-38
0.953027 0.680070 -0.053174 2.341805152028776e-38
0.960210 0.676849 -0.053362 2.341805152028776e-38
0.966563 0.673005 -0.053502 2.341805152028776e-38
0.972038 0.668603 -0.053601 2.341805152028776e-38
0.986584 0.670336 -0.054197 2.341805152028776e-38
0.993716 0.666915 -0.054384 2.341805152028776e-38
0.992514 0.657914 -0.054114 2.341805152028776e-38
0.994581 0.651145 -0.054025 2.341805152028776e-38
0.994884 0.643352 -0.053849 2.341805152028776e-38
0.995132 0.635575 -0.053671 2.341805152028776e-38
0.998703 0.629949 -0.053673 2.341805152028776e-38
1.004786 0.625887 -0.053809 2.341805152028776e-38
1.010000 0.621259 -0.053899 2.341805152028776e-38
1.016863 0.617694 -0.054084 2.341805152028776e-38
1.022860 0.613558 -0.054221 2.341805152028776e-38
1.027124 0.608356 -0.054267 2.341805152028776e-38
1.034810 0.605143 -0.054492 2.341805152028776e-38
1.045085 0.603367 -0.054852 2.341805152028776e-38
1.048391 0.597605 -0.054853 2.341805152028776e-38
1.046441 0.588886 -0.054580 2.341805152028776e-38
1.048793 0.582633 -0.054532 2.341805152028776e-38
1.055488 0.578773 -0.054710 2.341805152028776e-38
1.058655 0.572959 -0.054705 2.341805152028776e-38
1.063516 0.568138 -0.054795 2.341805152028776e-38
1.067471 0.562817 -0.054839 2.341805152028776e-38
1.071400 0.557469 -0.054880 2.341805152028776e-38
1.078857 0.553920 -0.055102 2.341805152028776e-38
1.083633 0.548954 -0.055186 2.341805152028776e-38
1.089243 0.544473 -0.055321 2.341805152028776e-38
1.093044 0.539064 -0.055363 2.341805152028776e-38
1.097716 0.534068 -0.055450 2.341805152028776e-38
1.096963 0.526443 -0.055262 2.341805152028776e-38
1.097063 0.519269 -0.055118 2.341805152028776e-38
1.102512 0.514721 -0.055253 2.341805152028776e-38
1.109759 0.510966 -0.055476 2.341805152028776e-38
1.114268 0.505909 -0.055562 2.341805152028776e-38
1.119667 0.501228 -0.055692 2.341805152028776e-38
1.123219 0.495697 -0.055729 2.341805152028776e-38
1.128542 0.491014 -0.055864 2.341805152028776e-38
1.134765 0.486686 -0.056043 2.341805152028776e-38
1.137292 0.480751 -0.056038 2.341805152028776e-38
1.144400 0.476724 -0.056259 2.341805152028776e-38
1.145951 0.470360 -0.056206 2.341805152028776e-38
1.150214 0.465190 -0.056297 2.341805152028776e-38
1.154453 0.459994 -0.056386 2.341805152028776e-38
1.154949 0.453307 -0.056293 2.341805152028776e-38
1.151680 0.445186 -0.056017 2.341805152028776e-38
1.155827 0.439955 -0.056102 2.341805152028776e-38
1.169278 0.438270 -0.056647 2.341805152028776e-38
1.176177 0.434048 -0.056875 2.341805152028776e-38
1.182125 0.429425 -0.057056 2.341805152028776e-38
1.185234 0.423745 -0.057100 2.341805152028776e-38
1.189258 0.418375 -0.057188 2.341805152028776e-38
1.194178 0.413373 -0.057329 2.341805152028776e-38
1.197182 0.407699 -0.057380 2.341805152028776e-38
1.197317 0.401055 -0.057294 2.341805152028776e-38
1.200263 0.395357 -0.057342 2.341805152028776e-38
1.202230 0.389332 -0.057343 2.341805152028776e-38
1.210810 0.385484 -0.057671 2.341805152028776e-38
1.218422 0.381280 -0.057954 2.341805152028776e-38
1.226021 0.377009 -0.058237 2.341805152028776e-38
1.228827 0.371228 -0.058292 2.341805152028776e-38
1.229691 0.364861 -0.058255 2.341805152028776e-38
1.232420 0.359116 -0.058318 2.341805152028776e-38
1.238959 0.354473 -0.058565 2.341805152028776e-38
1.237787 0.347614 -0.058448 2.341805152028776e-38
1.276064 0.351657 -0.060194 2.341805152028776e-38
0.993812 0.791371 -0.063674 2.341805152028776e-38
0.963939 0.758304 -0.061484 2.341805152028776e-38
0.929721 0.722616 -0.059046 2.341805152028776e-38
0.923637 0.709253 -0.058409 2.341805152028776e-38
0.930955 0.706248 -0.058621 2.341805152028776e-38
0.935073 0.700786 -0.058631 2.341805152028776e-38
0.941564 0.697087 -0.058790 2.341805152028776e-38
0.946386 0.692218 -0.058853 2.341805152028776e-38
0.949564 0.686147 -0.058813 2.341805152028776e-38
0.952704 0.680063 -0.058771 2.341805152028776e-38
0.961518 0.677995 -0.059078 2.341805152028776e-38
0.968699 0.674708 -0.059284 2.341805152028776e-38
0.975007 0.670860 -0.059443 2.341805152028776e-38
0.982954 0.668085 -0.059701 2.341805152028776e-38
0.987584 0.663014 -0.059757 2.341805152028776e-38
0.988859 0.655704 -0.059609 2.341805152028776e-38
0.991753 0.649497 -0.059561 2.341805152028776e-38
0.993726 0.642804 -0.059466 2.341805152028776e-38
0.998180 0.637723 -0.059521 2.341805152028776e-38
0.999229 0.630480 -0.059373 2.341805152028776e-38
1.005314 0.626415 -0.059524 2.341805152028776e-38
1.009684 0.621255 -0.059572 2.341805152028776e-38
1.020813 0.620285 -0.060028 2.341805152028776e-38
1.023398 0.614071 -0.059979 2.341805152028776e-38
1.027664 0.608866 -0.060029 2.341805152028776e-38
1.032766 0.604138 -0.060127 2.341805152028776e-38
1.043037 0.602368 -0.060525 2.341805152028776e-38
1.034191 0.589690 -0.059824 2.341805152028776e-38
1.035681 0.583009 -0.059723 2.341805152028776e-38
1.043239 0.579725 -0.059972 2.341805152028776e-38
1.051668 0.576856 -0.060269 2.341805152028776e-38
1.055705 0.571535 -0.060313 2.341805152028776e-38
1.063202 0.568139 -0.060563 2.341805152028776e-38
1.068041 0.563285 -0.060661 2.341805152028776e-38
1.073744 0.558857 -0.060808 2.341805152028776e-38
1.075876 0.552558 -0.060752 2.341805152028776e-38
1.080645 0.547607 -0.060845 2.341805152028776e-38
1.085357 0.542689 -0.060944 2.341805152028776e-38
1.090044 0.537743 -0.061041 2.341805152028776e-38
1.093811 0.532325 -0.061086 2.341805152028776e-38
1.095751 0.526018 -0.061030 2.341805152028776e-38
1.101265 0.521415 -0.061172 2.341805152028776e-38
1.104919 0.515991 -0.061219 2.341805152028776e-38
1.106728 0.509716 -0.061166 2.341805152028776e-38
1.112140 0.505089 -0.061311 2.341805152028776e-38
1.114799 0.499194 -0.061305 2.341805152028776e-38
1.121081 0.494899 -0.061496 2.341805152028776e-38
1.125488 0.489821 -0.061594 2.341805152028776e-38
1.130785 0.485115 -0.061742 2.341805152028776e-38
1.133305 0.479201 -0.061738 2.341805152028776e-38
1.141324 0.475578 -0.062032 2.341805152028776e-38
1.144717 0.469989 -0.062074 2.341805152028776e-38
1.148983 0.464816 -0.062173 2.341805152028776e-38
1.153219 0.459626 -0.062272 2.341805152028776e-38
1.149996 0.451485 -0.061969 2.341805152028776e-38
1.151376 0.445191 -0.061914 2.341805152028776e-38
1.162056 0.442449 -0.062359 2.341805152028776e-38
1.171780 0.439320 -0.062760 2.341805152028776e-38
1.177747 0.434738 -0.062962 2.341805152028776e-38
1.179942 0.428744 -0.062962 2.341805152028776e-38
1.184929 0.423747 -0.063111 2.341805152028776e-38
1.187068 0.417716 -0.063108 2.341805152028776e-38
1.191988 0.412713 -0.063263 2.341805152028776e-38
1.194043 0.406728 -0.063269 2.341805152028776e-38
1.196068 0.400734 -0.063274 2.341805152028776e-38
1.201857 0.395979 -0.063478 2.341805152028776e-38
1.214279 0.393331 -0.064031 2.341805152028776e-38
1.220978 0.388805 -0.064291 2.341805152028776e-38
1.219073 0.381566 -0.064103 2.341805152028776e-38
1.220945 0.375530 -0.064115 2.341805152028776e-38
1.226612 0.370641 -0.064326 2.341805152028776e-38
1.230345 0.365137 -0.064436 2.341805152028776e-38
1.232121 0.359094 -0.064453 2.341805152028776e-38
1.235778 0.353628 -0.064575 2.341805152028776e-38
1.233641 0.346514 -0.064396 2.341805152028776e-38
1.278643 0.352433 -0.066676 2.341805152028776e-38
2.280149 0.581055 -0.118467 2.341805152028776e-38
0.988731 0.787623 -0.069407 2.341805152028776e-38
0.962777 0.757670 -0.067283 2.341805152028776e-38
0.934088 0.726277 -0.064998 2.341805152028776e-38
0.924862 0.710456 -0.064080 2.341805152028776e-38
0.928210 0.704425 -0.064039 2.341805152028776e-38
0.933116 0.699578 -0.064105 2.341805152028776e-38
0.937997 0.694698 -0.064169 2.341805152028776e-38
0.943612 0.690437 -0.064292 2.341805152028776e-38
0.950017 0.686722 -0.064468 2.341805152028776e-38
0.953973 0.681216 -0.064477 2.341805152028776e-38
0.961160 0.677989 -0.064704 2.341805152028776e-38
0.967523 0.674130 -0.064874 2.341805152028776e-38
0.972184 0.669153 -0.064939 2.341805152028776e-38
0.977642 0.664710 -0.065057 2.341805152028776e-38
0.978938 0.657442 -0.064898 2.341805152028776e-38
0.981014 0.650734 -0.064792 2.341805152028776e-38
0.988057 0.647307 -0.065013 2.341805152028776e-38
0.994213 0.643342 -0.065184 2.341805152028776e-38
0.996986 0.637182 -0.065134 2.341805152028776e-38
0.998878 0.630479 -0.065027 2.341805152028776e-38
1.004115 0.625888 -0.065138 2.341805152028776e-38
1.007631 0.620211 -0.065136 2.341805152028776e-38
1.012784 0.615614 -0.065249 2.341805152028776e-38
1.017911 0.610987 -0.065361 2.341805152028776e-38
1.023878 0.606831 -0.065526 2.341805152028776e-38
1.029830 0.602628 -0.065689 2.341805152028776e-38
1.033173 0.596879 -0.065685 2.341805152028776e-38
1.033846 0.589689 -0.065521 2.341805152028776e-38
1.039686 0.585459 -0.065686 2.341805152028776e-38
1.045511 0.581184 -0.065848 2.341805152028776e-38
1.051320 0.576862 -0.066009 2.341805152028776e-38
1.057114 0.572493 -0.066168 2.341805152028776e-38
1.062857 0.568141 -0.066331 2.341805152028776e-38
1.067695 0.563288 -0.066439 2.341805152028776e-38
1.071626 0.557939 -0.066490 2.341805152028776e-38
1.074642 0.552108 -0.066484 2.341805152028776e-38
1.080299 0.547615 -0.066641 2.341805152028776e-38
1.085014 0.542691 -0.066748 2.341805152028776e-38
1.089701 0.537747 -0.066855 2.341805152028776e-38
1.096161 0.533642 -0.067070 2.341805152028776e-38
1.108909 0.532509 -0.067667 2.341805152028776e-38
1.108140 0.524844 -0.067438 2.341805152028776e-38
1.110912 0.518952 -0.067434 2.341805152028776e-38
1.109110 0.510974 -0.067157 2.341805152028776e-38
1.110891 0.504682 -0.067096 2.341805152028776e-38
1.113547 0.498794 -0.067089 2.341805152028776e-38
1.128960 0.498539 -0.067849 2.341805152028776e-38
1.137052 0.495003 -0.068174 2.341805152028776e-38
1.135953 0.487481 -0.067952 2.341805152028776e-38
1.134806 0.479984 -0.067728 2.341805152028776e-38
1.140985 0.475586 -0.067941 2.341805152028776e-38
1.143454 0.469619 -0.067932 2.341805152028776e-38
1.147722 0.464441 -0.068039 2.341805152028776e-38
1.152883 0.459628 -0.068203 2.341805152028776e-38
1.151520 0.452219 -0.067981 2.341805152028776e-38
1.159423 0.448439 -0.068305 2.341805152028776e-38
1.166385 0.444234 -0.068573 2.341805152028776e-38
1.169576 0.438616 -0.068627 2.341805152028776e-38
1.174601 0.433700 -0.068794 2.341805152028776e-38
1.180545 0.429085 -0.069014 2.341805152028776e-38
1.184592 0.423749 -0.069122 2.341805152028776e-38
1.188616 0.418383 -0.069229 2.341805152028776e-38
1.192599 0.413032 -0.069341 2.341805152028776e-38
1.192765 0.406400 -0.069239 2.341805152028776e-38
1.193842 0.400094 -0.069189 2.341805152028776e-38
1.211955 0.399414 -0.070126 2.341805152028776e-38
1.221542 0.395792 -0.070568 2.341805152028776e-38
1.221596 0.389094 -0.070466 2.341805152028776e-38
1.219694 0.381851 -0.070261 2.341805152028776e-38
1.221567 0.375812 -0.070274 2.341805152028776e-38
1.228190 0.371208 -0.070560 2.341805152028776e-38
1.228096 0.364559 -0.070461 2.341805152028776e-38
1.227957 0.357952 -0.070367 2.341805152028776e-38
1.234488 0.353330 -0.070666 2.341805152028776e-38
1.233312 0.346491 -0.070525 2.341805152028776e-38
1.289854 0.355595 -0.073682 2.341805152028776e-38
0.996889 0.794450 -0.076097 2.341805152028776e-38
0.967851 0.761978 -0.073550 2.341805152028776e-38
0.933692 0.726260 -0.070648 2.341805152028776e-38
0.922096 0.708616 -0.069472 2.341805152028776e-38
0.927023 0.703809 -0.069546 2.341805152028776e-38
0.930328 0.697771 -0.069499 2.341805152028776e-38
0.936001 0.693501 -0.069629 2.341805152028776e-38
0.940808 0.688656 -0.069702 2.341805152028776e-38
0.945583 0.683787 -0.069774 2.341805152028776e-38
0.950335 0.678886 -0.069844 2.341805152028776e-38
0.959138 0.676831 -0.070211 2.341805152028776e-38
0.963856 0.671843 -0.070276 2.341805152028776e-38
0.969330 0.667445 -0.070406 2.341805152028776e-38
0.971477 0.660772 -0.070295 2.341805152028776e-38
0.974408 0.654654 -0.070242 2.341805152028776e-38
0.980628 0.650731 -0.070425 2.341805152028776e-38
0.986834 0.646759 -0.070607 2.341805152028776e-38
0.992153 0.642251 -0.070732 2.341805152028776e-38
0.993239 0.635027 -0.070559 2.341805152028776e-38
0.995963 0.628878 -0.070502 2.341805152028776e-38
1.000343 0.623775 -0.070563 2.341805152028776e-38
1.005548 0.619166 -0.070681 2.341805152028776e-38
1.014110 0.616648 -0.071042 2.341805152028776e-38
1.018387 0.611500 -0.071105 2.341805152028776e-38
1.026073 0.608359 -0.071404 2.341805152028776e-38
1.029448 0.602631 -0.071402 2.341805152028776e-38
1.032791 0.596884 -0.071398 2.341805152028776e-38
1.036071 0.591172 -0.071398 2.341805152028776e-38
1.039309 0.585461 -0.071398 2.341805152028776e-38
1.043388 0.580217 -0.071455 2.341805152028776e-38
1.049191 0.575906 -0.071630 2.341805152028776e-38
1.053223 0.570599 -0.071683 2.341805152028776e-38
1.058960 0.566258 -0.071860 2.341805152028776e-38
1.064670 0.561893 -0.072038 2.341805152028776e-38
1.068593 0.556561 -0.072093 2.341805152028776e-38
1.068938 0.549378 -0.071908 2.341805152028776e-38
1.076360 0.545819 -0.072198 2.341805152028776e-38
1.083748 0.542246 -0.072493 2.341805152028776e-38
1.092907 0.539518 -0.072908 2.341805152028776e-38
1.102068 0.536707 -0.073321 2.341805152028776e-38
1.105831 0.531221 -0.073373 2.341805152028776e-38
1.105056 0.523573 -0.073125 2.341805152028776e-38
1.106922 0.517264 -0.073060 2.341805152028776e-38
1.108739 0.510978 -0.072997 2.341805152028776e-38
1.111429 0.505101 -0.072992 2.341805152028776e-38
1.119553 0.501660 -0.073342 2.341805152028776e-38
1.126759 0.497743 -0.073631 2.341805152028776e-38
1.122037 0.488628 -0.073148 2.341805152028776e-38
1.126410 0.483547 -0.073265 2.341805152028776e-38
1.131679 0.478823 -0.073439 2.341805152028776e-38
1.138772 0.474825 -0.073731 2.341805152028776e-38
1.143084 0.469629 -0.073841 2.341805152028776e-38
1.147356 0.464441 -0.073956 2.341805152028776e-38
1.150662 0.458890 -0.074015 2.341805152028776e-38
1.153941 0.453318 -0.074071 2.341805152028776e-38
1.158125 0.448084 -0.074186 2.341805152028776e-38
1.162285 0.442820 -0.074299 2.341805152028776e-38
1.167342 0.437911 -0.074475 2.341805152028776e-38
1.171427 0.432660 -0.074597 2.341805152028776e-38
1.178303 0.428403 -0.074896 2.341805152028776e-38
1.180466 0.422406 -0.074895 2.341805152028776e-38
1.184482 0.417061 -0.075011 2.341805152028776e-38
1.187520 0.411390 -0.075071 2.341805152028776e-38
1.188624 0.405105 -0.075019 2.341805152028776e-38
1.193480 0.400089 -0.075205 2.341805152028776e-38
1.204952 0.397223 -0.075806 2.341805152028776e-38
1.212626 0.393020 -0.076167 2.341805152028776e-38
1.212672 0.386351 -0.076053 2.341805152028776e-38
1.216473 0.380942 -0.076188 2.341805152028776e-38
1.219297 0.375212 -0.076263 2.341805152028776e-38
1.222093 0.369463 -0.076335 2.341805152028776e-38
1.222948 0.363128 -0.076287 2.341805152028776e-38
1.222808 0.356529 -0.076181 2.341805152028776e-38
1.229330 0.351931 -0.076507 2.341805152028776e-38
1.227187 0.344847 -0.076294 2.341805152028776e-38
1.290441 0.355836 -0.080143 2.341805152028776e-38
1.001102 0.798165 -0.082569 2.341805152028776e-38
0.972102 0.765668 -0.079819 2.341805152028776e-38
0.936412 0.728693 -0.076555 2.341805152028776e-38
0.922465 0.709208 -0.075093 2.341805152028776e-38
0.925011 0.702588 -0.074980 2.341805152028776e-38
0.928309 0.696561 -0.074929 2.341805152028776e-38
0.930767 0.689926 -0.074811 2.341805152028776e-38
0.938778 0.687462 -0.075148 2.341805152028776e-38
0.946781 0.684945 -0.075484 2.341805152028776e-38
0.952350 0.680617 -0.075624 2.341805152028776e-38
0.956270 0.675097 -0.075633 2.341805152028776e-38
0.962614 0.671266 -0.075833 2.341805152028776e-38
0.966446 0.665737 -0.075843 2.341805152028776e-38
0.971059 0.660764 -0.075918 2.341805152028776e-38
0.975647 0.655761 -0.075989 2.341805152028776e-38
0.979378 0.650175 -0.075995 2.341805152028776e-38
0.987249 0.647305 -0.076320 2.341805152028776e-38
0.987550 0.639532 -0.076068 2.341805152028776e-38
0.991984 0.634485 -0.076138 2.341805152028776e-38
0.998080 0.630475 -0.076335 2.341805152028776e-38
1.003316 0.625888 -0.076466 2.341805152028776e-38
1.005133 0.619169 -0.076336 2.341805152028776e-38
1.015403 0.617682 -0.076854 2.341805152028776e-38
1.021397 0.613554 -0.077051 2.341805152028776e-38
1.026517 0.608869 -0.077181 2.341805152028776e-38
1.029034 0.602634 -0.077114 2.341805152028776e-38
1.032377 0.596889 -0.077110 2.341805152028776e-38
1.036529 0.591666 -0.077174 2.341805152028776e-38
1.040639 0.586441 -0.077239 2.341805152028776e-38
1.043851 0.580705 -0.077237 2.341805152028776e-38
1.048781 0.575912 -0.077361 2.341805152028776e-38
1.053690 0.571082 -0.077484 2.341805152028776e-38
1.062074 0.568142 -0.077867 2.341805152028776e-38
1.065145 0.562362 -0.077866 2.341805152028776e-38
1.067301 0.556105 -0.077797 2.341805152028776e-38
1.069420 0.549841 -0.077726 2.341805152028776e-38
1.075952 0.545829 -0.077976 2.341805152028776e-38
1.086021 0.543588 -0.078486 2.341805152028776e-38
1.096974 0.541731 -0.079063 2.341805152028776e-38
1.098967 0.535403 -0.078994 2.341805152028776e-38
1.097326 0.527339 -0.078664 2.341805152028776e-38
1.101943 0.522301 -0.078783 2.341805152028776e-38
1.106520 0.517266 -0.078905 2.341805152028776e-38
1.115587 0.514325 -0.079353 2.341805152028776e-38
1.117386 0.507999 -0.079283 2.341805152028776e-38
1.110954 0.497995 -0.078631 2.341805152028776e-38
1.117226 0.493721 -0.078878 2.341805152028776e-38
1.119810 0.487833 -0.078871 2.341805152028776e-38
1.126928 0.483944 -0.079191 2.341805152028776e-38
1.133118 0.479606 -0.079444 2.341805152028776e-38
1.139292 0.475217 -0.079695 2.341805152028776e-38
1.141760 0.469260 -0.079686 2.341805152028776e-38
1.146034 0.464066 -0.079808 2.341805152028776e-38
1.150265 0.458892 -0.079936 2.341805152028776e-38
1.151687 0.452591 -0.079869 2.341805152028776e-38
1.157727 0.448090 -0.080122 2.341805152028776e-38
1.163752 0.443538 -0.080373 2.341805152028776e-38
1.167883 0.438258 -0.080496 2.341805152028776e-38
1.172905 0.433350 -0.080693 2.341805152028776e-38
1.178844 0.428744 -0.080952 2.341805152028776e-38
1.181010 0.422744 -0.080951 2.341805152028776e-38
1.184085 0.417065 -0.081013 2.341805152028776e-38
